# This PCD file was generated using the MATLAB® pcwrite function
# from Computer Vision Toolbox®.
# .PCD v.7 - Point Cloud Data file format
VERSION .7
FIELDS x y z intensity
SIZE 4 4 4 4
TYPE F F F F
COUNT 1 1 1 1
WIDTH 1283
HEIGHT 1
VIEWPOINT 0 0 0 1 0 0 0
POINTS 1283
DATA ascii
31.453850 0.688927 2.750434 0.070000
13.003784 -1.124957 1.390518 0.080000
17.978468 -3.721462 1.753855 0.000000
6.514196 -1.667725 0.931556 0.400000
11.323901 5.803440 0.226876 0.080000
12.334049 4.502611 0.209677 0.050000
12.816473 3.076617 0.200635 0.010000
10.943716 1.365155 0.269385 0.110000
13.319984 0.290822 0.176593 0.020000
11.954078 -0.985727 0.213283 0.120000
12.089742 -2.318218 0.168683 0.030000
6.540684 -1.670257 0.396610 0.260000
4.949675 1.800968 0.110358 0.030000
5.153069 1.364786 0.109267 0.020000
5.311185 0.942739 0.108111 0.080000
5.449029 0.535326 0.101956 0.020000
5.492275 0.106097 0.095473 0.040000
5.485422 -0.319110 0.093875 0.090000
5.433807 -0.755120 0.077119 0.040000
5.236784 -1.173986 0.080048 0.110000
28.900885 16.941420 3.209191 0.030000
29.587206 12.204314 3.033371 0.040000
30.285616 8.127190 2.960037 0.030000
11.130256 1.399865 1.325012 0.290000
31.387848 0.727321 2.845406 0.240000
13.073571 -1.118766 1.430723 0.150000
18.103466 -3.729308 1.819153 0.000000
6.498872 -1.653071 0.946570 0.360000
11.323427 5.823306 0.261949 0.100000
10.963333 1.380405 0.304494 0.090000
14.174415 0.327156 0.188959 0.020000
13.023892 -2.525346 0.165352 0.030000
6.545535 -1.665236 0.416641 0.270000
5.008801 1.847108 0.110684 0.030000
5.212470 1.395911 0.114538 0.030000
5.385787 0.964172 0.108385 0.100000
5.533726 0.551951 0.102239 0.020000
5.552155 0.112226 0.100653 0.040000
5.570515 -0.322462 0.089085 0.060000
5.509068 -0.768700 0.082265 0.040000
5.317248 -1.197449 0.080171 0.110000
29.581154 12.243802 3.143503 0.020000
30.279577 8.166696 3.065170 0.020000
11.139971 1.409924 1.360075 0.320000
31.386972 0.756888 2.960515 0.160000
18.278620 -3.746232 1.894548 0.000000
6.508818 -1.652954 0.966597 0.460000
11.298397 5.817642 0.311863 0.160000
14.361465 5.436531 0.238441 0.020000
14.815137 3.684947 0.223114 0.010000
10.978061 1.390578 0.334570 0.070000
14.744576 -1.242220 0.189613 0.040000
6.540401 -1.660389 0.431646 0.230000
5.073023 1.888345 0.111004 0.030000
5.286881 1.427341 0.114849 0.020000
5.455391 0.985509 0.108646 0.110000
5.618423 0.568576 0.102522 0.020000
5.622046 0.118566 0.100859 0.050000
5.650582 -0.325948 0.094281 0.040000
5.569235 -0.777567 0.087389 0.030000
5.387714 -1.221104 0.080267 0.110000
43.351551 18.418467 4.607416 0.020000
30.293852 8.186496 3.195282 0.020000
11.104886 1.409124 1.394981 0.400000
34.904408 0.867806 3.370113 0.180000
11.945825 -0.985322 1.423276 0.040000
18.645029 -3.829577 1.990195 0.000000
6.538952 -1.662452 0.986641 1.130000
11.273393 5.812016 0.351777 0.170000
14.961305 5.707975 0.266016 0.030000
10.982873 1.395543 0.369602 0.070000
6.545252 -1.655369 0.451678 0.220000
5.147133 1.934755 0.116370 0.040000
5.395916 1.479457 0.110327 0.030000
5.529885 1.011922 0.113939 0.110000
5.703106 0.585182 0.107805 0.020000
5.727027 0.120577 0.101140 0.060000
5.720748 -0.334624 0.099432 0.040000
5.689800 -0.805245 0.082601 0.030000
5.458167 -1.244777 0.085363 0.100000
53.109612 32.476929 6.295165 0.020000
43.375118 18.468266 4.787665 0.030000
57.265789 16.064928 5.890001 0.070000
11.139584 1.419644 1.435111 0.290000
34.903782 0.882320 3.500166 0.330000
13.102843 -1.098678 1.560876 0.030000
45.272289 -10.029371 4.396678 0.000000
6.508618 -1.648104 1.006615 1.509000
11.283082 5.822038 0.396840 0.170000
17.068567 6.653500 0.275032 0.010000
19.251074 4.985205 0.219526 0.000000
11.032580 1.406369 0.404772 0.080000
13.228873 0.323442 0.351479 0.010000
18.146482 -1.572163 0.207267 0.030000
13.394851 -2.588693 0.286086 0.010000
6.530107 -1.650731 0.471656 0.300000
5.245883 2.001676 0.111877 0.040000
5.470218 1.515868 0.115657 0.030000
5.619389 1.038641 0.114272 0.110000
5.792898 0.596904 0.108083 0.030000
5.816997 0.122282 0.106381 0.050000
5.825920 -0.342611 0.099676 0.040000
5.755063 -0.819016 0.087720 0.030000
5.548917 -1.283046 0.085457 0.110000
51.898407 31.728142 6.414221 0.010000
50.864296 21.838753 5.784753 0.050000
57.269955 16.074112 6.135048 0.070000
11.129494 1.419322 1.470084 0.270000
34.853371 0.885896 3.625049 0.340000
13.142800 -1.103097 1.610964 0.070000
45.186359 -10.006673 4.576540 0.000000
6.503580 -1.648255 1.021601 1.898000
11.297783 5.832175 0.436917 0.160000
13.091391 4.881449 0.413064 0.030000
13.168285 3.217628 0.407080 0.010000
11.032489 1.406239 0.439772 0.090000
13.238767 0.323484 0.391505 0.010000
13.295818 -1.085617 0.371416 0.060000
13.384640 -2.584052 0.331077 0.010000
6.545147 -1.655517 0.491677 0.560000
5.314994 2.047989 0.117230 0.040000
5.559531 1.552585 0.116026 0.040000
5.723891 1.065647 0.114645 0.120000
5.897591 0.613912 0.108419 0.030000
5.921882 0.129292 0.106681 0.050000
5.911096 -0.350981 0.099868 0.040000
5.865521 -0.841904 0.087924 0.040000
5.649569 -1.316124 0.085597 0.110000
48.381012 29.496025 6.221740 0.010000
50.838848 21.832495 5.994666 0.060000
57.249264 16.077873 6.365011 0.070000
11.164288 1.424843 1.510196 0.250000
35.057899 0.889209 3.790597 0.300000
13.122579 -1.098667 1.660928 0.060000
45.080570 -9.994431 4.776311 0.000000
6.508514 -1.648252 1.046614 2.678000
11.332250 5.852637 0.492083 0.160000
14.707773 5.602404 0.454964 0.030000
11.027468 1.400976 0.484739 0.100000
13.248717 0.318472 0.446513 0.010000
13.280773 -1.091108 0.426357 0.020000
13.394686 -2.594063 0.386067 0.000000
6.555189 -1.660399 0.511686 0.840000
5.418812 2.109970 0.122731 0.050000
5.678550 1.604874 0.116531 0.040000
5.838281 1.097825 0.120063 0.120000
6.037195 0.636608 0.103868 0.030000
6.041955 0.126591 0.106985 0.040000
6.031361 -0.363680 0.100134 0.040000
5.981170 -0.874695 0.088104 0.040000
5.745317 -1.354297 0.085705 0.110000
43.866722 26.590212 5.884151 0.020000
50.888432 21.822599 6.224761 0.050000
57.194645 16.025993 6.589677 0.040000
11.154294 1.419522 1.545150 0.210000
35.507633 0.882161 3.971747 0.150000
13.072579 -1.104772 1.700776 0.060000
6.488478 -1.648691 1.061561 2.320000
11.396545 5.883708 0.537367 0.150000
14.668307 5.566441 0.509728 0.090000
13.123511 3.191399 0.506866 0.010000
11.042482 1.396153 0.514761 0.090000
13.238710 0.313133 0.486467 0.010000
13.230665 -1.092233 0.471222 0.040000
13.404758 -2.604037 0.431056 0.000000
6.535045 -1.655857 0.531650 1.230000
5.527655 2.172084 0.118246 0.050000
5.772849 1.641668 0.121914 0.040000
5.987500 1.140709 0.115612 0.110000
6.156968 0.648886 0.109226 0.030000
6.151934 0.128697 0.107280 0.040000
6.161719 -0.381187 0.100410 0.030000
6.086712 -0.902697 0.093275 0.030000
5.851243 -1.402295 0.090803 0.080000
43.738857 26.446930 6.103287 0.030000
50.923550 21.782366 6.469705 0.040000
48.235809 13.371570 5.841417 0.040000
11.114484 1.403610 1.584988 0.190000
35.323120 0.838179 4.091103 0.200000
13.087650 -1.114651 1.745779 0.070000
6.503602 -1.658495 1.086564 2.254000
11.441228 5.894401 0.582524 0.170000
14.703266 5.561926 0.559803 0.030000
13.133584 3.181425 0.551856 0.010000
11.027573 1.385719 0.554684 0.090000
13.409914 -2.619124 0.481014 0.010000
6.535089 -1.660931 0.551632 1.466000
5.641470 2.234257 0.123774 0.050000
5.921767 1.699530 0.122518 0.040000
6.131898 1.173480 0.116111 0.110000
6.311664 0.666870 0.104697 0.030000
6.322011 0.126973 0.102717 0.040000
6.287079 -0.398789 0.100671 0.040000
6.232465 -0.939894 0.088517 0.030000
5.967179 -1.450083 0.090928 0.090000
43.715130 26.355818 6.277888 0.030000
51.013630 21.748280 6.689816 0.020000
49.986717 13.808767 6.232617 0.040000
11.124582 1.393673 1.619977 0.130000
35.548618 0.791903 4.251521 0.140000
13.092916 -1.134718 1.790718 0.070000
6.498742 -1.668663 1.106514 1.050000
11.481116 5.895019 0.622631 0.190000
13.133837 3.161243 0.601782 0.000000
11.047669 1.375974 0.589700 0.080000
30.869480 0.700896 0.523931 0.030000
14.974838 -1.304141 0.549988 0.010000
13.420178 -2.639096 0.525967 0.010000
6.510041 -1.661484 0.571564 1.424000
5.784910 2.317018 0.124456 0.060000
6.070698 1.757411 0.118122 0.040000
6.281212 1.211365 0.111642 0.140000
6.491248 0.690313 0.105253 0.030000
6.477078 0.124942 0.103114 0.060000
6.472620 -0.425241 0.101057 0.040000
6.353196 -0.977607 0.093692 0.030000
6.088307 -1.507774 0.091030 0.090000
43.824974 26.332056 6.513089 0.030000
44.030182 18.561356 6.009733 0.030000
50.042526 13.739091 6.432506 0.050000
11.154664 1.384101 1.660021 0.190000
36.133961 0.752391 4.447904 0.160000
13.113164 -1.154517 1.840698 0.060000
39.749378 -8.956824 4.896254 0.000000
6.518974 -1.683352 1.126512 0.560000
11.530880 5.900789 0.672783 0.170000
13.082164 4.805324 0.667760 0.010000
13.158893 3.151538 0.651812 0.020000
11.012968 1.355177 0.624533 0.070000
30.925129 0.651531 0.638893 0.030000
13.221176 -1.137917 0.606029 0.050000
13.460711 -2.673510 0.575946 0.040000
6.530368 -1.681171 0.591544 1.509000
5.918544 2.389590 0.125075 0.060000
6.244433 1.825769 0.113830 0.050000
6.450510 1.249614 0.112226 0.140000
6.636029 0.703088 0.105678 0.030000
6.667247 0.118601 0.098587 0.060000
6.618072 -0.447459 0.101354 0.040000
6.509042 -1.019611 0.088943 0.030000
6.254630 -1.574582 0.086216 0.090000
44.019253 26.339954 6.738628 0.030000
45.974979 19.312140 6.452605 0.030000
50.103596 13.654475 6.642353 0.050000
11.159955 1.364071 1.694960 0.280000
36.104843 0.686309 4.587584 0.330000
13.118538 -1.179565 1.880619 0.050000
39.760983 -9.062189 5.050894 0.000000
6.483941 -1.684078 1.141418 0.440000
11.600558 5.911961 0.718006 0.160000
14.714354 5.481501 0.729534 0.060000
17.785173 4.425162 0.723623 0.010000
11.033256 1.335434 0.659513 0.080000
19.113445 0.354936 0.696960 0.010000
13.146360 -1.154518 0.650772 0.090000
6.505321 -1.681725 0.611477 0.950000
6.106605 2.493229 0.120951 0.070000
6.403349 1.883822 0.114460 0.060000
6.609905 1.282672 0.112765 0.150000
6.810804 0.716438 0.106184 0.030000
6.797401 0.111074 0.103899 0.060000
6.778616 -0.474389 0.101673 0.040000
6.659959 -1.066748 0.094162 0.030000
6.421228 -1.656406 0.086346 0.100000
44.154682 26.286694 6.968786 0.030000
44.578602 18.585194 6.466258 0.030000
46.912785 12.648867 6.445283 0.060000
11.055471 1.331954 1.724569 0.270000
36.075935 0.610247 4.722227 0.270000
39.938126 -9.199536 5.245848 0.020000
6.509350 -1.708687 1.166393 0.400000
14.665260 5.425331 0.789198 0.090000
17.919966 4.427487 0.793984 0.010000
11.008539 1.314810 0.699372 0.060000
13.249942 0.217506 0.711144 0.010000
13.156816 -1.184488 0.695689 0.260000
13.371055 -2.705581 0.670593 0.030000
6.530660 -1.701298 0.626471 0.590000
6.230419 2.555593 0.126506 0.070000
6.587165 1.947354 0.115176 0.070000
6.784202 1.321017 0.113362 0.120000
6.980581 0.729692 0.106677 0.030000
6.992557 0.104811 0.104385 0.060000
6.929163 -0.501510 0.101966 0.050000
6.820983 -1.118673 0.094389 0.040000
6.517155 -1.704595 0.091418 0.100000
44.275429 26.218187 7.188848 0.030000
44.550533 18.458975 6.645718 0.030000
50.231091 13.465307 7.071987 0.030000
11.045874 1.306656 1.754450 0.320000
40.480171 0.597118 5.408682 0.260000
39.532722 -9.197703 5.354797 0.020000
6.484316 -1.709222 1.181326 0.610000
14.670882 5.385229 0.844064 0.110000
17.970335 4.398171 0.869008 0.010000
11.048823 1.295450 0.734405 0.080000
13.235402 0.187057 0.755993 0.010000
13.107187 -1.210608 0.740463 0.240000
6.505695 -1.706869 0.651385 1.270000
6.423562 2.654309 0.127377 0.080000
6.765968 2.010771 0.120879 0.060000
6.988492 1.359936 0.114040 0.130000
7.165355 0.743233 0.107209 0.040000
7.157813 0.092974 0.104772 0.060000
7.129892 -0.537673 0.102355 0.050000
6.967010 -1.170886 0.094576 0.040000
6.507297 -1.714859 0.111354 0.140000
44.465954 26.161001 7.414136 0.030000
44.944656 18.475664 6.881811 0.070000
57.130829 15.213651 8.216508 0.070000
11.026361 1.276148 1.789286 0.370000
40.556927 0.482962 5.573460 0.360000
39.580059 -9.342427 5.519385 0.030000
6.509820 -1.738830 1.206283 1.424000
13.150807 3.025682 0.836325 0.010000
11.064196 1.270594 0.774354 0.270000
12.962288 -1.223551 0.785037 0.190000
16.608015 -3.579237 0.810796 0.020000
6.505944 -1.721921 0.666330 1.384000
6.591902 2.742549 0.128145 0.080000
6.944881 2.069208 0.121563 0.070000
7.192688 1.403855 0.114736 0.130000
7.345212 0.751661 0.112710 0.040000
7.358063 0.081807 0.105254 0.060000
7.305626 -0.574313 0.102678 0.050000
7.143114 -1.227541 0.099825 0.030000
6.552919 -1.749047 0.126346 0.150000
44.562866 26.032047 7.628911 0.020000
45.051414 18.356955 7.081650 0.030000
57.078949 15.016742 8.455643 0.110000
11.026735 1.251004 1.829194 0.380000
40.548702 0.367179 5.738009 0.290000
45.835537 -5.255093 6.420917 0.020000
38.698071 -9.254505 5.572410 0.010000
6.484965 -1.749381 1.226179 0.810000
13.031575 6.623668 0.949390 0.030000
13.090068 4.619544 0.912092 0.050000
18.384989 4.400600 1.010101 0.010000
11.054681 1.240278 0.809216 0.330000
12.887677 -1.250131 0.824744 0.250000
13.407982 -2.825408 0.810246 0.040000
6.491182 -1.737280 0.686235 1.644000
6.800042 2.841552 0.129056 0.080000
7.133778 2.127818 0.127274 0.060000
7.387172 1.432585 0.115351 0.120000
7.584893 0.771273 0.108409 0.030000
7.558396 0.065622 0.110716 0.070000
7.531446 -0.614996 0.103116 0.040000
7.394709 -1.307719 0.095184 0.040000
6.598639 -1.788233 0.141320 0.140000
45.213608 26.218443 7.931306 0.030000
44.424427 17.919519 7.173388 0.030000
57.066936 14.830690 8.669922 0.040000
11.047119 1.226262 1.864155 0.250000
40.550625 0.246663 5.882568 0.220000
45.517090 -5.356668 6.544709 0.020000
38.815861 -9.422902 5.742093 0.030000
6.490308 -1.769338 1.241119 0.460000
18.589958 4.394268 1.080613 0.010000
11.020267 1.204484 0.843994 1.040000
13.317046 0.083108 0.890821 0.000000
12.898241 -1.285082 0.864642 0.280000
16.569530 -3.675431 0.930340 0.080000
6.506606 -1.762063 0.706183 1.553000
6.993364 2.930252 0.134890 0.090000
7.362394 2.202209 0.128147 0.060000
7.621362 1.477077 0.116128 0.090000
7.779830 0.774970 0.118931 0.030000
7.818731 0.050605 0.111340 0.050000
7.727355 -0.661270 0.108455 0.040000
7.606202 -1.383682 0.095453 0.030000
6.593874 -1.803400 0.161251 0.410000
45.262062 26.008545 8.145655 0.050000
43.554810 17.362583 7.219049 0.050000
11.162351 1.208282 1.914390 0.300000
45.041977 0.109814 6.668791 0.090000
39.786831 -4.789056 5.916855 0.010000
40.958633 -10.133677 6.205049 0.020000
6.465452 -1.779889 1.261015 0.400000
13.043420 6.513508 1.049012 0.020000
13.106446 4.534494 1.006820 0.010000
13.127963 2.894745 0.965780 0.010000
11.045746 1.174838 0.878951 0.440000
12.893987 -1.330336 0.909463 0.290000
16.500261 -3.721967 0.984986 0.070000
6.486749 -1.772518 0.726092 1.150000
7.221309 3.039637 0.135892 0.090000
7.581203 2.266411 0.128957 0.060000
7.830735 1.511075 0.121801 0.130000
8.019690 0.784565 0.119593 0.030000
7.999163 0.029039 0.116731 0.050000
7.928262 -0.707449 0.113808 0.040000
7.767488 -1.450641 0.105626 0.030000
6.584112 -1.818663 0.181169 0.740000
45.641216 26.019855 8.406689 0.020000
43.825634 17.291969 7.434495 0.050000
11.182817 1.178522 1.954333 0.330000
44.934647 -0.052857 6.827908 0.270000
43.297482 -5.404350 6.583738 0.020000
40.765591 -10.257927 6.349085 0.010000
6.475877 -1.804767 1.280950 0.360000
13.019814 6.432840 1.103651 0.010000
14.853950 5.187674 1.123811 0.080000
12.979825 -1.378847 0.949507 0.100000
6.512376 -1.807088 0.741031 0.570000
7.474058 3.159499 0.136997 0.090000
7.844717 2.346472 0.129943 0.060000
8.080100 1.545839 0.127581 0.100000
8.254550 0.794065 0.120241 0.030000
8.304694 0.004904 0.112439 0.040000
8.129170 -0.753628 0.119161 0.030000
7.989075 -1.531412 0.105904 0.030000
6.549162 -1.824407 0.201057 1.553000
46.426414 26.233776 8.724537 0.030000
43.972805 17.154085 7.619369 0.040000
11.223376 1.144146 1.994312 0.220000
44.942459 -0.223361 6.997296 0.400000
39.320892 -5.038904 6.154713 0.010000
39.517441 -10.101712 6.321407 0.010000
6.461211 -1.825125 1.300836 0.400000
13.030845 6.372876 1.148458 0.030000
14.899660 5.143340 1.178766 0.050000
30.441734 7.194415 1.756965 0.040000
13.314199 -0.047447 1.020330 0.000000
6.492615 -1.822543 0.760922 0.530000
7.736887 3.274534 0.143111 0.100000
8.083509 2.411038 0.135806 0.050000
8.349283 1.591002 0.128451 0.090000
8.554494 0.799811 0.121046 0.030000
8.565220 -0.020111 0.113026 0.040000
8.410459 -0.818252 0.119655 0.030000
8.200747 -1.617391 0.111137 0.030000
6.544590 -1.849572 0.220952 1.741000
46.604462 26.046364 8.939307 0.030000
44.224812 17.023138 7.824542 0.050000
44.915520 -0.404459 7.146554 0.290000
40.511539 -5.367332 6.476603 0.030000
39.575859 -10.301197 6.475820 0.030000
6.491919 -1.864617 1.320770 1.040000
13.041970 6.307913 1.193246 0.020000
14.975282 5.104598 1.228819 0.050000
30.453962 7.064259 1.856514 0.030000
11.077491 1.070061 0.978645 0.100000
13.427073 -3.070929 1.039385 0.020000
6.523227 -1.857036 0.780874 1.384000
7.989815 3.384379 0.149180 0.100000
8.396821 2.502055 0.136962 0.060000
8.608646 1.625957 0.134258 0.090000
8.834429 0.805154 0.126796 0.030000
8.860918 -0.054472 0.118670 0.040000
8.626555 -0.874142 0.125011 0.050000
8.462710 -1.717392 0.111449 0.030000
6.555027 -1.874432 0.235887 1.509000
46.737732 25.848129 9.143921 0.040000
42.179665 15.994484 7.625378 0.040000
39.503788 -10.473084 6.604994 0.030000
6.482252 -1.884879 1.340669 1.741000
13.033292 6.232568 1.237944 0.020000
30.491091 6.939581 1.956149 0.010000
11.123075 1.035818 1.008637 0.060000
13.323241 -1.572800 1.084684 0.020000
15.770861 -3.786645 1.172844 0.020000
6.473293 -1.863048 0.795721 1.741000
8.277461 3.509910 0.150397 0.120000
8.675415 2.577385 0.142969 0.060000
8.922917 1.666983 0.135231 0.100000
9.139372 0.810995 0.127614 0.030000
9.116541 -0.084582 0.119225 0.040000
8.612081 -0.904498 0.144861 0.040000
8.699665 -1.817890 0.116694 0.030000
6.540374 -1.894771 0.250773 1.692000
46.579624 25.469576 9.267102 0.040000
42.218109 15.794654 7.769737 0.070000
39.845821 -5.620750 6.643925 0.040000
39.833832 -10.762585 6.814782 0.020000
6.447424 -1.895584 1.350539 2.320000
13.059319 6.172891 1.282790 0.020000
13.096540 4.238464 1.220696 0.030000
13.167007 2.654680 1.174992 0.010000
11.148746 0.996174 1.043557 0.080000
12.956510 -0.184669 1.113887 0.000000
32.208683 -4.409786 1.988443 0.120000
13.429081 -3.186186 1.113963 0.010000
6.483827 -1.892907 0.810638 1.509000
8.585008 3.640824 0.151687 0.120000
8.978921 2.658212 0.144062 0.050000
9.277001 1.718792 0.131348 0.090000
9.459311 0.817124 0.128472 0.030000
9.432344 -0.123540 0.119905 0.030000
9.184325 -1.013484 0.125949 0.030000
8.931539 -1.913466 0.116944 0.030000
6.530816 -1.920013 0.265654 1.110000
46.515499 25.142776 9.405721 0.040000
41.978874 15.479705 7.852942 0.070000
46.820690 -1.020794 7.889244 0.090000
39.738811 -5.793233 6.753006 0.020000
40.717175 -11.226721 7.080365 0.030000
6.437770 -1.915828 1.365438 2.388000
13.030875 6.087221 1.312398 0.030000
15.708633 5.173013 1.405990 0.020000
30.490974 6.658851 2.140107 0.020000
11.174441 0.956568 1.068477 0.080000
12.737265 -0.228950 1.133150 0.020000
12.663069 -1.575590 1.122950 0.080000
6.459080 -1.908439 0.825516 1.644000
8.902553 3.771928 0.153003 0.130000
9.292424 2.739231 0.145182 0.060000
9.556458 1.749131 0.137190 0.090000
9.794440 0.813542 0.129333 0.030000
9.743149 -0.162595 0.120571 0.030000
9.455904 -1.093297 0.126361 0.030000
9.193776 -2.028483 0.122201 0.030000
47.277477 25.266310 9.703173 0.030000
41.903694 15.212832 7.956755 0.100000
46.764591 -1.242366 8.013275 0.090000
40.283840 -6.078578 6.953370 0.030000
40.665897 -11.438180 7.199446 0.030000
6.433307 -1.945974 1.380315 2.602000
13.047110 6.017373 1.352181 0.020000
13.093766 4.113150 1.285223 0.040000
13.173958 2.544574 1.234601 0.000000
12.683059 -0.275106 1.162837 0.050000
12.613779 -1.616633 1.147669 0.140000
13.431197 -3.306423 1.183522 0.010000
6.474709 -1.943200 0.840428 1.792000
9.210374 3.887825 0.159237 0.120000
9.621009 2.815519 0.151323 0.050000
9.870906 1.780140 0.143126 0.090000
10.054667 0.803505 0.134975 0.030000
10.004045 -0.207625 0.126085 0.030000
9.702378 -1.168608 0.131725 0.030000
9.435839 -2.133865 0.122441 0.030000
6.516603 -1.965404 0.295449 0.230000
53.124287 28.179108 11.009275 0.060000
42.091385 15.055923 8.086663 0.060000
11.187743 0.892815 2.158286 0.010000
46.293255 -1.441519 8.036304 0.100000
40.216972 -6.255220 7.042539 0.030000
40.734966 -11.667356 7.323776 0.020000
6.423666 -1.966199 1.390215 2.529000
29.269262 14.775567 2.527094 0.120000
13.104836 4.053242 1.315030 0.060000
13.155046 2.484109 1.259327 0.010000
12.633974 -0.326128 1.182520 0.090000
12.564586 -1.662675 1.172370 0.130000
15.921905 -4.124435 1.341984 0.010000
6.444976 -1.958809 0.850292 1.020000
9.518209 4.003742 0.160472 0.120000
9.934704 2.886539 0.152406 0.050000
10.125667 1.795022 0.143847 0.100000
10.334997 0.788871 0.135653 0.030000
10.199954 -0.253899 0.131424 0.030000
9.948865 -1.243901 0.132088 0.030000
9.673095 -2.249342 0.122631 0.020000
6.517056 -1.990436 0.305357 0.200000
53.299225 27.901859 11.158703 0.080000
42.284061 14.899090 8.221584 0.070000
53.338276 11.429353 9.827558 0.010000
11.198539 0.847922 2.183148 0.020000
41.825077 -1.489772 7.389455 0.120000
40.240582 -6.460245 7.161840 0.040000
6.439377 -2.005978 1.410108 2.191000
29.292677 14.585670 2.611450 0.200000
13.171102 2.424278 1.294147 0.010000
13.178405 1.004295 1.253887 0.030000
12.584876 -0.377169 1.207202 0.110000
11.637620 -1.565319 1.145312 0.250000
13.443517 -3.436449 1.248072 0.010000
6.465603 -1.993475 0.865217 1.424000
9.786407 4.098858 0.171526 0.120000
10.218679 2.941969 0.158353 0.050000
10.425215 1.820745 0.149724 0.090000
10.575310 0.773434 0.146223 0.030000
10.440854 -0.299312 0.136884 0.030000
10.130242 -1.315477 0.142296 0.030000
9.905337 -2.364933 0.127808 0.020000
6.527699 -2.025275 0.315255 0.220000
53.379555 27.602776 11.312802 0.050000
42.318108 14.674335 8.320839 0.070000
48.171173 10.038119 8.998890 0.030000
11.154370 0.802013 2.197862 0.020000
41.673576 -1.682946 7.453342 0.110000
40.023571 -6.624595 7.205663 0.030000
6.465196 -2.050547 1.425010 1.953000
29.301460 14.380601 2.665712 0.150000
30.606241 6.084930 2.418277 0.040000
31.180750 2.470496 2.351340 0.040000
12.565786 -0.427617 1.226965 0.120000
11.578262 -1.601517 1.160023 0.280000
13.474992 -3.515933 1.267858 0.030000
6.435979 -2.014065 0.870063 1.553000
10.084640 4.194605 0.167660 0.120000
10.477864 2.986941 0.159197 0.050000
10.670169 1.825437 0.150381 0.080000
10.855749 0.753820 0.141882 0.030000
10.641857 -0.350490 0.142219 0.030000
10.326726 -1.391746 0.147525 0.030000
10.092302 -2.466388 0.132918 0.030000
6.503060 -2.045787 0.325115 0.230000
53.435776 27.263390 11.421689 0.030000
42.119076 14.355321 8.359134 0.070000
40.379890 8.128387 7.656439 0.040000
11.190161 0.757599 2.222790 0.100000
41.471920 -1.867043 7.507132 0.080000
39.871605 -6.792755 7.264642 0.010000
6.470730 -2.080501 1.439913 1.692000
29.359238 14.226423 2.735290 0.190000
30.628859 5.940118 2.477798 0.040000
31.203354 2.325665 2.415861 0.050000
12.581689 -0.477395 1.246822 0.130000
11.538984 -1.642350 1.179769 0.270000
6.446526 -2.043905 0.879980 1.509000
10.323323 4.264152 0.178542 0.120000
10.737132 3.026895 0.165022 0.050000
10.925013 1.835301 0.156083 0.060000
11.061368 0.722734 0.147303 0.030000
10.857966 -0.406361 0.142575 0.030000
10.493119 -1.463590 0.152693 0.030000
10.249189 -2.563401 0.132967 0.030000
6.508621 -2.075704 0.330018 0.270000
51.918465 26.100042 11.163401 0.060000
42.098717 14.104667 8.418150 0.110000
42.320267 8.329044 8.082254 0.060000
11.171000 0.712187 2.232572 0.120000
41.905788 -2.084285 7.647459 0.060000
6.471279 -2.110532 1.449803 1.844000
29.387289 14.061785 2.774752 0.200000
19.080025 5.856161 1.837334 0.000000
30.671309 5.805724 2.527410 0.050000
31.220808 2.190793 2.465406 0.050000
12.597592 -0.527172 1.266678 0.120000
11.524823 -1.687666 1.189563 0.200000
6.436981 -2.069129 0.889862 1.466000
10.552214 4.323528 0.184360 0.120000
10.951695 3.050990 0.170672 0.040000
11.135069 1.834324 0.156628 0.080000
11.256894 0.696456 0.152716 0.030000
11.038974 -0.457922 0.147856 0.030000
10.684616 -1.539936 0.152909 0.030000
10.411062 -2.660336 0.138030 0.020000
6.539465 -2.120140 0.334934 0.850000
52.004551 25.771320 11.247404 0.060000
42.346584 13.944037 8.513201 0.080000
42.319271 8.113822 8.126452 0.100000
11.211802 0.667887 2.252514 0.110000
41.704399 -2.278268 7.671212 0.080000
6.543395 -1.433940 1.427506 0.000000
6.466829 -2.140660 1.459679 1.553000
29.420698 13.877209 2.824153 0.210000
19.121759 5.761834 1.867093 0.000000
16.632292 2.874545 1.604859 0.020000
31.248381 2.051149 2.504959 0.050000
12.613604 -0.581930 1.281517 0.090000
11.525743 -1.737712 1.204380 0.170000
6.594974 -1.440992 0.892609 0.000000
10.781116 4.382922 0.185178 0.120000
11.141469 3.064627 0.171218 0.040000
11.345317 1.823348 0.157136 0.070000
11.432531 0.664814 0.153057 0.030000
11.199998 -0.509847 0.148083 0.030000
10.831026 -1.612145 0.153022 0.020000
6.611546 -1.448732 0.362618 0.030000
6.504733 -2.135844 0.344785 1.060000
50.328083 24.570120 10.933560 0.050000
43.840664 14.221509 8.843135 0.040000
42.362980 7.914459 8.170826 0.090000
41.747986 -2.472669 7.725604 0.090000
6.594126 -1.473012 1.437493 0.000000
29.438984 13.702436 2.848552 0.210000
19.153248 5.682368 1.881880 0.000000
31.270899 1.916465 2.529518 0.050000
12.674621 -0.635808 1.291476 0.070000
11.541672 -1.787452 1.214237 0.160000
6.610532 -1.470717 0.897539 0.020000
6.433010 -2.124251 0.899646 0.280000
10.960604 4.411365 0.185752 0.110000
11.316423 3.067960 0.176687 0.040000
11.236435 1.761179 0.176621 0.180000
11.618155 0.633345 0.158424 0.030000
11.295830 -0.553038 0.153173 0.030000
10.947237 -1.674949 0.158092 0.020000
6.657304 -1.487863 0.362592 0.090000
6.490106 -2.156147 0.349671 1.424000
50.452541 24.332296 10.978002 0.090000
44.092995 14.091024 8.923309 0.020000
42.491154 7.741663 8.230518 0.040000
41.496319 -2.647483 7.714297 0.100000
6.499074 -1.469795 1.427257 0.000000
29.487059 13.538218 2.878067 0.240000
19.125225 5.576757 1.896414 0.000000
31.298403 1.781858 2.559089 0.050000
11.582691 -1.841713 1.224142 0.180000
6.570732 -1.481481 0.897395 0.070000
6.438570 -2.154168 0.904550 0.220000
11.060764 4.403263 0.190984 0.120000
11.426690 3.055069 0.176927 0.040000
11.207385 1.710595 0.181357 0.380000
11.664008 0.589215 0.158380 0.030000
11.421860 -0.605633 0.153306 0.020000
10.998281 -1.728981 0.158025 0.020000
6.617490 -1.498646 0.367448 0.290000
6.510773 -2.190757 0.349597 1.598000
45.706631 14.390735 9.268640 0.060000
47.794285 8.529645 9.262301 0.030000
41.524384 -2.812103 7.748758 0.180000
6.504539 -1.494713 1.432179 0.000000
29.475197 13.372926 2.887422 0.260000
16.473261 4.636480 1.700994 0.000000
31.320948 1.647211 2.573648 0.050000
12.000483 -0.683635 1.264538 0.070000
11.618617 -1.891070 1.234053 0.140000
6.601288 -1.510920 0.902366 0.180000
6.423956 -2.174452 0.904436 0.190000
11.527055 3.036988 0.177122 0.040000
11.143425 1.654324 0.190981 0.510000
11.759744 0.551024 0.163488 0.020000
11.462797 -0.654876 0.158230 0.020000
11.044314 -1.783127 0.162944 0.020000
6.567677 -1.509620 0.372277 0.760000
6.491147 -2.211154 0.354470 1.150000
53.484879 25.188047 11.664104 0.010000
45.592056 14.108545 9.252292 0.050000
39.813774 6.861937 7.755255 0.060000
41.557858 -2.996586 7.773160 0.170000
6.484830 -1.510093 1.432070 0.000000
29.522940 13.228778 2.897010 0.210000
16.504488 4.572049 1.705836 0.010000
31.328327 1.522312 2.578203 0.050000
11.941177 -0.719759 1.259249 0.080000
6.576675 -1.531395 0.902225 1.000000
6.439611 -2.209176 0.909348 0.530000
11.201600 4.360953 0.191194 0.120000
11.498005 2.986405 0.181858 0.040000
11.159093 1.619618 0.190893 0.700000
11.770412 0.516222 0.163386 0.030000
11.478561 -0.694581 0.158124 0.020000
11.024988 -1.818503 0.162762 0.020000
6.552968 -1.524904 0.372182 0.860000
51.094006 23.718924 11.127398 0.020000
45.546623 13.872707 9.231296 0.080000
11.168544 1.612006 2.315911 0.010000
43.006531 1.995775 8.140504 0.020000
41.711487 -3.188788 7.802847 0.120000
11.266740 -3.257139 2.343067 0.020000
29.551098 13.064288 2.896472 0.230000
16.510923 4.497159 1.705575 0.020000
31.335722 1.397431 2.577758 0.050000
11.891953 -0.760709 1.258968 0.100000
32.485207 -6.402171 2.616765 0.190000
6.551872 -1.541872 0.902122 1.000000
6.460374 -2.248785 0.909255 0.750000
11.172838 4.295372 0.195875 0.080000
11.125058 1.568957 0.190616 0.570000
11.736281 0.470560 0.163128 0.020000
11.424146 -0.725629 0.157866 0.020000
10.975477 -1.844456 0.162536 0.020000
6.548352 -1.544996 0.372095 0.780000
6.482024 -2.256319 0.349278 0.250000
51.218407 23.491283 11.121876 0.050000
45.540794 13.657631 9.210481 0.020000
11.233984 1.588218 2.325994 0.060000
43.224480 1.839812 8.170493 0.010000
40.573204 -3.259830 7.589610 0.120000
11.272684 -3.307052 2.347897 0.040000
29.539097 12.909067 2.885864 0.220000
18.414154 2.773103 1.759135 0.000000
31.333132 1.272378 2.572286 0.050000
11.877640 -0.795971 1.253800 0.120000
32.497791 -6.536953 2.616297 0.080000
6.511988 -1.547618 0.896996 0.990000
6.425477 -2.254455 0.909143 0.900000
11.109370 4.214124 0.200408 0.100000
11.435112 2.875162 0.186280 0.040000
11.110731 1.533676 0.190447 0.420000
11.667061 0.429227 0.162793 0.020000
11.304634 -0.752941 0.162453 0.020000
10.895875 -1.865984 0.162248 0.020000
6.548748 -1.564974 0.367022 0.530000
6.477504 -2.281410 0.349173 0.160000
51.565273 23.392799 11.152415 0.040000
39.761425 1.535818 7.510317 0.020000
40.521061 -3.405763 7.563931 0.100000
43.989204 -9.378019 8.265790 0.000000
11.253385 -3.342392 2.337716 0.050000
29.566839 12.769666 2.860418 0.070000
18.505219 2.719874 1.749174 0.000000
31.370380 1.158145 2.551959 0.050000
11.883514 -0.840848 1.248648 0.120000
6.522465 -1.572422 0.896931 0.790000
6.420874 -2.274528 0.904056 1.070000
11.006223 4.117149 0.194778 0.100000
11.321679 2.792994 0.180679 0.030000
11.126508 1.493990 0.185341 0.400000
11.517952 0.381363 0.162226 0.030000
11.160141 -0.780713 0.161972 0.020000
10.745903 -1.868857 0.161846 0.020000
6.564333 -1.594662 0.361952 0.340000
6.488102 -2.311176 0.339090 0.190000
54.572605 24.528616 11.704493 0.050000
11.205588 1.507752 2.300620 0.180000
39.309723 1.377616 7.378548 0.040000
42.351803 -3.726767 7.842519 0.100000
43.917416 -9.539240 8.215003 0.010000
6.471392 -1.590328 1.421737 0.020000
29.584515 12.635109 2.824964 0.080000
11.318730 1.493821 1.235852 0.000000
31.367498 1.053218 2.511561 0.040000
11.889223 -0.875690 1.233533 0.100000
18.753557 -3.706285 1.665933 0.010000
6.507782 -1.587669 0.886836 0.820000
6.426474 -2.304390 0.893960 1.190000
11.133452 2.699391 0.174839 0.030000
11.348667 0.343133 0.156642 0.020000
10.960382 -0.794523 0.156399 0.030000
10.540750 -1.862785 0.161333 0.020000
6.584822 -1.619256 0.356914 1.030000
6.508782 -2.345767 0.334015 0.730000
54.647808 24.270340 11.613729 0.080000
50.408062 14.523232 9.981411 0.030000
39.752174 1.250994 7.399233 0.020000
42.435081 -3.890017 7.792129 0.170000
43.900570 -9.694333 8.144382 0.020000
6.532230 -1.634189 1.426733 0.050000
29.661764 12.526789 2.764762 0.040000
11.204762 1.441702 1.215361 0.010000
31.384720 0.943693 2.466198 0.030000
11.905025 -0.915339 1.218427 0.100000
6.416789 -2.319541 0.883878 1.260000
10.606402 3.844481 0.182720 0.100000
10.885511 2.589623 0.173784 0.030000
10.888521 1.389487 0.164331 0.140000
11.069403 0.302796 0.150763 0.030000
10.710538 -0.804291 0.150711 0.030000
10.320230 -1.836985 0.155853 0.020000
6.539952 -1.625080 0.346775 1.170000
41.428604 17.976418 8.730796 0.060000
50.432011 14.334097 9.860769 0.120000
39.455158 1.110758 7.267935 0.050000
42.503029 -4.033484 7.721772 0.250000
43.908760 -9.848892 8.058827 0.020000
6.532639 -1.654148 1.416659 0.100000
6.411273 -2.371728 1.448675 0.000000
29.659439 12.396978 2.694273 0.030000
11.150521 1.405767 1.185086 0.020000
17.083456 -3.432617 1.497590 0.000000
6.508504 -1.622588 0.866708 0.220000
6.412104 -2.334597 0.873810 0.520000
10.359062 3.704756 0.171555 0.080000
10.562788 2.468439 0.167491 0.030000
10.830036 0.268224 0.145010 0.030000
10.480595 -0.808677 0.145094 0.030000
10.089819 -1.816358 0.145328 0.020000
6.550360 -1.644847 0.336729 1.110000
41.927822 18.026096 8.702284 0.080000
50.435841 14.154670 9.715111 0.060000
11.192663 1.407706 2.240214 0.050000
40.351845 1.022695 7.329948 0.020000
42.695847 -4.169578 7.656769 0.280000
43.946590 -9.982842 7.963427 0.010000
6.527858 -1.664205 1.406609 1.000000
6.411587 -2.386688 1.438620 0.000000
29.686546 12.297754 2.618974 0.030000
13.176596 3.174332 1.346950 0.010000
11.201031 1.381785 1.170128 0.050000
13.321768 0.306881 1.261669 0.010000
13.013421 -1.084197 1.235693 0.090000
17.084505 -3.482478 1.462407 0.020000
6.498820 -1.637740 0.856626 0.380000
10.052281 3.533850 0.170119 0.090000
10.225151 2.341950 0.166140 0.030000
10.410853 1.265372 0.147622 0.080000
10.445587 0.235855 0.143886 0.030000
10.185375 -0.799311 0.139359 0.030000
9.824019 -1.776423 0.139783 0.020000
6.540592 -1.654981 0.321666 1.080000
41.296940 17.579870 8.443975 0.090000
11.243076 1.388723 2.225275 0.130000
38.975109 0.887570 6.980849 0.040000
42.092190 -4.215358 7.440021 0.170000
43.959282 -10.107200 7.847997 0.010000
6.497915 -1.664705 1.386529 1.000000
11.318940 -5.201575 2.360976 0.000000
13.074475 4.847617 1.367904 0.010000
13.177262 3.144468 1.311841 0.020000
11.131710 1.350581 1.134831 0.080000
13.014074 -1.114080 1.205583 0.090000
13.388478 -2.647235 1.215861 0.020000
6.539413 -1.666931 0.846624 0.880000
6.412839 -2.369497 0.848682 0.120000
9.656106 3.331245 0.163332 0.090000
9.882432 2.220384 0.159793 0.030000
10.092076 1.199273 0.141544 0.070000
10.111141 0.204463 0.137896 0.030000
9.885157 -0.790041 0.133609 0.030000
9.538032 -1.726873 0.134221 0.020000
6.530825 -1.665115 0.306602 1.080000
8.548206 -3.571137 0.119781 0.060000
41.542458 17.569956 8.339579 0.080000
11.168783 1.357460 2.179964 0.260000
39.046810 0.814315 6.875763 0.030000
42.189209 -4.303076 7.319947 0.190000
6.483053 -1.669936 1.371471 0.640000
11.349958 -5.250897 2.335873 0.000000
13.090043 4.823040 1.332853 0.030000
13.128142 3.103667 1.271560 0.020000
11.077374 1.319645 1.104574 0.110000
12.999551 -1.134233 1.170470 0.110000
13.368957 -2.667484 1.180735 0.040000
6.504376 -1.662528 0.826548 1.010000
9.324139 3.169859 0.161865 0.100000
9.599236 2.124980 0.148699 0.030000
9.748303 1.132696 0.135400 0.070000
9.776505 0.183068 0.131943 0.030000
9.534660 -0.766731 0.127781 0.030000
9.216860 -1.667995 0.128601 0.020000
6.551243 -1.684672 0.291583 1.060000
8.224913 -3.402299 0.119565 0.060000
41.247807 17.320112 8.107878 0.120000
11.064604 1.320642 2.129555 0.390000
40.357792 0.764120 6.958999 0.020000
43.017723 -4.477202 7.311462 0.130000
6.498473 -1.689589 1.356438 0.540000
13.055933 4.782544 1.287613 0.030000
11.082738 1.304855 1.074532 0.200000
13.263490 0.231137 1.156234 0.000000
13.000039 -1.154080 1.130397 0.100000
6.514701 -1.677277 0.811520 0.790000
8.987281 3.003397 0.155367 0.100000
9.266324 2.013603 0.142416 0.030000
9.389521 1.065813 0.134214 0.070000
9.481765 0.167439 0.126116 0.030000
9.249235 -0.747194 0.127109 0.030000
8.925668 -1.608561 0.128062 0.020000
6.571579 -1.699212 0.271582 0.460000
7.972481 -3.277093 0.114371 0.060000
41.497772 17.340324 7.993605 0.110000
11.049985 1.305488 2.094460 0.460000
40.499214 0.707240 6.844156 0.020000
42.783714 -4.506029 7.130743 0.060000
6.473338 -1.679995 1.336408 0.620000
42.248787 -23.147335 7.815057 0.030000
13.124119 3.063876 1.191401 0.010000
11.112906 1.300542 1.044595 0.360000
13.243886 0.215905 1.116126 0.000000
12.990324 -1.164140 1.095334 0.110000
6.504742 -1.677413 0.796494 0.910000
8.709755 2.873095 0.144158 0.100000
8.918210 1.911918 0.141129 0.030000
9.040544 1.009120 0.133093 0.080000
9.122024 0.150547 0.125114 0.030000
8.913640 -0.718598 0.121339 0.030000
8.594293 -1.539896 0.127452 0.020000
6.546623 -1.699635 0.256515 0.300000
7.750236 -3.161310 0.109222 0.060000
41.459770 17.260223 7.818206 0.080000
11.070251 1.295984 2.064477 0.490000
40.490364 0.667595 6.698984 0.060000
51.316475 -5.517100 8.324269 0.080000
6.483567 -1.689746 1.321398 0.470000
42.260406 -23.206463 7.634866 0.030000
14.990884 5.584706 1.305646 0.020000
13.124523 3.049046 1.146347 0.030000
11.058392 1.279622 1.009374 0.400000
12.995714 -1.178893 1.055293 0.120000
13.415411 -2.726165 1.060637 0.000000
6.509972 -1.687260 0.781471 0.870000
8.377583 2.721689 0.147728 0.100000
8.629892 1.821380 0.140040 0.030000
8.746461 0.958478 0.132137 0.070000
8.817176 0.139706 0.124278 0.030000
8.603027 -0.689541 0.120636 0.030000
8.292912 -1.470655 0.126923 0.020000
6.571958 -1.714079 0.236527 0.870000
7.512789 -3.035836 0.109068 0.060000
41.347466 17.143713 7.637478 0.060000
11.060536 1.285924 2.029414 0.490000
40.486591 0.623028 6.558807 0.070000
51.362881 -5.565578 8.149208 0.080000
6.488797 -1.699593 1.306375 0.280000
42.297089 -23.270149 7.464723 0.020000
14.892114 5.528025 1.245177 0.060000
13.119916 3.034102 1.106279 0.030000
11.058565 1.274735 0.979356 0.490000
31.345463 0.485555 1.729385 0.000000
12.980918 -1.184030 1.015235 0.100000
13.430704 -2.735727 1.020640 0.010000
6.500026 -1.687377 0.761444 0.730000
13.649038 -6.562258 1.016986 0.030000
8.109945 2.596559 0.141565 0.090000
8.306678 1.725173 0.138839 0.030000
8.442298 0.912663 0.126172 0.070000
8.502331 0.128675 0.123415 0.030000
8.297509 -0.665388 0.119928 0.030000
8.031824 -1.415628 0.121446 0.030000
6.546906 -1.709503 0.221478 1.040000
7.346013 -2.943995 0.103974 0.070000
44.035797 18.259333 7.938645 0.080000
11.065722 1.281151 1.994409 0.540000
40.482353 0.603476 6.413722 0.070000
43.448242 -4.687051 6.781800 0.090000
40.929241 -9.680113 6.466661 0.010000
6.498930 -1.704344 1.291384 0.280000
14.813148 5.481724 1.184798 0.100000
13.125129 3.029366 1.061274 0.020000
11.043864 1.264598 0.939280 0.460000
16.928989 0.246523 1.115859 0.000000
12.941043 -1.184629 0.970128 0.120000
13.421016 -2.745749 0.975578 0.010000
6.520253 -1.696936 0.746461 0.540000
7.852115 2.481619 0.135464 0.080000
8.048080 1.650226 0.132885 0.030000
8.148120 0.867021 0.125235 0.080000
8.262485 0.119098 0.117753 0.030000
8.036887 -0.635374 0.119360 0.030000
7.846009 -1.374161 0.116115 0.030000
6.552053 -1.714332 0.201474 0.960000
7.159049 -2.842540 0.098863 0.060000
44.844955 18.580107 7.881949 0.040000
11.060911 1.276187 1.959378 0.560000
40.498100 0.584287 6.273690 0.070000
43.674484 -4.732268 6.657222 0.050000
40.960091 -9.703995 6.321651 0.030000
6.468809 -1.694828 1.266340 0.220000
14.778776 5.456263 1.129613 0.080000
18.363321 4.459462 1.210265 0.030000
11.068938 1.265188 0.909347 0.540000
31.396603 0.457336 1.509411 0.000000
12.946242 -1.189384 0.930123 0.110000
13.411135 -2.745774 0.930551 0.010000
6.520305 -1.696862 0.726461 0.740000
13.649587 -6.576884 0.916932 0.020000
7.618979 2.382137 0.134486 0.100000
7.814274 1.585736 0.132035 0.040000
7.928735 0.832814 0.124535 0.090000
7.972539 0.113544 0.116976 0.030000
7.846553 -0.618998 0.113924 0.030000
7.650088 -1.327905 0.115776 0.030000
6.542094 -1.714468 0.186447 1.170000
6.972084 -2.741084 0.093752 0.070000
44.806320 18.535055 7.691679 0.070000
11.056099 1.271222 1.924347 0.570000
40.513680 0.575134 6.123695 0.070000
45.488701 -4.947891 6.751157 0.080000
40.960674 -9.713435 6.171616 0.020000
6.478942 -1.699580 1.251349 0.200000
13.077784 4.723942 1.017449 0.050000
18.348576 4.454399 1.150207 0.040000
11.054128 1.260032 0.874289 0.570000
16.664434 0.236876 1.000131 0.000000
12.921351 -1.189714 0.890057 0.110000
13.401254 -2.745798 0.885525 0.010000
6.535533 -1.706517 0.711465 0.650000
13.634624 -6.571986 0.866911 0.020000
7.375954 2.277482 0.128462 0.090000
7.600381 1.526648 0.126257 0.040000
7.689368 0.798242 0.118782 0.100000
7.782588 0.109924 0.111466 0.030000
7.646029 -0.592816 0.108497 0.030000
7.444085 -1.276823 0.110428 0.030000
6.759728 -2.620130 0.093648 0.080000
44.544502 18.400915 7.445494 0.080000
11.066201 1.271562 1.884374 0.610000
40.539104 0.576226 5.958764 0.070000
45.624420 -4.959652 6.576466 0.170000
38.851276 -9.177015 5.698099 0.030000
6.473899 -1.694602 1.231354 0.230000
13.077928 4.724146 0.962450 0.100000
18.313971 4.444009 1.075077 0.050000
11.034224 1.259779 0.839236 0.670000
16.579607 0.235471 0.939904 0.000000
12.911470 -1.189738 0.845030 0.110000
16.586718 -3.524984 0.905944 0.030000
6.520397 -1.696732 0.691462 0.650000
15.712956 -7.767321 0.847892 0.110000
7.162719 2.183382 0.127556 0.110000
7.386488 1.467559 0.120479 0.040000
7.489885 0.769416 0.118154 0.090000
7.537620 0.105213 0.115809 0.040000
7.425591 -0.572034 0.107999 0.040000
7.192873 -1.216641 0.114996 0.030000
6.532104 -1.709512 0.146439 0.210000
6.592843 -2.523309 0.093572 0.080000
46.007664 19.028955 7.476648 0.030000
56.989628 15.224627 8.576184 0.150000
11.031408 1.266041 1.844262 0.780000
40.529499 0.576592 5.808738 0.070000
45.880287 -4.984279 6.447041 0.090000
38.786228 -9.152670 5.538018 0.030000
6.499139 -1.704047 1.211384 0.260000
13.078140 4.719315 0.917432 0.070000
18.299238 4.438964 1.010019 0.050000
11.019426 1.254642 0.799178 0.760000
16.669733 0.237399 0.885146 0.000000
12.901577 -1.189781 0.805004 0.090000
16.612061 -3.534280 0.845975 0.030000
6.525544 -1.701561 0.671457 0.670000
15.723137 -7.766869 0.777920 0.700000
6.974205 2.104776 0.121772 0.100000
7.187484 1.413738 0.119760 0.040000
7.280403 0.740399 0.117499 0.090000
7.342574 0.106496 0.110305 0.030000
7.190047 -0.546559 0.112479 0.040000
7.017057 -1.174983 0.109692 0.030000
6.506957 -1.699937 0.131409 0.160000
6.420959 -2.426584 0.093483 0.070000
44.773853 18.486624 7.091408 0.070000
57.089897 15.242358 8.356509 0.070000
11.041497 1.266363 1.809289 0.780000
40.534904 0.577264 5.653753 0.070000
45.905766 -4.983113 6.262109 0.200000
38.691116 -9.123863 5.367876 0.030000
6.484002 -1.694262 1.191381 0.340000
13.140809 3.025491 0.836298 0.020000
11.024421 1.259866 0.764210 0.720000
13.345316 0.189071 0.781288 0.000000
12.926689 -1.189135 0.760071 0.100000
16.627214 -3.533770 0.786015 0.030000
6.545688 -1.706102 0.651492 0.590000
15.713200 -7.761838 0.717912 2.320000
6.795579 2.031342 0.121032 0.100000
6.983480 1.359822 0.119027 0.040000
7.075825 0.716477 0.116876 0.100000
7.152609 0.102857 0.109796 0.030000
7.019612 -0.524801 0.107115 0.040000
6.831038 -1.123536 0.109397 0.040000
6.527197 -1.709477 0.111426 0.100000
6.274357 -2.344377 0.093406 0.070000
45.706100 18.909809 7.025414 0.030000
57.114834 15.278704 8.121707 0.060000
11.031604 1.266320 1.769263 0.810000
40.554947 0.598257 5.488882 0.070000
45.880787 -4.957890 6.072136 0.130000
38.841644 -9.130468 5.228242 0.040000
6.509228 -1.703725 1.176412 0.280000
14.695015 5.430699 0.844296 0.180000
13.120848 3.030293 0.786263 0.030000
11.024416 1.264996 0.729228 0.680000
13.335353 0.194065 0.731280 0.000000
12.971798 -1.188106 0.715193 0.070000
16.677458 -3.537588 0.726132 0.020000
6.540645 -1.701125 0.631498 0.420000
15.682705 -7.727178 0.652960 8.685000
6.631869 1.963213 0.115352 0.110000
6.799377 1.311288 0.118366 0.040000
6.906157 0.698243 0.111365 0.100000
6.967548 0.104313 0.109318 0.040000
6.849165 -0.503061 0.106751 0.040000
6.695405 -1.091110 0.104164 0.030000
6.456579 -1.675769 0.096367 0.070000
6.142766 -2.261864 0.088369 0.080000
46.871021 19.452362 6.990471 0.040000
57.099724 15.319338 7.871816 0.070000
11.036503 1.276544 1.734313 0.780000
36.151695 0.561432 4.792244 0.040000
52.273205 -5.627728 6.671338 0.270000
38.966877 -9.122574 5.093597 0.040000
6.493996 -1.688941 1.156426 0.250000
14.660165 5.430233 0.789203 0.120000
13.110775 3.040267 0.741274 0.030000
11.024316 1.275124 0.694265 0.670000
13.335265 0.204211 0.691317 0.000000
12.986709 -1.177672 0.675270 0.050000
16.702417 -3.526888 0.666236 0.010000
6.525508 -1.691340 0.611494 0.690000
6.468145 1.895065 0.114671 0.120000
6.640091 1.273249 0.112808 0.040000
6.731573 0.674895 0.110823 0.100000
6.797484 0.106057 0.108880 0.040000
6.693715 -0.481034 0.106427 0.040000
6.499279 -1.034874 0.108861 0.030000
6.300266 -1.608750 0.096208 0.050000
6.001068 -2.174562 0.088324 0.080000
46.786297 19.466513 6.780300 0.030000
57.143974 15.391042 7.642196 0.050000
11.021405 1.286385 1.699310 0.870000
36.146366 0.596813 4.662361 0.040000
52.538200 -5.602044 6.507123 0.160000
39.669624 -9.248862 5.019961 0.030000
6.514140 -1.693483 1.136462 0.230000
84.415520 -47.311180 11.145333 0.050000
14.684825 5.455912 0.734362 0.070000
18.015488 4.409533 0.734166 0.060000
11.019313 1.280157 0.659271 0.560000
13.340095 0.219472 0.646386 0.000000
13.001632 -1.167219 0.630347 0.050000
16.837824 -3.539095 0.611543 0.010000
6.525452 -1.686285 0.596513 1.130000
6.309229 1.837012 0.114041 0.120000
6.465877 1.229886 0.117193 0.040000
6.576793 0.661928 0.110371 0.090000
6.642431 0.108106 0.103483 0.040000
6.523172 -0.454296 0.106081 0.040000
6.378644 -1.002161 0.103667 0.030000
6.138942 -1.541847 0.101036 0.050000
5.864451 -2.092182 0.093273 0.090000
46.027313 19.188046 6.472281 0.020000
50.132191 13.480341 6.546779 0.070000
11.041302 1.296896 1.664401 0.720000
36.145950 0.637307 4.527509 0.050000
13.168881 -1.193512 1.855699 0.020000
39.613808 -9.184333 4.860054 0.030000
6.483815 -1.673987 1.116455 0.190000
17.870985 4.392019 0.663723 0.050000
13.396049 -2.689696 0.560716 0.030000
6.530407 -1.681116 0.576545 1.010000
6.130591 1.763559 0.118301 0.090000
6.321492 1.197133 0.111694 0.040000
6.402209 0.638581 0.109828 0.090000
6.472353 0.109831 0.108046 0.040000
6.382815 -0.436981 0.105779 0.040000
6.217703 -0.955253 0.108422 0.020000
6.007816 -1.484348 0.100907 0.050000
5.722753 -2.004881 0.093228 0.070000
47.637459 19.979040 6.474424 0.040000
50.031525 13.544212 6.331751 0.130000
11.125885 1.323631 1.634721 0.510000
36.145290 0.692855 4.377712 0.050000
13.198706 -1.177773 1.810835 0.050000
6.503863 -1.673529 1.096509 0.290000
14.808199 5.558733 0.615065 0.020000
17.776091 4.395459 0.593488 0.050000
19.008633 0.368573 0.521735 0.000000
13.121556 -1.149589 0.540725 0.020000
13.375705 -2.664898 0.510755 0.040000
6.525269 -1.671139 0.556568 0.830000
5.981577 1.710696 0.117716 0.090000
6.132377 1.148485 0.116019 0.040000
6.247430 0.625614 0.109376 0.080000
6.312288 0.111765 0.107635 0.040000
6.212259 -0.410261 0.110434 0.040000
6.122159 -0.927059 0.103277 0.030000
5.881690 -1.426753 0.100792 0.050000
5.631633 -1.946597 0.088207 0.090000
51.126278 21.610394 6.694598 0.030000
49.995792 13.614384 6.101917 0.130000
11.185581 1.344906 1.599955 0.490000
36.119713 0.742905 4.232830 0.030000
13.118385 -1.154106 1.755712 0.140000
6.488535 -1.653746 1.076542 0.540000
6.458041 -2.414556 1.098635 0.000000
14.693651 5.541738 0.559702 0.060000
13.149717 3.121705 0.556676 0.050000
10.993838 1.320080 0.549352 0.070000
26.856529 0.574496 0.382984 0.010000
13.191374 -1.133084 0.495968 0.050000
13.370344 -2.639831 0.465834 0.020000
6.535128 -1.660875 0.536632 0.820000
5.822661 1.652642 0.117085 0.090000
6.012783 1.126190 0.115624 0.030000
6.092638 0.612629 0.113924 0.070000
6.162124 0.118891 0.107270 0.030000
6.091815 -0.387545 0.105204 0.040000
5.981323 -0.884749 0.103067 0.030000
5.800952 -1.388274 0.095724 0.050000
5.525311 -1.878621 0.088182 0.090000
50.955872 21.663002 6.459346 0.110000
57.179138 15.775229 6.703706 0.040000
11.130409 1.358999 1.559863 0.280000
35.429024 0.800421 4.031239 0.020000
13.097932 -1.124327 1.710769 0.290000
6.508584 -1.653289 1.056596 0.750000
6.407266 -2.370411 1.068666 0.000000
14.708026 5.582222 0.504890 0.100000
13.114471 3.141217 0.506656 0.070000
11.013459 1.345607 0.509497 0.090000
13.259142 0.293594 0.466448 0.000000
13.186109 -1.113016 0.451028 0.040000
24.904732 -5.333452 0.225926 0.020000
6.519895 -1.646091 0.516647 1.050000
11.276927 -5.080080 0.376297 0.050000
5.708449 1.610447 0.116630 0.100000
5.873384 1.093515 0.115139 0.030000
5.982850 0.600524 0.113592 0.080000
6.042051 0.121592 0.106966 0.030000
5.976454 -0.369751 0.104969 0.050000
5.885766 -0.856574 0.102922 0.030000
5.684919 -1.335487 0.095617 0.060000
5.444177 -1.820165 0.088187 0.100000
50.859928 21.741983 6.239387 0.110000
57.236992 15.917132 6.494382 0.070000
11.165097 1.379777 1.530031 0.530000
35.283077 0.868151 3.891108 0.060000
13.147739 -1.108224 1.670959 0.290000
