# This PCD file was generated using the MATLAB® pcwrite function
# from Computer Vision Toolbox®.
# .PCD v.7 - Point Cloud Data file format
VERSION .7
FIELDS x y z intensity
SIZE 4 4 4 4
TYPE F F F F
COUNT 1 1 1 1
WIDTH 1286
HEIGHT 1
VIEWPOINT 0 0 0 1 0 0 0
POINTS 1286
DATA ascii
5.009664 1.802117 0.110519 0.030000
5.213237 1.355918 0.114391 0.030000
5.376460 0.928987 0.108230 0.110000
5.499499 0.511288 0.101999 0.020000
5.507834 0.076371 0.100404 0.050000
5.490995 -0.349008 0.093778 0.040000
5.449462 -0.789845 0.082031 0.040000
5.232456 -1.209075 0.079906 0.120000
28.967802 16.577545 3.233013 0.020000
29.688076 11.896118 3.052489 0.080000
30.326332 7.827879 2.969031 0.110000
11.017303 1.292701 1.319319 0.470000
8.859941 0.116855 1.124315 0.680000
13.030604 -1.224589 1.425218 0.170000
6.768543 -1.112848 0.959283 0.350000
11.332069 -3.652200 1.316759 0.270000
12.663853 4.513874 0.225580 0.050000
13.052457 3.026090 0.211063 0.010000
10.965398 1.275499 0.284109 0.070000
13.437140 0.178009 0.186480 0.010000
12.908385 -1.197378 0.184987 0.050000
11.219231 -3.605135 0.166627 0.230000
4.960440 1.761167 0.110238 0.030000
5.158931 1.319890 0.109116 0.020000
5.297037 0.897442 0.112906 0.100000
5.454808 0.495448 0.096823 0.020000
5.448037 0.065224 0.100206 0.040000
5.380894 -0.346153 0.103502 0.050000
5.379379 -0.786187 0.081862 0.040000
5.167085 -1.190324 0.079805 0.120000
29.010107 16.473759 3.117737 0.050000
29.685364 11.791432 2.947092 0.150000
30.318319 7.738077 2.868675 0.240000
11.032857 1.268105 1.289268 0.520000
8.845392 0.096664 1.099201 0.760000
13.056458 -1.263973 1.390139 0.170000
6.778963 -1.132597 0.944236 0.360000
11.337831 -3.686967 1.281644 0.380000
11.500441 5.726862 0.212052 0.020000
12.084270 4.227779 0.208003 0.050000
12.515938 2.840819 0.198974 0.010000
10.985951 1.250998 0.254071 0.050000
9.177545 0.095867 0.325057 0.020000
12.267478 -1.154609 0.173473 0.040000
11.534955 -2.333827 0.162177 0.040000
4.926130 1.725522 0.105016 0.030000
5.099613 1.283748 0.108826 0.030000
5.257536 0.871700 0.107707 0.070000
5.388240 0.054077 0.100009 0.040000
5.376113 -0.356210 0.093452 0.120000
5.299202 -0.777721 0.081684 0.040000
5.132104 -1.190976 0.074711 0.130000
28.998245 16.323872 3.017148 0.100000
29.727411 11.697552 2.856852 0.050000
30.355356 7.644081 2.783422 0.280000
11.008611 1.232744 1.259073 0.630000
8.855825 0.076934 1.079155 0.920000
13.012036 -1.289700 1.354926 0.090000
6.779290 -1.147538 0.929181 0.510000
11.348660 -3.726675 1.256525 0.510000
10.769668 5.237762 0.213326 0.050000
11.613684 3.993743 0.200905 0.050000
11.994210 2.665815 0.191962 0.010000
10.991494 1.226192 0.228993 0.050000
9.142987 0.075275 0.304890 0.040000
11.756806 -1.124383 0.172252 0.050000
11.143508 -2.261293 0.156425 0.040000
4.876905 1.684572 0.104735 0.030000
5.080012 1.263387 0.103699 0.020000
5.232841 0.856242 0.102585 0.170000
5.340500 0.458252 0.096386 0.010000
5.318445 0.042738 0.099784 0.030000
5.301114 -0.357665 0.098251 0.200000
5.259210 -0.778487 0.081577 0.050000
5.061817 -1.177338 0.079579 0.140000
29.030746 16.204767 2.936789 0.110000
30.367479 7.544589 2.703083 0.270000
11.074034 1.214067 1.239174 0.340000
8.856344 0.051994 1.064064 0.570000
12.972793 -1.325347 1.324691 0.090000
6.794709 -1.167191 0.914148 0.210000
10.384927 4.960363 0.206291 0.050000
11.187800 3.775567 0.193982 0.050000
11.586996 2.518026 0.180349 0.010000
10.997133 1.196386 0.203897 0.080000
9.003423 0.052635 0.294442 0.030000
11.366522 -1.111819 0.161280 0.050000
10.742158 -2.193949 0.150628 0.040000
10.162978 -3.285216 0.140059 0.070000
4.877206 1.669593 0.099680 0.030000
5.025681 1.227322 0.108424 0.020000
5.173332 0.830098 0.102332 0.050000
5.280786 0.442087 0.101170 0.010000
5.288642 0.032165 0.099667 0.030000
5.291334 -0.367817 0.088187 0.090000
5.184128 -0.774924 0.081394 0.040000
5.036931 -1.182797 0.074493 0.130000
29.063755 16.060703 2.846339 0.090000
30.409966 7.425657 2.627751 0.290000
11.169534 1.190947 1.224337 0.360000
12.963639 -1.365420 1.294518 0.100000
6.815211 -1.191767 0.904110 0.110000
11.194134 -3.744417 1.196055 0.360000
10.054505 4.719011 0.199531 0.060000
10.885937 3.609775 0.187578 0.060000
11.249276 2.396555 0.174016 0.010000
11.052751 1.167519 0.183934 0.040000
9.008940 0.027791 0.279364 0.040000
11.016300 -1.103525 0.160397 0.050000
10.456458 -2.159397 0.145010 0.040000
9.886509 -3.210479 0.134615 0.060000
4.813259 1.613340 0.104304 0.030000
5.006081 1.206961 0.103297 0.020000
5.143721 0.809527 0.102179 0.050000
5.261090 0.426726 0.096062 0.010000
5.238843 0.021210 0.099496 0.030000
5.231441 -0.373965 0.088008 0.050000
5.169240 -0.780192 0.076335 0.040000
4.981750 -1.173852 0.074383 0.130000
29.146139 15.947536 2.771132 0.040000
17.218813 6.181050 1.703682 0.000000
30.412352 7.310939 2.557330 0.280000
8.897373 0.002881 1.033988 0.280000
13.004546 -1.409571 1.274461 0.080000
6.795528 -1.207109 0.894002 0.190000
11.184967 -3.784508 1.170881 0.250000
9.832914 4.539753 0.193286 0.060000
10.594084 3.444192 0.176200 0.060000
10.921637 2.270258 0.172691 0.010000
9.049560 -0.001363 0.259361 0.090000
10.726272 -1.104061 0.154638 0.050000
10.190755 -2.124461 0.139447 0.040000
9.625134 -3.140455 0.129193 0.070000
4.803657 1.593171 0.099204 0.030000
4.966663 1.176201 0.103079 0.010000
5.079295 0.778269 0.106894 0.040000
5.221481 0.405963 0.095881 0.010000
5.204041 0.010541 0.099366 0.030000
5.196543 -0.379635 0.087896 0.040000
5.119236 -0.781168 0.081201 0.040000
4.961862 -1.179216 0.069311 0.120000
29.090261 15.741687 2.700220 0.020000
30.444885 7.186742 2.501953 0.270000
11.126180 1.110249 1.183923 0.190000
8.942966 -0.026214 1.023998 0.190000
13.251143 -1.489844 1.269806 0.070000
6.796033 -1.232067 0.883910 0.260000
11.201154 -3.844154 1.155702 0.200000
9.606323 4.360401 0.187028 0.070000
10.371521 3.314907 0.175139 0.060000
10.698417 2.175985 0.166758 0.010000
10.884585 1.074392 0.153149 0.020000
9.050173 -0.031302 0.244251 0.080000
10.496327 -1.108447 0.149021 0.050000
9.995420 -2.108181 0.133997 0.050000
9.449413 -3.103795 0.123871 0.070000
4.769321 1.557489 0.103982 0.030000
4.952049 1.155918 0.102966 0.010000
5.074596 0.763195 0.101826 0.040000
5.186775 0.390296 0.095732 0.010000
5.184345 -0.004820 0.094257 0.030000
5.141732 -0.390705 0.092712 0.040000
5.104444 -0.791435 0.076125 0.050000
4.921773 -1.174983 0.069222 0.140000
16.428984 8.256400 1.679335 0.000000
13.128294 4.388585 1.361338 0.000000
30.442533 7.056894 2.441463 0.230000
11.166883 1.076077 1.168903 0.150000
6.826615 -1.261469 0.878881 0.350000
9.483563 4.243047 0.181271 0.070000
10.193771 3.196500 0.169234 0.060000
10.495193 2.082095 0.160879 0.020000
10.695687 1.015783 0.147438 0.010000
9.055773 -0.061163 0.234155 0.050000
10.301474 -1.117162 0.143480 0.060000
9.800074 -2.091919 0.133548 0.050000
9.248492 -3.057635 0.123518 0.070000
4.779537 1.547719 0.093972 0.030000
4.922629 1.125349 0.102775 0.020000
5.059982 0.742912 0.101712 0.040000
5.187075 0.375317 0.090678 0.010000
5.139532 -0.015699 0.099100 0.030000
5.136937 -0.400780 0.087662 0.040000
5.059548 -0.797296 0.075986 0.050000
4.912063 -1.190171 0.069140 0.140000
16.519964 8.208189 1.664393 0.000000
13.109691 4.318290 1.341028 0.010000
13.165806 2.699188 1.305155 0.020000
11.202585 1.041810 1.153868 0.300000
12.635350 -0.141179 1.213211 0.140000
12.656436 -1.500979 1.198211 0.090000
6.812027 -1.281715 0.868767 0.370000
11.309086 -3.992003 1.125434 0.260000
9.355900 4.120599 0.175483 0.080000
10.025815 3.088265 0.168394 0.070000
10.346575 2.009254 0.155220 0.020000
10.496875 0.951964 0.146682 0.010000
10.136696 -1.130320 0.143001 0.050000
9.655019 -2.089678 0.128177 0.050000
9.138431 -3.054724 0.118241 0.070000
4.735382 1.501829 0.103686 0.030000
4.932832 1.115561 0.097766 0.010000
5.040273 0.727531 0.101604 0.040000
5.147357 0.359536 0.095515 0.010000
5.154843 -0.030372 0.089085 0.030000
5.082030 -0.406851 0.092496 0.040000
5.049741 -0.807485 0.075922 0.050000
4.872070 -1.190937 0.069033 0.160000
16.699970 8.211693 1.649876 0.000000
13.140683 4.268929 1.325925 0.020000
13.122004 2.638394 1.289815 0.060000
11.288253 1.008463 1.148968 0.910000
12.601354 -0.191784 1.197934 0.350000
12.572258 -1.542543 1.182837 0.090000
6.847596 -1.311039 0.868751 0.430000
11.284979 -4.037436 1.115202 0.210000
9.282639 4.029180 0.174952 0.070000
9.927380 3.006383 0.162832 0.070000
10.222926 1.936855 0.159628 0.020000
10.407754 0.905249 0.146275 0.010000
10.392975 -0.150221 0.142313 0.030000
10.037193 -1.157231 0.142641 0.060000
9.540135 -2.096880 0.127851 0.050000
6.142474 -1.757642 0.325245 0.020000
4.755582 1.492233 0.098703 0.040000
4.903304 1.089972 0.102594 0.010000
5.035574 0.712457 0.096535 0.040000
5.142659 0.344461 0.090447 0.010000
5.115029 -0.041154 0.093941 0.030000
5.092329 -0.421638 0.087468 0.050000
5.029937 -0.817866 0.075832 0.040000
4.852266 -1.201318 0.068943 0.160000
13.080601 6.092936 1.377549 0.000000
13.082362 4.182852 1.310453 1.000000
13.152982 2.589015 1.279712 0.070000
12.642330 -0.240971 1.187858 0.400000
12.563148 -1.587689 1.172645 0.150000
11.331421 -4.111541 1.110047 0.130000
9.209390 3.937779 0.169421 0.080000
9.858734 2.935056 0.162388 0.070000
10.154006 1.880543 0.154239 0.020000
10.318645 0.858552 0.140869 0.010000
10.298663 -0.187034 0.141930 0.020000
9.942608 -1.179028 0.137313 0.060000
9.430252 -2.103985 0.127537 0.050000
6.168153 -1.792138 0.320184 0.080000
4.741065 1.466950 0.098571 0.030000
4.923504 1.080376 0.097611 0.020000
5.020947 0.692155 0.101422 0.030000
5.113034 0.323872 0.095293 0.010000
5.115316 -0.056152 0.093886 0.030000
5.067512 -0.432133 0.092364 0.050000
5.025238 -0.832941 0.070763 0.050000
4.837364 -1.206605 0.068884 0.150000
13.057356 6.002512 1.367152 0.000000
13.093440 4.128092 1.300278 0.050000
13.129162 2.528585 1.269425 0.070000
12.623210 -0.286327 1.182640 0.700000
12.554134 -1.637834 1.162435 0.100000
6.868768 -1.370607 0.858585 0.060000
9.190543 3.877407 0.169147 0.080000
9.809893 2.874110 0.162034 0.060000
10.090073 1.824309 0.153863 0.020000
10.274516 0.812699 0.140584 0.010000
10.234346 -0.223272 0.141628 0.020000
9.888192 -1.210075 0.137056 0.050000
9.385739 -2.129843 0.127325 0.050000
4.736449 1.446858 0.098485 0.030000
4.903974 1.054979 0.102465 0.010000
5.031246 0.677368 0.096394 0.030000
5.118238 0.313988 0.090270 0.010000
5.080610 -0.071819 0.093738 0.030000
5.062814 -0.447208 0.087296 0.040000
5.005434 -0.843322 0.070673 0.040000
4.832653 -1.221698 0.068816 0.150000
29.265377 14.725704 2.466898 0.050000
13.089795 4.058028 1.295008 0.060000
13.160128 2.479187 1.264322 0.060000
12.584105 -0.332048 1.172368 0.820000
11.581955 -1.526250 1.110312 0.160000
6.864248 -1.395698 0.858480 0.050000
9.221222 3.843007 0.164099 0.080000
9.805865 2.824042 0.156837 0.070000
10.090839 1.784316 0.153716 0.020000
10.255383 0.767325 0.140365 0.010000
10.200132 -0.263916 0.136387 0.020000
9.868867 -1.245452 0.136874 0.060000
9.341323 -2.160699 0.127094 0.050000
8.793687 -3.071329 0.117280 0.080000
4.746734 1.432052 0.098456 0.040000
4.904262 1.039982 0.102410 0.020000
5.041436 0.667561 0.096384 0.030000
5.108514 0.298781 0.095188 0.010000
5.075886 -0.086930 0.098669 0.030000
5.048091 -0.462511 0.092200 0.050000
4.980521 -0.848818 0.075588 0.030000
4.833049 -1.241675 0.063742 0.140000
29.308928 14.541524 2.461327 0.110000
13.115953 3.998537 1.289855 0.050000
13.151375 2.414008 1.264057 0.070000
16.577930 1.298849 1.428858 0.070000
12.580160 -0.387133 1.172152 0.800000
11.547933 -1.576892 1.105035 0.200000
6.894913 -1.430117 0.858432 0.090000
13.529883 -5.330038 1.216258 0.030000
9.232082 3.798207 0.163961 0.090000
9.846433 2.794814 0.156835 0.060000
10.106616 1.744630 0.148610 0.020000
10.266051 0.732523 0.140263 0.010000
10.185806 -0.299196 0.136219 0.030000
9.859539 -1.280637 0.136719 0.060000
9.337090 -2.200787 0.126934 0.050000
8.774361 -3.106706 0.117098 0.070000
4.776837 1.427647 0.093519 0.030000
4.909548 1.025080 0.102369 0.020000
5.036820 0.647469 0.096297 0.030000
5.138809 0.284377 0.090213 0.010000
5.081185 -0.101813 0.093628 0.030000
5.058389 -0.477298 0.087172 0.050000
4.995914 -0.868508 0.070555 0.040000
4.808136 -1.247172 0.068657 0.150000
29.317568 14.351656 2.460644 0.100000
13.102297 3.928263 1.289558 0.070000
13.167330 2.364305 1.263914 0.080000
12.561122 -0.437506 1.171916 0.820000
11.543796 -1.621979 1.104856 0.240000
6.905486 -1.459920 0.858349 0.210000
9.302357 3.784551 0.164094 0.090000
9.877193 2.755396 0.156768 0.070000
10.167275 1.710786 0.148642 0.020000
10.301824 0.693219 0.135211 0.010000
10.231660 -0.343326 0.136174 0.020000
9.890505 -1.330034 0.131616 0.060000
9.347963 -2.245568 0.121796 0.050000
8.785317 -3.156505 0.116941 0.070000
4.777125 1.412649 0.093464 0.040000
4.924750 1.015388 0.097372 0.020000
5.057021 0.637873 0.091314 0.030000
5.101469 -0.116427 0.093626 0.030000
5.048679 -0.492486 0.087090 0.050000
4.981192 -0.883811 0.075459 0.060000
4.838828 -1.281553 0.058609 0.140000
29.351311 14.157287 2.455009 0.130000
13.113541 3.863467 1.289347 0.080000
13.153579 2.299030 1.263636 0.110000
13.195754 0.884680 1.233488 0.040000
12.582255 -0.497131 1.176749 0.820000
11.514664 -1.667545 1.104611 0.250000
6.931139 -1.494453 0.863287 0.240000
13.558110 -5.499564 1.225701 0.010000
9.372726 3.765895 0.164208 0.090000
9.972476 2.742237 0.151968 0.070000
10.227839 1.681940 0.148693 0.020000
10.387479 0.659854 0.135310 0.010000
10.287416 -0.382265 0.136175 0.020000
9.936455 -1.379163 0.131553 0.070000
9.419196 -2.309215 0.121746 0.050000
8.816462 -3.215919 0.116802 0.070000
4.797313 1.403034 0.093481 0.050000
4.954936 1.005965 0.097416 0.020000
5.047297 0.622666 0.096232 0.030000
5.154381 0.254670 0.090144 0.010000
5.106755 -0.131329 0.093585 0.030000
5.069058 -0.512100 0.087071 0.060000
4.986574 -0.903712 0.075399 0.080000
4.818997 -1.291972 0.068519 0.140000
29.404289 13.998163 2.484556 0.130000
13.154702 2.239004 1.273415 0.100000
13.216669 0.835016 1.248358 0.070000
12.583200 -0.547140 1.181566 0.820000
11.530593 -1.717286 1.114468 0.240000
6.921702 -1.524657 0.868151 0.290000
13.584899 -5.594104 1.235420 0.010000
9.532230 3.793973 0.159729 0.090000
10.062829 2.723946 0.157136 0.070000
10.368100 1.669624 0.149013 0.020000
10.468217 0.621375 0.140378 0.010000
10.378357 -0.430532 0.136233 0.020000
10.027478 -1.432447 0.136593 0.060000
9.485429 -2.372958 0.121682 0.050000
8.887980 -3.294563 0.116696 0.050000
4.807585 1.388210 0.098452 0.050000
4.970125 0.996254 0.097420 0.020000
5.082482 0.613338 0.096289 0.030000
5.149656 0.239558 0.095075 0.010000
5.117041 -0.146134 0.093556 0.030000
5.079344 -0.526905 0.087042 0.040000
4.986861 -0.918709 0.075344 0.070000
4.824379 -1.311872 0.068459 0.140000
29.427574 13.823486 2.508968 0.130000
13.165728 2.184169 1.283240 0.050000
13.212698 0.779894 1.258143 0.060000
12.624111 -0.596420 1.196489 0.720000
11.511433 -1.762697 1.124249 0.200000
6.932262 -1.554479 0.873067 0.180000
13.551017 -5.654819 1.250106 0.030000
9.676711 3.821727 0.165209 0.090000
10.237509 2.742295 0.157660 0.070000
10.503458 1.652214 0.149302 0.020000
10.638773 0.594655 0.135724 0.010000
10.489185 -0.473435 0.141363 0.020000
10.098519 -1.486096 0.136579 0.060000
9.612035 -2.455548 0.121705 0.050000
8.959680 -3.383224 0.121554 0.070000
4.832676 1.383690 0.098501 0.060000
5.000311 0.986830 0.097463 0.020000
5.092768 0.598532 0.096261 0.030000
5.184950 0.225250 0.090114 0.010000
5.122327 -0.161036 0.093515 0.030000
5.094724 -0.546614 0.087009 0.060000
5.007337 -0.943321 0.075306 0.080000
4.834856 -1.336676 0.068394 0.130000
29.455709 13.653831 2.553411 0.130000
31.311924 1.887887 2.354517 0.090000
12.665118 -0.650699 1.211395 0.450000
6.613754 -0.850399 0.859853 0.050000
13.527119 -5.715360 1.269819 0.050000
9.861006 3.860263 0.165833 0.090000
10.437171 2.761103 0.163251 0.060000
10.708515 1.651141 0.149833 0.020000
10.804400 0.562803 0.141038 0.010000
10.635200 -0.525667 0.146550 0.020000
10.239821 -1.553420 0.141697 0.060000
9.723630 -2.538444 0.126688 0.050000
9.076670 -3.486001 0.121477 0.070000
4.877585 1.389569 0.093640 0.060000
5.030401 0.982406 0.097525 0.020000
5.122954 0.589109 0.096305 0.030000
5.200222 0.210522 0.095099 0.010000
5.167702 -0.180170 0.093562 0.030000
5.120103 -0.566132 0.087003 0.050000
5.012610 -0.958241 0.080265 0.100000
4.840239 -1.356576 0.068334 0.150000
29.498829 13.484443 2.602895 0.150000
31.294287 1.757343 2.403986 0.130000
12.055176 -0.657327 1.194778 0.300000
6.659295 -0.879569 0.869864 0.220000
6.968449 -1.618870 0.892923 0.040000
13.518505 -5.790612 1.289517 0.030000
10.084993 3.914544 0.171620 0.090000
10.681646 2.790791 0.164000 0.060000
10.933556 1.650432 0.155418 0.020000
11.004925 0.536620 0.146464 0.010000
10.856212 -0.576443 0.146938 0.020000
10.411309 -1.630168 0.146860 0.050000
9.880408 -2.630476 0.131755 0.050000
9.254224 -3.617624 0.121451 0.070000
4.902759 1.380031 0.098670 0.060000
5.065490 0.978077 0.097601 0.020000
5.163138 0.579877 0.096376 0.030000
5.240419 0.201308 0.090170 0.010000
5.202983 -0.194497 0.093601 0.030000
5.135374 -0.580860 0.091988 0.060000
5.038085 -0.982758 0.080240 0.080000
4.855701 -1.381303 0.073282 0.160000
29.511845 13.319461 2.657316 0.150000
16.339354 4.594330 1.585487 0.010000
31.326738 1.622758 2.453571 0.140000
11.985821 -0.693716 1.209462 0.560000
6.614468 -0.890466 0.879706 0.210000
7.009182 -1.658134 0.902883 0.080000
10.373215 4.010081 0.172727 0.090000
10.955829 2.836050 0.164884 0.060000
11.203492 1.655584 0.161142 0.020000
11.295349 0.517179 0.147150 0.010000
11.072309 -0.632332 0.152295 0.020000
10.652989 -1.715554 0.147173 0.050000
10.052375 -2.732219 0.136826 0.050000
9.421766 -3.749457 0.126399 0.070000
4.952571 1.391006 0.093841 0.080000
5.085665 0.968443 0.102618 0.030000
5.198227 0.575548 0.096451 0.040000
5.280603 0.192076 0.090241 0.010000
5.223254 -0.209130 0.098599 0.030000
5.185857 -0.604879 0.087031 0.070000
5.048453 -1.002581 0.085194 0.100000
4.896378 -1.415511 0.068261 0.150000
29.534353 13.179629 2.721856 0.130000
16.380308 4.539977 1.620392 0.040000
31.308968 1.497157 2.518058 0.130000
11.936544 -0.734741 1.229181 0.590000
6.645011 -0.919923 0.889677 0.370000
6.989447 -1.673551 0.912774 0.080000
10.701223 4.116363 0.178979 0.080000
11.299588 2.902608 0.176029 0.060000
11.224107 1.620900 0.181067 0.090000
11.615851 0.493295 0.152898 0.010000
7.409575 -1.073272 0.336097 0.040000
10.284618 -2.847809 0.142003 0.050000
9.659980 -3.914924 0.126405 0.060000
4.977745 1.381468 0.098871 0.090000
5.140655 0.969497 0.102765 0.020000
5.228400 0.566106 0.101495 0.030000
5.330785 0.183036 0.090338 0.010000
5.283639 -0.227958 0.093687 0.030000
5.191117 -0.619818 0.096989 0.070000
5.094032 -1.031695 0.080204 0.100000
4.901747 -1.435430 0.073201 0.130000
29.541935 13.034473 2.796337 0.150000
31.365870 1.387952 2.592802 0.140000
11.887076 -0.765767 1.248937 0.740000
6.650368 -0.939861 0.899617 0.450000
11.103548 4.259075 0.185559 0.080000
11.708061 2.985428 0.182403 0.050000
11.040309 1.552257 0.210332 0.110000
12.046332 0.471517 0.158940 0.010000
11.779929 -0.763840 0.163653 0.020000
7.314541 -1.075166 0.355842 0.100000
10.562332 -2.987534 0.147208 0.050000
9.918464 -4.095024 0.131410 0.070000
5.042445 1.397710 0.099101 0.080000
5.175648 0.970167 0.102859 0.030000
5.293497 0.562370 0.096651 0.030000
5.361054 0.168594 0.095363 0.010000
5.303909 -0.242591 0.098686 0.040000
5.276798 -0.653146 0.087089 0.070000
5.119398 -1.051231 0.085198 0.110000
4.952504 -1.474465 0.073189 0.130000
29.574404 12.894777 2.875903 0.110000
16.938900 2.520024 1.694342 0.000000
31.352880 1.272408 2.667339 0.120000
11.887777 -0.805852 1.273790 0.730000
6.680802 -0.964337 0.914605 0.520000
11.490958 4.396482 0.197082 0.080000
12.151337 3.078915 0.188907 0.060000
11.065909 1.517650 0.235271 0.120000
12.446711 0.454145 0.169921 0.010000
11.935819 -0.810918 0.178885 0.050000
7.269702 -1.086082 0.370684 0.180000
10.875327 -3.141585 0.152453 0.040000
10.237595 -4.308986 0.141448 0.060000
5.077426 1.398361 0.104194 0.080000
5.245539 0.976507 0.103065 0.020000
5.333572 0.558119 0.101740 0.030000
5.431233 0.159937 0.095514 0.030000
5.349188 -0.256726 0.098751 0.050000
5.307163 -0.672586 0.092096 0.080000
5.170059 -1.085267 0.085204 0.100000
4.988168 -1.508788 0.073154 0.110000
16.909868 2.464330 1.729060 0.000000
31.389650 1.167764 2.757047 0.130000
11.903462 -0.845669 1.303683 0.740000
6.661054 -0.979773 0.929496 0.350000
12.724012 3.204887 0.195871 0.060000
11.086415 1.487946 0.260214 0.150000
13.012084 0.439970 0.171344 0.010000
11.896323 -0.841790 0.208667 0.020000
7.239956 -1.101709 0.385549 0.130000
11.299067 -3.333522 0.157845 0.050000
10.501161 -4.494008 0.151449 0.060000
5.132224 1.409413 0.104379 0.090000
5.300433 0.982559 0.103231 0.030000
5.398560 0.559363 0.101914 0.080000
5.501411 0.151279 0.095665 0.030000
5.429570 -0.275172 0.093892 0.050000
5.382641 -0.696127 0.087205 0.060000
5.215625 -1.114399 0.085214 0.110000
5.018820 -1.543226 0.078106 0.130000
29.564028 12.628890 3.049889 0.080000
17.681990 4.688979 1.884347 0.010000
17.030373 2.431430 1.784253 0.010000
31.391344 1.067467 2.841679 0.070000
11.939049 -0.880103 1.333648 0.680000
47.742268 -24.854046 4.173015 0.040000
12.632834 4.828354 0.221668 0.070000
11.002119 1.446214 0.289839 0.070000
11.901915 -0.876799 0.238552 0.050000
7.295481 -1.130706 0.400586 0.120000
11.360032 -3.387474 0.187804 0.140000
10.860571 -4.722202 0.161539 0.060000
5.191925 1.425559 0.104594 0.100000
5.360409 0.983689 0.108392 0.030000
5.468547 0.560704 0.102102 0.070000
5.541583 0.142029 0.100736 0.030000
5.514937 -0.293540 0.094047 0.050000
5.448204 -0.724876 0.087269 0.050000
5.266178 -1.143454 0.090238 0.110000
5.074576 -1.582165 0.078107 0.140000
29.600483 12.539206 3.149652 0.020000
11.189208 1.450893 1.355356 0.030000
9.007440 0.244592 1.155175 0.020000
11.954625 -0.914940 1.368560 0.380000
6.701735 -1.019111 0.959457 0.090000
45.435738 -16.161060 4.029307 0.020000
47.665249 -25.036230 4.357139 0.060000
14.361480 3.611264 0.216656 0.050000
11.012506 1.421280 0.324774 0.110000
14.647601 0.426236 0.190562 0.010000
11.927393 -0.906445 0.273509 0.050000
7.335914 -1.154991 0.415601 0.200000
11.360624 -3.422579 0.217676 0.340000
11.381867 -5.047312 0.171691 0.060000
5.271527 1.447087 0.104882 0.090000
5.445119 1.000333 0.103675 0.030000
5.523619 0.556740 0.107231 0.080000
5.641768 0.133964 0.095967 0.030000
5.555204 -0.307790 0.099099 0.060000
5.523751 -0.753453 0.092360 0.050000
5.336931 -1.182106 0.090279 0.100000
5.105133 -1.611603 0.083078 0.120000
29.602304 12.428818 3.259248 0.010000
30.232538 8.265629 3.115415 0.040000
11.229492 1.431533 1.390390 0.070000
9.012756 0.224599 1.180115 0.060000
11.970010 -0.939778 1.403508 0.390000
6.737155 -1.043510 0.979459 0.080000
45.292206 -16.259357 4.173569 0.020000
50.139606 -26.600567 4.752786 0.070000
14.582866 5.625786 0.244722 0.060000
11.018001 1.391270 0.354677 0.090000
15.772857 0.422767 0.198487 0.010000
7.346147 -1.169871 0.435573 0.170000
11.265442 -3.419548 0.257439 0.290000
11.286398 -5.029284 0.211509 0.060000
5.346117 1.468501 0.110157 0.090000
5.514901 1.011653 0.108899 0.030000
5.628517 0.563768 0.102530 0.090000
5.691937 0.124905 0.101065 0.030000
5.645570 -0.326062 0.099267 0.060000
5.589218 -0.777203 0.092443 0.040000
5.397591 -1.215950 0.090312 0.080000
5.186267 -1.670059 0.083072 0.110000
45.520477 19.488892 4.972061 0.050000
57.266193 16.065504 5.735003 0.070000
11.140019 1.399722 1.415038 0.210000
8.938005 0.208091 1.199858 1.000000
11.980478 -0.969729 1.443424 0.330000
6.737294 -1.053583 0.999422 0.110000
11.439023 -3.505474 1.412584 0.010000
50.102230 -26.767082 4.962072 0.050000
18.152687 4.629088 0.220335 0.010000
10.968493 1.360188 0.389433 0.100000
7.316292 -1.180518 0.455456 0.170000
11.250736 -3.439961 0.292325 0.320000
11.297071 -5.069215 0.246389 0.220000
5.440524 1.500315 0.110521 0.090000
5.594695 1.023183 0.109150 0.030000
5.693492 0.564995 0.107705 0.090000
5.802013 0.122013 0.101341 0.040000
5.715832 -0.339737 0.104400 0.050000
5.669682 -0.800666 0.092566 0.030000
5.488436 -1.259218 0.090388 0.060000
5.257212 -1.718709 0.083076 0.090000
50.851601 21.728765 5.709311 0.050000
57.253700 15.904449 5.949373 0.070000
11.190302 1.380553 1.450098 0.420000
8.873349 0.186775 1.219611 0.070000
13.123075 -1.113367 1.580874 0.560000
6.767620 -1.073079 1.019429 0.190000
11.384133 -3.516655 1.447400 0.020000
48.376583 -25.975212 5.020512 0.040000
13.081662 4.871371 0.383001 0.020000
13.149491 3.157330 0.386806 0.040000
10.953789 1.339775 0.424319 0.090000
13.309324 0.299960 0.356602 0.010000
7.316432 -1.190590 0.475419 0.170000
11.220829 -3.450683 0.332207 0.300000
11.287435 -5.094569 0.291270 0.170000
5.534932 1.532129 0.110886 0.090000
5.684377 1.039886 0.114446 0.030000
5.803375 0.572100 0.108018 0.090000
5.877191 0.113451 0.101506 0.030000
5.831206 -0.357513 0.099635 0.060000
5.745230 -0.829243 0.097657 0.040000
5.543988 -1.288178 0.095425 0.080000
5.348358 -1.776956 0.078098 0.100000
50.858379 21.608141 5.908882 0.060000
57.210625 15.772794 6.168774 0.050000
121.557892 17.789053 12.194295 50.000000
8.773616 0.169807 1.234287 0.060000
13.158442 -1.137841 1.620876 0.630000
6.752775 -1.083420 1.034352 0.090000
11.389507 -3.541703 1.487321 1.000000
48.368721 -26.116158 5.229970 0.070000
13.067205 4.835904 0.432832 0.040000
13.139950 3.126977 0.431669 0.030000
11.018876 1.330891 0.459456 0.100000
9.165514 0.180083 0.480341 0.010000
13.176541 -1.128000 0.395947 0.020000
7.291467 -1.196161 0.500333 0.180000
11.175817 -3.456711 0.377068 0.220000
11.272607 -5.110021 0.336174 0.270000
5.624340 1.563847 0.111237 0.100000
5.793973 1.061988 0.114815 0.030000
5.908260 0.579110 0.108318 0.090000
5.992265 0.110655 0.101796 0.030000
5.911561 -0.375995 0.104776 0.060000
5.835788 -0.857513 0.097788 0.030000
5.649939 -1.336139 0.090524 0.070000
5.404101 -1.815913 0.083098 0.090000
46.165150 19.423918 5.603508 0.040000
49.977188 13.605713 5.641831 0.140000
11.170794 1.344916 1.519916 1.180000
8.763744 0.159525 1.259224 0.080000
13.163694 -1.157927 1.670815 0.390000
6.782991 -1.097935 1.059377 0.070000
11.329331 -3.537983 1.522178 0.060000
48.309990 -26.213087 5.444458 0.030000
14.704089 5.532285 0.464694 0.080000
18.054865 4.486456 0.419552 0.030000
11.133777 1.332982 0.489764 0.190000
9.140645 0.169513 0.505237 0.020000
13.126734 -1.144104 0.435758 0.030000
7.281512 -1.201426 0.520288 0.170000
11.115544 -3.447992 0.411943 0.230000
5.738552 1.606041 0.111692 0.100000
5.908473 1.089186 0.115215 0.030000
6.023047 0.591311 0.108663 0.100000
6.092329 0.107552 0.107045 0.040000
6.026923 -0.393789 0.105011 0.060000
5.941439 -0.890496 0.097941 0.030000
5.740771 -1.379425 0.095600 0.080000
5.500316 -1.879100 0.088115 0.100000
46.166451 19.328192 5.803158 0.030000
49.968502 13.509814 5.836454 0.140000
11.066322 1.312818 1.544524 0.600000
8.753872 0.149242 1.284160 0.090000
6.773050 -1.103182 1.074332 0.070000
11.319612 -3.558320 1.562078 0.060000
14.669801 5.486400 0.524434 0.130000
18.050259 4.456106 0.489428 0.070000
11.074162 1.306689 0.529511 0.190000
8.945877 0.150651 0.539659 0.020000
13.146996 -1.163884 0.480737 0.050000
7.256560 -1.206978 0.540202 0.180000
11.105729 -3.463329 0.451861 0.230000
5.837945 1.637932 0.117070 0.100000
6.047967 1.116863 0.115682 0.040000
6.142820 0.603588 0.114021 0.100000
6.212402 0.104851 0.107349 0.030000
6.152283 -0.411391 0.105273 0.050000
6.052076 -0.923401 0.103108 0.040000
5.846710 -1.427405 0.095698 0.070000
5.576260 -1.927654 0.088133 0.090000
57.049717 24.012062 7.318994 0.030000
50.053799 13.465670 6.046515 0.080000
11.021527 1.296829 1.579348 0.890000
8.768983 0.139420 1.314163 0.100000
6.803267 -1.117697 1.099357 0.070000
11.329889 -3.578273 1.602031 0.080000
18.050568 4.430869 0.554335 0.050000
11.049363 1.291083 0.564389 0.380000
8.941005 0.140465 0.564608 0.020000
13.092080 -1.175103 0.525553 0.040000
7.241607 -1.212339 0.560143 0.150000
11.131112 -3.487976 0.486836 0.190000
6.021583 1.711481 0.112823 0.110000
6.172369 1.149251 0.116127 0.030000
6.317526 0.621974 0.104545 0.090000
6.362483 0.102743 0.102733 0.030000
6.282738 -0.433897 0.105530 0.050000
6.192829 -0.960694 0.098337 0.040000
5.947540 -1.470500 0.100801 0.060000
5.702770 -2.005245 0.088174 0.090000
46.148212 19.181387 6.192569 0.030000
57.125603 15.382705 7.092111 0.080000
11.041611 1.287066 1.619365 0.890000
8.754016 0.134041 1.339104 0.120000
6.818403 -1.127482 1.119360 0.110000
11.360245 -3.602861 1.647019 0.040000
13.083117 4.760462 0.632595 0.020000
13.130893 3.051094 0.621365 0.020000
11.024455 1.280457 0.604285 0.500000
8.911040 0.134798 0.589509 0.030000
13.057078 -1.180921 0.565440 0.040000
7.206465 -1.208084 0.580068 0.180000
11.201761 -3.526776 0.526877 0.240000
13.660268 -6.550043 0.472055 0.020000
6.145697 1.758866 0.113323 0.120000
6.371496 1.198110 0.106828 0.040000
6.462307 0.634749 0.104971 0.100000
6.562554 0.101593 0.098250 0.030000
6.468195 -0.455331 0.100934 0.050000
6.293372 -0.988791 0.103495 0.030000
6.103866 -1.537499 0.095960 0.050000
5.809091 -2.073221 0.088199 0.090000
56.902069 23.817348 7.822889 0.060000
57.135933 15.332014 7.331952 0.070000
11.016728 1.276477 1.649261 0.740000
8.779138 0.124428 1.364134 0.130000
40.645592 -4.318951 4.945834 0.230000
6.828541 -1.137363 1.139350 0.180000
11.390601 -3.627449 1.692007 0.040000
14.720018 5.451732 0.694438 0.020000
13.125968 3.040833 0.666315 0.020000
11.014557 1.270138 0.639221 0.790000
8.926055 0.129975 0.619531 0.020000
12.991960 -1.182352 0.615266 0.040000
7.216494 -1.212985 0.605076 0.190000
11.151474 -3.517884 0.566779 0.160000
13.665506 -6.570148 0.526995 0.040000
6.339236 1.837605 0.109121 0.120000
6.510882 1.230767 0.112313 0.040000
6.621894 0.657810 0.105473 0.110000
6.702611 0.099257 0.103607 0.040000
6.618646 -0.477453 0.101244 0.050000
6.439208 -1.031006 0.103718 0.040000
6.244989 -1.594807 0.096115 0.060000
5.975989 -2.170023 0.083275 0.090000
46.917210 19.429251 6.715503 0.040000
57.111378 15.275672 7.566681 0.070000
11.041702 1.271790 1.694309 0.820000
8.764158 0.119031 1.394076 0.150000
57.405052 -6.250949 7.062421 0.220000
6.823489 -1.137533 1.159336 0.110000
11.365501 -3.628077 1.731940 0.040000
14.720067 5.441530 0.749401 0.070000
18.304602 4.454987 0.760090 0.060000
11.019574 1.265123 0.669216 0.730000
8.901091 0.124404 0.644445 0.030000
12.966956 -1.187978 0.655180 0.050000
7.181353 -1.208731 0.625000 0.170000
11.176748 -3.537550 0.606772 0.190000
13.660555 -6.580446 0.581944 0.010000
6.493058 1.900562 0.109757 0.140000
6.680083 1.274015 0.112916 0.040000
6.796574 0.676158 0.105997 0.100000
6.872688 0.097532 0.099045 0.040000
6.769001 -0.494577 0.101573 0.060000
6.594945 -1.068030 0.103987 0.030000
6.401206 -1.656826 0.096293 0.050000
6.107498 -2.247519 0.083330 0.090000
44.616718 18.405434 6.590691 0.030000
57.106327 15.244690 7.806555 0.070000
11.026722 1.266392 1.724250 0.890000
8.779077 0.119206 1.424115 0.180000
45.986691 -4.980243 5.902328 0.120000
6.833627 -1.147414 1.179326 0.070000
11.365588 -3.638223 1.771903 0.030000
14.660605 5.405183 0.804111 0.150000
18.274820 4.434174 0.824936 0.060000
11.019566 1.259975 0.709197 0.760000
8.911106 0.119485 0.674453 0.030000
12.911849 -1.189199 0.700032 0.060000
7.191394 -1.213612 0.645009 0.070000
11.171645 -3.537795 0.646758 0.110000
15.652737 -7.727715 0.642880 0.110000
6.626966 1.958118 0.115320 0.130000
6.849189 1.322262 0.113536 0.050000
6.966158 0.699410 0.106526 0.130000
7.037644 0.100674 0.104487 0.040000
6.899347 -0.512102 0.106848 0.060000
6.770870 -1.114669 0.104273 0.040000
6.552519 -1.723940 0.096438 0.050000
6.233994 -2.325128 0.088372 0.090000
46.738426 19.309376 7.104595 0.040000
57.081184 15.218324 8.046394 0.060000
11.036712 1.261436 1.764258 0.810000
8.734129 0.113271 1.443976 0.180000
45.751125 -4.975340 6.061732 0.130000
6.838574 -1.147393 1.199339 0.070000
11.340393 -3.633852 1.811854 0.040000
14.660558 5.399979 0.859092 0.120000
18.284637 4.434105 0.894962 0.060000
11.034567 1.255133 0.744218 0.740000
8.896044 0.119105 0.699413 0.020000
12.891748 -1.189731 0.739978 0.080000
7.166251 -1.209167 0.664960 0.090000
11.136355 -3.528616 0.686701 0.100000
6.820492 2.036839 0.116118 0.140000
7.033293 1.370796 0.114197 0.040000
7.145729 0.722835 0.112082 0.110000
7.217706 0.099122 0.104952 0.040000
7.109896 -0.538056 0.102301 0.070000
6.916596 -1.151903 0.109515 0.040000
6.728827 -1.790575 0.096651 0.050000
6.390690 -2.412142 0.088457 0.080000
44.908371 18.519371 7.046880 0.080000
57.085461 15.222527 8.286424 0.070000
11.036608 1.261287 1.804258 0.810000
8.744049 0.113351 1.474003 0.160000
45.845993 -4.994223 6.251912 0.220000
6.843616 -1.152370 1.219334 0.060000
11.350382 -3.638808 1.851862 0.030000
13.088230 4.719636 0.882459 0.050000
18.319351 4.439515 0.965073 0.060000
11.014480 1.254620 0.779164 0.750000
8.915975 0.119395 0.724466 0.030000
12.891631 -1.189898 0.784977 0.090000
7.166199 -1.209241 0.684959 0.100000
11.131169 -3.523843 0.721705 0.100000
15.687979 -7.757504 0.767862 0.500000
7.018922 2.120654 0.116947 0.130000
7.252198 1.429999 0.114989 0.040000
7.330311 0.746374 0.112652 0.130000
7.432666 0.103239 0.105528 0.040000
7.280234 -0.554815 0.107684 0.060000
7.112531 -1.198140 0.104855 0.040000
6.920338 -1.866902 0.091867 0.050000
6.522186 -2.489656 0.093513 0.080000
46.062824 19.030251 7.411797 0.020000
56.965389 15.194415 8.506007 0.190000
11.046418 1.266347 1.839302 0.770000
8.753982 0.113450 1.499029 0.160000
45.895695 -5.003951 6.437007 0.100000
6.848563 -1.152349 1.239347 0.060000
11.330186 -3.634341 1.891826 0.030000
13.078115 4.719277 0.927432 0.090000
18.324181 4.439369 1.030086 0.060000
11.034371 1.254855 0.819218 0.670000
8.875904 0.118517 0.754359 0.030000
12.916604 -1.194585 0.830026 0.090000
7.171241 -1.214218 0.704954 0.100000
11.110973 -3.519375 0.761670 0.100000
7.177633 2.188687 0.122615 0.110000
7.446203 1.483724 0.115695 0.040000
7.549695 0.780582 0.113351 0.100000
7.642627 0.107261 0.106091 0.040000
7.535871 -0.584906 0.103239 0.050000
7.323546 -1.249108 0.105216 0.040000
7.091634 -1.933652 0.097066 0.040000
6.719366 -2.600881 0.088614 0.080000
44.460804 18.344633 7.355066 0.080000
11.056313 1.266390 1.879329 0.610000
8.763902 0.113530 1.529056 0.170000
45.629707 -4.974553 6.576424 0.180000
6.853606 -1.157327 1.259342 0.110000
11.355268 -3.644009 1.931856 0.030000
13.077984 4.719092 0.977431 0.080000
18.348789 4.449567 1.105189 0.040000
11.029281 1.254629 0.854204 0.720000
8.890836 0.118712 0.779399 0.030000
12.921499 -1.194638 0.870039 0.090000
6.713905 -1.097993 0.714193 0.130000
11.141054 -3.528948 0.801713 0.120000
7.415672 2.293264 0.123625 0.100000
7.645195 1.537526 0.121415 0.040000
7.769175 0.809790 0.114033 0.110000
7.862573 0.111456 0.111681 0.030000
7.716303 -0.606472 0.108630 0.040000
7.579743 -1.309212 0.105661 0.040000
7.283132 -2.009998 0.097282 0.040000
6.896332 -2.702528 0.093698 0.080000
44.747540 18.484268 7.596336 0.080000
11.081120 1.271738 1.914414 0.560000
8.778833 0.113724 1.554096 0.150000
45.468758 -4.948199 6.731103 0.090000
6.918803 -1.171191 1.289461 0.240000
11.329977 -3.634638 1.971825 0.030000
13.135406 3.024819 0.991283 0.020000
11.063992 1.265167 0.889334 0.480000
8.865775 0.118140 0.804331 0.030000
12.951376 -1.194231 0.915119 0.100000
6.774116 -1.111934 0.739298 0.340000
11.161042 -3.533712 0.841748 0.160000
7.609090 2.376965 0.129441 0.090000
7.864004 1.601728 0.122224 0.040000
7.988546 0.843979 0.119733 0.110000
8.067534 0.115382 0.112230 0.030000
7.931742 -0.627350 0.109115 0.040000
7.760559 -1.350775 0.110979 0.030000
7.474520 -2.081363 0.102516 0.030000
7.123698 -2.823177 0.088843 0.070000
44.770779 18.549009 7.791639 0.070000
11.075934 1.276511 1.949418 0.510000
8.803655 0.119090 1.584181 0.120000
43.724335 -4.721238 6.637393 0.050000
6.868499 -1.157188 1.299382 0.310000
11.354963 -3.639307 2.011874 0.030000
14.788447 5.471396 1.144694 0.120000
13.145095 3.034841 1.036346 0.030000
11.058805 1.269940 0.924339 0.430000
8.850521 0.127758 0.829328 0.030000
12.961078 -1.184190 0.955182 0.110000
6.758888 -1.102279 0.754295 0.390000
11.175852 -3.528556 0.876806 0.210000
7.851923 2.491617 0.135501 0.110000
8.112602 1.676484 0.128151 0.040000
8.232829 0.883665 0.120518 0.090000
8.352289 0.130838 0.113031 0.030000
8.157069 -0.643056 0.114645 0.040000
7.921187 -1.382722 0.116279 0.030000
7.670812 -2.147634 0.107782 0.040000
7.290379 -2.910018 0.093955 0.070000
44.189091 18.357487 7.884410 0.070000
11.075651 1.286379 1.984455 0.430000
8.908435 0.125952 1.624480 0.150000
43.622921 -4.668703 6.782325 0.100000
6.863256 -1.147360 1.319405 0.400000
11.369761 -3.634169 2.051932 0.030000
42.483601 -23.331167 7.349982 0.020000
14.862319 5.522600 1.205078 0.080000
13.109805 3.044020 1.076289 0.020000
11.063521 1.279904 0.959388 0.380000
8.845361 0.132568 0.854332 0.030000
12.975780 -1.174054 0.995258 0.100000
6.753754 -1.097432 0.769299 0.460000
11.215837 -3.532938 0.916895 0.250000
13.608210 -6.517996 1.007044 0.020000
8.356202 1.751144 0.134065 0.040000
8.497000 0.928714 0.126375 0.080000
8.607133 0.140702 0.118733 0.030000
8.397491 -0.663473 0.120196 0.040000
8.167277 -1.438037 0.121716 0.040000
7.862104 -2.214001 0.113035 0.040000
7.472139 -3.001590 0.104089 0.080000
41.321815 17.188522 7.557577 0.070000
11.085271 1.301437 2.019536 0.480000
8.923162 0.136125 1.654557 0.130000
43.346031 -4.589431 6.901898 0.160000
6.863108 -1.142435 1.339423 0.460000
11.369465 -3.624320 2.091968 0.040000
42.416363 -23.238043 7.515154 0.030000
18.162884 4.460092 1.354746 0.030000
11.073153 1.294981 0.989470 0.250000
8.840200 0.137379 0.879337 0.030000
13.015572 -1.168437 1.035383 0.130000
6.728515 -1.087987 0.789269 0.550000
11.230646 -3.527781 0.951953 0.270000
13.612791 -6.503088 1.057112 0.020000
8.387306 2.736896 0.142810 0.100000
8.674431 1.847274 0.130253 0.040000
8.786084 0.979259 0.127317 0.090000
8.916979 0.151638 0.119582 0.040000
8.713102 -0.692434 0.120913 0.030000
8.443376 -1.492759 0.122233 0.030000
8.103785 -2.299387 0.113348 0.030000
7.659008 -3.098047 0.109219 0.070000
41.310143 17.252707 7.722786 0.090000
11.074989 1.311114 2.054546 0.440000
8.957886 0.146682 1.684687 0.130000
6.842894 -1.132858 1.349406 0.600000
11.379180 -3.614260 2.127031 0.050000
42.374062 -23.139385 7.665412 0.020000
13.056238 4.777843 1.207595 0.020000
8.839849 0.152283 0.904392 0.030000
13.000087 -1.148877 1.075416 0.120000
6.738282 -1.077853 0.804332 0.530000
11.255359 -3.517435 0.987056 0.220000
13.617193 -6.478165 1.102216 0.030000
8.699470 2.887901 0.144187 0.100000
8.952737 1.937602 0.136315 0.040000
9.090164 1.030092 0.128300 0.080000
9.031631 0.168782 0.134946 0.130000
9.048628 -0.715994 0.116701 0.030000
8.764657 -1.556617 0.122835 0.030000
8.355449 -2.384601 0.118689 0.030000
7.896359 -3.218522 0.109390 0.060000
41.461430 17.419899 7.923805 0.050000
11.189262 1.343125 2.104963 0.480000
8.917649 0.155840 1.704616 0.090000
43.057449 -4.440867 7.156699 0.040000
6.867824 -1.132472 1.374473 0.450000
11.398880 -3.604028 2.167121 0.040000
13.100249 4.823528 1.252881 0.010000
13.143322 3.104214 1.201601 0.010000
11.142300 1.331073 1.054785 0.080000
8.849603 0.162398 0.924455 0.030000
13.014609 -1.128724 1.110529 0.100000
6.738147 -1.072910 0.819350 0.440000
11.240689 -5.108199 1.036105 0.010000
8.937207 3.007457 0.150252 0.110000
9.270844 2.038694 0.142521 0.040000
9.419049 1.091401 0.129386 0.080000
8.996381 0.178017 0.159888 0.100000
9.374046 -0.734765 0.117480 0.030000
9.050850 -1.616147 0.123360 0.030000
8.662499 -2.488739 0.119103 0.030000
8.108318 -3.319499 0.114568 0.060000
41.369713 17.487604 8.073818 0.090000
11.188787 1.362991 2.140036 0.510000
8.887328 0.170207 1.719591 0.120000
43.060562 -4.361288 7.292005 0.150000
6.857499 -1.117722 1.389501 0.270000
11.408500 -3.588969 2.202203 0.030000
13.079765 4.842993 1.292900 0.030000
13.147738 3.129157 1.241706 0.030000
11.146825 1.351035 1.089872 0.090000
8.859261 0.177512 0.944537 0.030000
6.727823 -1.058160 0.834378 0.560000
9.777736 1.163283 0.130590 0.080000
9.041033 0.193801 0.180064 0.080000
9.654364 -0.749417 0.123158 0.020000
9.341836 -1.665601 0.128936 0.030000
8.969455 -2.587878 0.119536 0.030000
8.355655 -3.439802 0.119767 0.060000
41.287487 17.585588 8.198970 0.090000
50.439510 14.021238 9.299621 0.060000
8.876990 0.184938 1.739619 0.160000
43.013138 -4.252635 7.417286 0.220000
6.832095 -1.098242 1.399507 0.300000
13.078895 4.882836 1.333046 0.030000
13.122077 3.158542 1.276749 0.040000
11.106383 1.370172 1.114837 0.150000
8.908899 0.193374 0.969725 0.030000
6.722497 -1.043314 0.849420 0.520000
13.599653 -6.363957 1.232596 0.010000
9.640547 3.360971 0.158402 0.100000
9.876789 2.255318 0.149908 0.040000
10.076517 1.228999 0.136614 0.080000
9.914494 -0.754455 0.128818 0.030000
9.637835 -1.714941 0.129525 0.030000
9.266220 -2.677210 0.119978 0.030000
8.688767 -3.598432 0.115046 0.060000
41.165470 17.672827 8.318976 0.080000
50.361546 14.154219 9.449913 0.130000
8.876555 0.204860 1.759692 0.110000
43.191181 -4.169761 7.568060 0.210000
6.851956 -1.092915 1.414579 0.430000
11.427381 -3.538819 2.262439 0.010000
13.126313 3.193501 1.311890 0.040000
11.120836 1.395362 1.139969 0.140000
8.953442 0.214139 0.994919 0.020000
11.945763 -0.944326 1.153425 0.060000
6.717185 -1.028450 0.859461 0.500000
13.484360 -4.260757 1.230114 0.030000
13.578416 -6.304482 1.267762 0.020000
9.927619 3.516496 0.159729 0.090000
10.154807 2.360643 0.156025 0.030000
10.365300 1.294523 0.142612 0.070000
10.189621 -0.759205 0.134519 0.030000
9.853356 -1.740836 0.134992 0.030000
9.522596 -2.747330 0.125387 0.030000
8.935912 -3.708736 0.120282 0.060000
41.954807 18.196993 8.607988 0.050000
50.362896 14.323725 9.600548 0.090000
8.876120 0.224782 1.779765 0.120000
42.913116 -4.020262 7.622891 0.260000
6.841548 -1.073148 1.424626 0.540000
11.381283 -3.484766 2.282520 0.010000
44.663567 -23.774866 8.819038 0.010000
29.672960 12.487601 2.599644 0.030000
11.179994 1.436411 1.165276 0.150000
8.728197 0.224827 0.994371 0.050000
11.900048 -0.910269 1.173432 0.070000
6.701765 -1.008797 0.874494 0.510000
13.552001 -6.235085 1.297952 0.030000
10.209474 3.681887 0.171080 0.100000
10.487432 2.487017 0.162364 0.030000
10.663890 1.370236 0.148673 0.080000
10.764186 0.311970 0.145000 0.030000
10.454654 -0.759147 0.140211 0.030000
7.250628 -1.126234 0.310484 0.020000
9.773877 -2.812548 0.130800 0.030000
9.203066 -3.818639 0.120570 0.070000
41.148209 18.016642 8.570212 0.040000
11.131634 1.461565 2.235255 0.120000
8.870698 0.244627 1.794825 0.060000
43.040398 -3.893223 7.738697 0.130000
6.821143 -1.053572 1.434645 0.520000
11.254691 -3.402157 2.277496 0.030000
44.770454 -23.628233 8.939863 0.030000
29.580988 12.580618 2.664750 0.120000
8.742676 0.250054 1.009503 0.050000
11.879330 -0.875733 1.193507 0.120000
13.477396 -4.166075 1.285448 0.040000
10.421929 3.815961 0.177133 0.100000
10.745372 2.596977 0.163446 0.030000
10.867593 1.439131 0.154460 0.150000
10.988473 0.351273 0.145732 0.030000
10.674504 -0.749953 0.145819 0.030000
7.295403 -1.115412 0.320642 0.060000
10.024967 -2.867767 0.136251 0.030000
9.439830 -3.909139 0.125852 0.060000
41.193466 18.247089 8.696188 0.040000
11.250441 1.518686 2.280777 0.260000
42.251171 -3.673116 7.687454 0.130000
6.820746 -1.033594 1.439718 0.560000
11.258967 -3.367142 2.297638 0.040000
44.750664 -23.388845 9.015702 0.020000
29.573135 12.720254 2.730249 0.040000
11.883606 -0.840718 1.213649 0.110000
6.676060 -0.974338 0.889555 0.110000
10.673911 3.975815 0.178385 0.100000
11.212748 0.390556 0.151464 0.030000
10.914268 -0.735359 0.146499 0.030000
7.259808 -1.086125 0.330658 0.090000
10.210699 -2.904217 0.136600 0.030000
9.615850 -3.960777 0.126120 0.050000
41.045559 18.389063 8.756330 0.040000
45.540207 13.453262 9.024717 0.010000
11.244744 1.553546 2.290892 0.440000
47.159904 -3.952584 8.634238 0.090000
6.805340 -1.013922 1.449751 0.460000
11.268160 -3.327014 2.312811 0.060000
44.993866 -23.309614 9.136633 0.050000
29.580391 12.855197 2.790771 0.150000
31.393724 1.253847 2.487375 0.060000
11.902892 -0.805398 1.228830 0.110000
6.690756 -0.959072 0.894651 0.320000
10.856469 4.104316 0.184339 0.100000
11.176445 2.805251 0.170345 0.040000
11.170403 1.554914 0.165681 0.150000
11.411943 0.434379 0.152146 0.030000
11.114038 -0.721531 0.147072 0.030000
7.249401 -1.066357 0.340704 0.070000
10.376147 -2.926052 0.136951 0.020000
9.791872 -4.012415 0.126387 0.070000
51.372826 23.539690 11.002458 0.030000
45.481544 13.636988 9.075248 0.080000
11.174266 1.577182 2.295796 0.320000
40.617542 -3.213680 7.509896 0.100000
6.830035 -0.998465 1.454873 0.260000
11.287351 -3.286695 2.328011 0.040000
45.039196 -23.073923 9.197628 0.070000
29.542528 12.999369 2.826208 0.220000
16.496593 4.467007 1.670425 0.010000
31.336357 1.372659 2.517667 0.060000
11.912098 -0.765251 1.239004 0.090000
6.665269 -0.934574 0.899675 0.460000
7.040274 -1.717622 0.922743 0.000000
10.989336 4.216880 0.185104 0.100000
11.294877 2.887516 0.175960 0.030000
11.184607 1.595157 0.175868 0.310000
11.561040 0.482225 0.157713 0.030000
11.248521 -0.693968 0.152525 0.020000
7.444760 -1.082600 0.336154 0.050000
10.511205 -2.928484 0.142294 0.020000
9.922409 -4.039938 0.131626 0.060000
51.258476 23.757318 11.062968 0.020000
45.522221 13.852530 9.151156 0.080000
41.685894 -3.149033 7.737927 0.140000
42.832424 -21.639412 8.782196 0.050000
29.529577 13.149037 2.856731 0.210000
16.505102 4.542110 1.690727 0.020000
31.328981 1.492429 2.548093 0.050000
11.946394 -0.729624 1.249226 0.110000
6.639781 -0.910076 0.904700 0.520000
7.130423 -1.725934 0.932948 0.010000
11.077581 4.308568 0.190676 0.100000
11.413417 2.964799 0.176557 0.040000
11.148916 1.629443 0.185903 0.460000
11.655256 0.524036 0.158115 0.020000
11.373019 -0.666579 0.152952 0.020000
10.611186 -2.926569 0.142562 0.020000
10.017488 -4.043118 0.131862 0.060000
53.555450 25.164541 11.624201 0.020000
45.652031 14.114805 9.222470 0.040000
41.914188 2.140742 7.903189 0.030000
41.542473 -2.971748 7.738212 0.170000
6.764006 -0.944702 1.449901 0.070000
42.943878 -21.457355 8.813164 0.060000
29.506750 13.293552 2.877209 0.230000
31.306660 1.611986 2.558480 0.050000
12.020683 -0.693232 1.259555 0.080000
6.649396 -0.889889 0.904800 0.500000
7.039289 -1.667669 0.932927 0.040000
11.126135 4.384511 0.191085 0.100000
11.462258 3.025745 0.176911 0.040000
11.158148 1.669627 0.186076 0.500000
11.724380 0.570368 0.158468 0.020000
11.402234 -0.626031 0.158179 0.020000
10.660685 -2.900635 0.147788 0.030000
10.056892 -4.012376 0.137079 0.070000
53.425236 25.432003 11.649856 0.010000
45.677418 14.350186 9.263412 0.060000
41.484116 -2.797853 7.743706 0.170000
6.773608 -0.924533 1.455001 0.060000
43.888283 -21.705009 9.004711 0.060000
29.473759 13.447911 2.887697 0.220000
31.279146 1.741445 2.568889 0.040000
6.638919 -0.865085 0.904865 0.480000
6.978356 -1.618809 0.927949 0.050000
11.100277 4.429024 0.191183 0.110000
11.466286 3.075813 0.182108 0.040000
11.182281 1.715097 0.186308 0.500000
11.728601 0.610438 0.163628 0.030000
11.446555 -0.590176 0.158428 0.030000
11.027976 -1.713427 0.163160 0.030000
10.715196 -2.874586 0.148027 0.030000
10.116498 -3.991231 0.137313 0.060000
50.473423 24.277449 11.042852 0.080000
45.653084 14.574723 9.274183 0.020000
42.461464 7.720981 8.260365 0.070000
41.867435 2.489835 7.924365 0.030000
41.540630 -2.616776 7.754527 0.090000
6.738066 -0.895172 1.445017 0.180000
44.059654 -21.516768 9.025858 0.050000
29.470297 13.627858 2.893357 0.210000
19.099247 5.626232 1.906530 0.000000
16.758505 2.806803 1.644937 0.000000
31.276560 1.876420 2.569384 0.050000
12.649682 -0.641341 1.306390 0.060000
6.967783 -1.589006 0.928032 0.070000
11.084227 4.483727 0.191344 0.110000
11.410530 3.114752 0.182107 0.040000
11.707742 0.655046 0.163739 0.030000
11.395606 -0.541143 0.158477 0.030000
11.067215 -1.672650 0.158414 0.020000
10.714142 -2.819597 0.148229 0.020000
10.100255 -3.926531 0.137511 0.060000
50.337902 24.564922 11.038568 0.060000
43.900116 14.237302 8.938350 0.040000
42.238243 7.891865 8.225417 0.070000
11.252388 0.633548 2.282492 0.010000
41.787125 -2.437170 7.795838 0.100000
