# This PCD file was generated using the MATLAB® pcwrite function
# from Computer Vision Toolbox®.
# .PCD v.7 - Point Cloud Data file format
VERSION .7
FIELDS x y z intensity
SIZE 4 4 4 4
TYPE F F F F
COUNT 1 1 1 1
WIDTH 1287
HEIGHT 1
VIEWPOINT 0 0 0 1 0 0 0
POINTS 1287
DATA ascii
8.616277 -3.469816 0.120335 0.060000
41.596550 18.390881 8.412772 0.080000
41.248646 1.470243 7.253953 0.020000
7.147180 -1.107410 1.455296 0.510000
11.284293 -3.371328 2.207687 0.050000
44.777077 -23.396618 8.545737 0.080000
13.110139 5.078451 1.338855 0.040000
16.345592 4.284817 1.469352 0.080000
31.361906 1.134445 2.151844 0.050000
11.858871 -0.840825 1.113582 0.120000
7.153240 -1.080126 0.865407 0.420000
9.291079 3.329254 0.162372 0.110000
9.576270 2.279567 0.149214 0.040000
9.760413 1.282936 0.140990 0.070000
9.833619 0.334189 0.132654 0.030000
9.642054 -0.629650 0.128571 0.030000
9.309338 -1.536219 0.134332 0.020000
8.906483 -2.434075 0.124943 0.030000
8.342770 -3.290040 0.125290 0.070000
41.677578 18.612839 8.313807 0.060000
8.963198 1.161633 1.778475 0.100000
53.098862 2.095557 9.127229 0.010000
7.141837 -1.087454 1.440356 0.230000
11.288591 -3.331147 2.182848 0.030000
44.853104 -23.169626 8.411778 0.060000
13.074374 5.122902 1.303926 0.030000
16.354450 4.350144 1.429617 0.180000
8.751036 1.125552 0.962778 0.040000
31.374922 1.250026 2.067307 0.030000
7.112711 -1.050842 0.850410 0.540000
13.470942 -4.070669 1.145784 0.020000
13.538906 -6.054810 1.163586 0.020000
8.978066 3.223259 0.156160 0.110000
9.282379 2.218928 0.148221 0.040000
9.430871 1.256639 0.135032 0.080000
9.608195 0.354894 0.127142 0.030000
9.396058 -0.579334 0.123116 0.020000
9.067767 -1.455813 0.129001 0.020000
8.679335 -2.323387 0.119762 0.030000
8.129948 -3.144072 0.120277 0.060000
41.000313 18.500818 8.046620 0.100000
8.883017 1.175229 1.743316 0.090000
40.209793 1.716839 6.857153 0.040000
7.131412 -1.062576 1.420421 0.130000
45.061020 -23.040127 8.277802 0.050000
13.093217 5.188403 1.269219 0.030000
8.755608 1.150717 0.942884 0.060000
31.323044 1.359364 1.982577 0.040000
11.892667 -0.769964 1.058934 0.070000
7.137458 -1.035311 0.835532 0.560000
13.537752 -5.989692 1.128825 0.020000
8.660234 3.107152 0.154899 0.110000
8.943688 2.147429 0.147071 0.040000
8.951784 1.202399 0.148580 0.120000
9.247975 0.362996 0.126232 0.030000
9.090061 -0.530186 0.122500 0.030000
8.771002 -1.366481 0.128558 0.030000
8.432068 -2.208121 0.124545 0.030000
7.942409 -3.012622 0.115276 0.070000
41.244537 18.815845 7.968428 0.090000
47.419044 14.391427 8.483104 0.010000
8.867592 1.200011 1.723367 0.190000
40.252209 1.868100 6.742825 0.020000
7.110989 -1.037890 1.400460 0.100000
44.263577 -22.354122 7.963267 0.110000
16.163406 4.416864 1.329365 0.090000
8.765083 1.180978 0.923021 0.030000
31.310982 1.479484 1.892991 0.040000
11.967061 -0.733423 1.029263 0.060000
7.101943 -1.005912 0.815549 0.570000
13.474043 -3.960297 1.066202 0.020000
8.406828 3.022302 0.148922 0.110000
8.644894 2.081695 0.146047 0.040000
8.801756 1.204581 0.133196 0.090000
8.932651 0.376960 0.125461 0.030000
8.803965 -0.475655 0.121956 0.030000
8.204919 -2.097433 0.119363 0.030000
7.770058 -2.890883 0.110279 0.060000
41.250698 19.036533 7.824263 0.070000
46.108921 14.177691 8.098886 0.070000
8.802313 1.218892 1.688267 0.220000
40.239594 2.023381 6.608368 0.010000
7.110561 -1.012820 1.380552 0.140000
44.193459 -22.059681 7.764176 0.090000
13.096138 5.308792 1.184673 0.040000
15.824214 4.380600 1.263345 0.050000
13.206384 0.615477 1.057513 0.010000
12.036455 -0.696977 0.999580 0.060000
7.116596 -0.985573 0.800663 0.610000
13.600867 -5.878133 1.039404 0.020000
8.103814 2.916498 0.142738 0.110000
8.336115 2.015788 0.139996 0.050000
8.507098 1.183934 0.132350 0.090000
8.637323 0.391306 0.124743 0.030000
8.523060 -0.431027 0.121388 0.030000
7.479475 -1.046379 0.186377 0.020000
7.932479 -1.972629 0.119116 0.030000
7.592613 -2.764241 0.105286 0.070000
41.113003 19.199549 7.654508 0.090000
44.679630 13.921721 7.699199 0.080000
8.791901 1.243789 1.663332 0.230000
7.100137 -0.987942 1.360617 0.310000
44.274326 -21.817410 7.580286 0.090000
13.124606 3.574342 1.093299 0.050000
8.823861 1.252299 0.873439 0.020000
31.291851 1.724949 1.678852 0.040000
12.691659 -0.699374 0.986281 0.050000
7.096076 -0.955887 0.780719 0.670000
13.436602 -3.820659 0.976622 0.020000
7.845504 2.826554 0.136729 0.110000
8.081942 1.970931 0.134166 0.050000
8.212440 1.163287 0.131504 0.090000
8.361991 0.406036 0.124079 0.030000
8.237059 -0.381496 0.120826 0.030000
7.529243 -1.030331 0.161567 0.060000
7.785808 -1.885386 0.109057 0.040000
7.384873 -2.623194 0.105268 0.080000
41.292274 19.518515 7.526160 0.090000
46.374569 14.708937 7.811551 0.040000
49.482685 -3.144051 7.578296 0.080000
7.089712 -0.963064 1.340682 0.270000
40.091087 -12.906497 6.387479 0.010000
43.531967 -21.135351 7.265880 0.110000
13.158091 5.480320 1.100471 0.030000
15.359627 4.372159 1.137099 0.110000
8.848238 1.287846 0.853634 0.020000
31.244642 1.854453 1.574209 0.010000
12.700804 -0.649044 0.946491 0.060000
7.100745 -0.935721 0.760806 0.490000
13.445650 -3.765329 0.936851 0.040000
13.542786 -5.703848 0.939899 0.010000
7.577279 2.731400 0.135675 0.110000
7.827948 1.916057 0.133299 0.040000
7.972786 1.143712 0.125806 0.080000
8.071854 0.410480 0.123339 0.030000
7.981257 -0.341370 0.115307 0.030000
7.569014 -1.014475 0.136729 1.000000
7.589024 -1.794138 0.108883 0.040000
7.222713 -2.511262 0.100261 0.070000
41.203747 19.727535 7.341704 0.050000
44.994610 14.488935 7.407127 0.080000
52.452507 3.367693 7.960258 0.010000
49.538860 -2.917238 7.389284 0.120000
7.089298 -0.937976 1.315774 0.180000
39.941162 -12.623603 6.193137 0.020000
43.541847 -20.839359 7.062004 0.100000
15.253928 4.415344 1.081983 0.080000
31.296949 2.010886 1.464926 0.010000
12.674859 -0.594384 0.906626 0.070000
7.075227 -0.906131 0.740849 0.570000
13.454617 -3.704982 0.892099 1.000000
13.571665 -5.638100 0.890218 0.030000
7.299152 2.631056 0.134576 0.120000
7.608672 1.876868 0.127581 0.040000
7.743021 1.129309 0.125152 0.100000
7.851525 0.426282 0.117822 0.030000
7.780337 -0.295209 0.114954 0.040000
7.648777 -0.997853 0.111999 0.040000
7.407155 -1.697586 0.103767 0.040000
7.040268 -2.384715 0.095255 0.100000
42.064743 20.469229 7.326709 0.040000
45.779228 15.044226 7.366239 0.050000
51.379749 3.548409 7.623127 0.020000
51.726711 -2.800739 7.510429 0.070000
7.068683 -0.903291 1.295848 0.340000
39.902012 -12.383687 6.023925 0.020000
43.622551 -20.587053 6.868151 0.090000
13.096064 5.599520 1.000752 0.020000
13.131412 3.760000 0.959005 0.150000
30.645399 2.103900 1.333569 0.010000
12.583940 -0.540951 0.861587 0.110000
7.094796 -0.880679 0.720995 0.540000
13.418221 -3.625482 0.842299 0.030000
7.100352 2.567255 0.128820 0.100000
7.369579 1.827281 0.126772 0.050000
7.543263 1.115500 0.119580 0.100000
7.636278 0.437161 0.117301 0.030000
7.579621 -0.259029 0.109565 0.040000
7.477672 -0.941102 0.106763 0.040000
7.190279 -1.601722 0.103557 0.040000
6.893200 -2.277495 0.090270 0.090000
41.901737 20.651855 7.131960 0.050000
44.553753 14.847041 7.002303 0.090000
11.246939 0.714980 1.867776 0.000000
44.451550 -2.175687 6.328750 0.040000
7.058271 -0.878394 1.270914 0.630000
38.031990 -11.557796 5.597109 0.020000
44.601551 -20.778118 6.809996 0.020000
13.084772 5.674519 0.946000 0.010000
15.007850 4.486084 0.961603 0.210000
13.221850 0.881591 0.848540 0.000000
12.643075 -0.489663 0.821932 0.310000
7.054185 -0.846377 0.701016 0.680000
15.409494 -4.192372 0.825389 0.180000
16.486191 -6.882282 0.833200 0.010000
6.857122 2.472580 0.127833 0.120000
7.180203 1.793666 0.121153 0.050000
7.303499 1.100905 0.118900 0.090000
7.440944 0.453441 0.111851 0.040000
7.373892 -0.222962 0.109162 0.040000
7.251277 -0.870425 0.106435 0.040000
7.028693 -1.519784 0.098440 0.040000
6.705840 -2.156061 0.090232 0.100000
43.312302 21.673903 7.179442 0.030000
44.266533 14.992410 6.772091 0.040000
57.164768 11.608461 8.258195 0.150000
11.246181 0.760120 1.827942 0.000000
35.571407 -1.545823 4.992898 0.030000
7.067830 -0.853152 1.256032 0.700000
38.113750 -11.365610 5.438035 0.030000
45.014782 -20.659595 6.651513 0.090000
13.068468 5.749403 0.896236 0.040000
14.922051 4.534651 0.906559 0.250000
9.358708 1.543034 0.755914 0.000000
16.276392 1.195145 0.857679 0.000000
12.607132 -0.435195 0.782040 0.120000
7.088931 -0.830654 0.686165 0.430000
10.700954 -4.037136 0.708674 0.020000
6.663404 2.403858 0.127072 0.120000
6.946205 1.739175 0.120340 0.050000
7.118726 1.087364 0.118367 0.100000
7.230792 0.459418 0.111325 0.040000
7.163166 -0.186992 0.108746 0.040000
7.090266 -0.818481 0.101208 0.030000
6.837004 -1.433440 0.098261 0.040000
6.574153 -2.068550 0.085213 0.100000
48.983192 24.980675 7.866544 0.030000
44.197716 15.216809 6.587744 0.080000
57.214367 11.920237 8.049481 0.070000
11.260299 0.810510 1.798166 0.030000
35.773685 -1.386518 4.884017 0.140000
7.047324 -0.823448 1.231089 0.840000
38.069866 -11.140824 5.278755 0.030000
45.211163 -20.445173 6.482821 0.030000
14.881065 4.594097 0.846672 0.250000
13.232613 2.417325 0.784277 0.010000
11.297880 0.825137 0.733307 0.010000
10.609076 -3.933712 0.663818 0.090000
6.479589 2.340327 0.126356 0.120000
6.771825 1.705848 0.114760 0.050000
6.904162 1.063269 0.112717 0.110000
7.045648 0.465891 0.105866 0.040000
6.967531 -0.155733 0.108351 0.050000
6.914245 -0.766843 0.100940 0.030000
6.675501 -1.356520 0.098125 0.040000
6.104154 -1.817653 0.124920 0.110000
42.164707 21.613913 6.631218 0.080000
45.563648 15.963082 6.599083 0.120000
57.224297 12.216304 7.825606 0.080000
11.204659 0.849616 1.753165 1.000000
35.775806 -1.215916 4.739655 0.340000
38.277328 -10.986292 5.134870 0.030000
13.105381 5.925526 0.791986 0.040000
14.825166 4.648237 0.791727 0.230000
11.202223 0.863440 0.698200 0.020000
13.398654 -3.360094 0.648232 0.010000
10.608127 -3.878574 0.624020 0.150000
6.290870 2.271700 0.125609 0.100000
6.582531 1.667216 0.114123 0.050000
6.744288 1.055206 0.112270 0.130000
6.845480 0.472041 0.110366 0.030000
6.816998 -0.128593 0.103059 0.050000
6.733129 -0.710302 0.100678 0.040000
6.508999 -1.279695 0.097976 0.040000
6.103714 -1.792602 0.110012 0.180000
42.055611 21.852543 6.446818 0.030000
45.464565 16.201923 6.409711 0.040000
57.244144 12.517581 7.596775 0.070000
11.154020 0.888818 1.708179 1.000000
36.228149 -1.061932 4.661408 0.220000
7.031390 -0.768578 1.186251 0.140000
7.290502 -1.508912 1.229176 0.000000
11.326437 -4.204055 1.764697 0.010000
13.265446 2.543306 0.694830 0.010000
11.211463 0.908772 0.658392 0.060000
10.607069 -3.818455 0.589241 0.130000
6.131967 2.213665 0.119978 0.090000
6.413234 1.628967 0.113539 0.050000
6.559610 1.036665 0.111719 0.110000
6.690331 0.479089 0.104987 0.030000
6.651358 -0.096759 0.102745 0.050000
6.602304 -0.667781 0.095494 0.030000
6.362781 -1.217484 0.097826 0.050000
6.088085 -1.757840 0.095100 0.220000
46.146530 24.399967 6.841970 0.040000
44.929085 16.257614 6.153518 0.090000
57.244366 12.798460 7.372818 0.070000
11.128363 0.928480 1.668259 0.180000
36.470421 -0.901860 4.552634 0.150000
7.035963 -0.743413 1.166356 0.120000
7.289992 -1.478824 1.204286 0.010000
11.320405 -4.143995 1.719904 0.030000
13.068062 6.060202 0.692388 0.020000
14.762973 4.777472 0.682044 0.230000
30.037693 6.505423 0.698338 0.010000
11.145909 0.942669 0.618346 0.080000
7.498501 -0.792491 0.602375 0.100000
13.401506 -3.234669 0.553705 0.020000
10.601133 -3.763394 0.544429 0.220000
5.963148 2.150421 0.119302 0.080000
6.219120 1.580222 0.117851 0.050000
6.404830 1.023699 0.111267 0.110000
6.515172 0.485735 0.104555 0.030000
6.490909 -0.074828 0.102408 0.050000
6.441362 -0.620874 0.100249 0.040000
6.226560 -1.155082 0.097702 0.050000
6.006963 -1.699365 0.090105 0.120000
46.383892 24.825230 6.669169 0.030000
44.563026 16.341461 5.922871 0.110000
57.264748 13.069686 7.158877 0.070000
11.102693 0.968124 1.633339 0.160000
35.522514 -0.724066 4.300818 0.370000
7.015539 -0.718726 1.146394 0.230000
7.324738 -1.463101 1.189435 0.040000
11.349628 -4.098299 1.685150 0.190000
13.076658 6.140564 0.642709 0.060000
14.751778 4.847472 0.627274 0.080000
13.139089 2.626249 0.599807 0.010000
11.115227 0.982198 0.588413 0.090000
15.134372 -0.235934 0.564375 0.030000
7.553255 -0.776367 0.582578 0.190000
10.615359 -3.717986 0.509635 0.280000
5.799411 2.082254 0.123621 0.070000
6.064819 1.542260 0.117307 0.050000
6.225138 1.005236 0.115729 0.100000
6.350094 0.487556 0.109131 0.030000
6.320448 -0.053107 0.107044 0.050000
6.250427 -0.574541 0.104922 0.040000
6.115527 -1.102199 0.097609 0.040000
5.860266 -1.612159 0.090047 0.110000
46.299568 25.079430 6.459891 0.030000
44.305847 16.482330 5.712721 0.070000
57.245190 13.340221 6.924829 0.080000
34.989689 -0.553507 4.100060 0.310000
7.065295 -0.702697 1.126584 0.400000
7.238791 -1.409609 1.154409 0.050000
11.303152 -4.013972 1.630342 0.310000
11.124467 1.027530 0.548605 0.090000
7.537748 -0.746567 0.557648 0.240000
13.404550 -3.119242 0.459141 0.010000
10.629682 -3.677576 0.474822 0.310000
5.680200 2.039964 0.123153 0.060000
5.890605 1.498898 0.121691 0.040000
6.080453 0.987462 0.115285 0.110000
6.200026 0.489682 0.108747 0.030000
6.174996 -0.030889 0.106746 0.040000
6.124684 -0.536942 0.104734 0.040000
5.984401 -1.044700 0.097480 0.050000
5.774132 -1.553799 0.090039 0.110000
46.393639 25.417006 6.266390 0.020000
44.515308 16.797022 5.544436 0.100000
57.290565 13.617056 6.675974 0.080000
11.186135 1.059995 1.563897 0.160000
34.992451 -0.417935 3.965569 0.350000
7.009795 -0.673663 1.101546 0.560000
7.228283 -1.379714 1.129492 0.040000
11.352673 -3.982872 1.590586 0.260000
13.054266 6.280563 0.533169 0.020000
14.764297 4.993159 0.512847 0.180000
24.670048 5.588489 0.400916 0.000000
11.193696 1.074011 0.508958 0.180000
7.527324 -0.721689 0.537713 0.210000
13.408626 -3.063971 0.409356 0.010000
10.659122 -3.641841 0.430032 0.240000
5.561002 1.997692 0.117685 0.050000
5.766108 1.471509 0.121264 0.030000
5.920757 0.969382 0.119801 0.110000
6.079953 0.492383 0.108444 0.030000
6.039625 -0.013497 0.111458 0.050000
6.009035 -0.504151 0.104554 0.040000
5.913661 -1.006030 0.092439 0.040000
5.657812 -1.486014 0.089987 0.140000
46.329517 25.661610 6.052130 0.040000
44.298309 16.928658 5.334357 0.110000
57.301346 13.868114 6.456933 0.070000
11.235341 1.106055 1.534196 0.050000
7.004370 -0.648689 1.081625 0.520000
7.263029 -1.363990 1.114641 0.100000
13.057863 6.360830 0.483477 0.020000
13.151290 2.792025 0.460454 0.000000
11.168026 1.113654 0.474038 0.050000
13.275829 -0.051037 0.435210 0.010000
7.587090 -0.705449 0.512929 0.140000
13.367505 -2.999582 0.364488 0.030000
10.698645 -3.610932 0.390249 0.180000
5.446790 1.955497 0.117230 0.050000
5.641706 1.439121 0.120819 0.040000
5.820981 0.957487 0.114497 0.090000
5.954880 0.494988 0.108127 0.030000
5.934275 0.004507 0.106250 0.050000
5.908479 -0.476072 0.104396 0.040000
5.807818 -0.963049 0.092323 0.030000
5.591879 -1.437250 0.084996 0.130000
46.972103 26.334530 5.921307 0.040000
43.922203 17.012239 5.123684 0.080000
57.306721 14.139034 6.247952 0.080000
11.164897 1.134876 1.489119 0.180000
36.792778 -0.143041 3.871289 0.230000
6.983960 -0.623984 1.056663 0.400000
7.267709 -1.343806 1.089728 0.190000
11.199608 -3.810406 1.490827 0.230000
13.032149 6.405547 0.428575 0.050000
13.104494 4.456570 0.426519 0.050000
13.130548 2.836801 0.415566 0.010000
10.957856 1.124741 0.443530 0.070000
13.265086 -0.006070 0.390349 0.010000
16.035830 -3.653155 0.249022 0.020000
10.748248 -3.584849 0.355475 0.110000
5.337577 1.913398 0.116788 0.050000
5.557023 1.422514 0.115536 0.030000
5.701195 0.945191 0.114138 0.100000
5.864814 0.498282 0.102904 0.030000
5.829007 0.017493 0.106023 0.050000
5.807936 -0.447974 0.099238 0.040000
5.737174 -0.929378 0.087263 0.030000
5.485641 -1.374292 0.089953 0.130000
57.071602 32.590721 6.880936 0.030000
43.581367 17.081476 4.918049 0.060000
57.292805 14.374634 6.023789 0.080000
11.214104 1.180937 1.459419 0.270000
35.010502 -0.001104 3.582162 0.160000
6.993614 -0.603741 1.041763 0.740000
7.212018 -1.304774 1.064728 0.220000
11.188757 -3.760458 1.450984 0.250000
19.384909 4.522613 0.238156 0.000000
9.111420 0.919288 0.452947 0.020000
15.441733 -3.439348 0.208266 0.020000
10.843334 -3.582880 0.315730 0.110000
5.243361 1.871586 0.116387 0.040000
5.462423 1.400699 0.115208 0.030000
5.611307 0.938468 0.113879 0.090000
5.744823 0.495965 0.107582 0.030000
5.738641 0.035766 0.105855 0.050000
5.712379 -0.419799 0.099093 0.040000
5.651423 -0.891013 0.087182 0.040000
5.429993 -1.340333 0.084934 0.120000
52.222462 29.995123 6.113622 0.030000
43.320198 17.167204 4.722684 0.050000
57.299053 14.600582 5.809643 0.070000
11.108858 1.199090 1.414211 0.220000
34.988422 0.123935 3.462568 0.280000
7.201593 -1.279896 1.044793 0.250000
11.233265 -3.729472 1.416215 0.150000
14.542710 7.455212 0.286419 0.040000
9.115923 0.949489 0.423071 0.020000
16.569199 0.097924 0.209358 0.010000
13.130491 -1.318494 0.280118 0.090000
14.425543 -3.123699 0.191787 0.030000
5.163868 1.845078 0.111081 0.050000
5.372824 1.378979 0.114894 0.030000
5.516517 0.926651 0.113587 0.100000
5.654745 0.499241 0.107359 0.030000
5.648466 0.044040 0.105651 0.050000
5.637009 -0.401240 0.098965 0.040000
5.595872 -0.862054 0.082145 0.030000
5.348954 -1.286876 0.084921 0.120000
49.040062 28.340900 5.549160 0.020000
29.658432 11.589800 3.241275 0.010000
30.355526 7.582699 3.158198 0.020000
11.043483 1.222970 1.379129 0.440000
31.542154 0.214434 3.048904 0.080000
7.196263 -1.259921 1.024853 0.160000
11.303138 -3.718022 1.386439 0.380000
13.330324 6.786911 0.270770 0.040000
14.590229 5.240841 0.248311 0.040000
14.974201 3.472919 0.232741 0.010000
11.021106 1.231356 0.339091 0.070000
15.278290 0.133208 0.206120 0.010000
13.118095 -2.748709 0.199768 0.020000
11.063789 -3.593367 0.236266 0.100000
5.094360 1.818742 0.110801 0.040000
5.288223 1.357355 0.114592 0.030000
5.451638 0.920425 0.108395 0.100000
5.579676 0.502822 0.102176 0.020000
5.573205 0.057620 0.100505 0.050000
5.576555 -0.377375 0.093896 0.040000
5.520216 -0.828497 0.082072 0.030000
5.283213 -1.248110 0.079894 0.120000
29.041059 16.393532 3.337522 0.010000
29.710974 11.731161 3.151937 0.030000
30.363747 7.688205 3.068611 0.030000
11.018100 1.247617 1.344154 0.490000
31.535595 0.309692 2.949240 0.060000
13.031376 -1.269711 1.460052 0.230000
11.327650 -3.687419 1.351617 0.550000
12.706543 6.459999 0.242926 0.030000
13.373902 4.777483 0.238413 0.040000
13.908726 3.227488 0.224047 0.010000
11.025596 1.261539 0.314214 0.160000
14.182453 0.167245 0.198386 0.010000
13.079055 -1.234208 0.210296 0.030000
12.826012 -2.639192 0.174412 0.030000
11.138771 -3.586802 0.201486 0.210000
5.014950 1.787215 0.110477 0.030000
5.233438 1.346322 0.109408 0.030000
5.361846 0.908704 0.108117 0.100000
5.504690 0.501386 0.101975 0.020000
5.513025 0.066469 0.100380 0.050000
5.486175 -0.359121 0.098728 0.040000
5.444654 -0.799939 0.081981 0.030000
5.217446 -1.209381 0.084866 0.130000
29.014231 16.503422 3.232859 0.020000
29.704319 11.831418 3.052291 0.080000
30.332397 7.773005 2.963843 0.110000
11.037599 1.278105 1.314318 0.470000
31.529242 0.394971 2.844539 0.090000
13.045902 -1.239280 1.420203 0.230000
7.195697 -1.224779 0.984982 0.050000
11.271628 -3.628316 1.306690 0.420000
11.840643 5.978367 0.228875 0.040000
12.638966 4.508415 0.220494 0.050000
13.047376 3.031012 0.206068 0.010000
10.955317 1.280325 0.279100 0.100000
13.411966 0.187547 0.181450 0.010000
12.933203 -1.186883 0.180091 0.040000
12.051570 -2.413966 0.168228 0.030000
11.198755 -3.580523 0.166665 0.220000
4.950441 1.760975 0.110211 0.040000
5.143825 1.324583 0.114094 0.020000
5.306856 0.907650 0.107969 0.110000
5.434703 0.500045 0.101788 0.030000
5.442847 0.075126 0.100229 0.050000
5.380702 -0.336155 0.103538 0.050000
5.359096 -0.771572 0.081863 0.040000
5.187081 -1.189941 0.079859 0.130000
28.977692 16.598124 3.128114 0.050000
29.657986 11.915949 2.942483 0.170000
30.315937 7.863072 2.864134 0.190000
11.017202 1.302829 1.284356 0.450000
31.547844 0.480672 2.754906 0.050000
13.040324 -1.204253 1.385318 0.220000
7.175261 -1.200111 0.970020 0.040000
11.296319 -3.607730 1.276830 0.520000
11.404883 5.755037 0.211907 0.030000
12.043128 4.287001 0.208116 0.050000
12.484697 2.905232 0.199132 0.010000
10.954903 1.305413 0.254192 0.100000
12.711522 0.204136 0.179683 0.020000
12.145845 -1.071960 0.183463 0.050000
11.578701 -2.267978 0.162536 0.040000
4.900738 1.745021 0.110022 0.030000
5.113939 1.319028 0.108995 0.020000
5.222147 0.891007 0.112686 0.100000
5.379618 0.503991 0.101659 0.010000
5.387665 0.084071 0.100119 0.040000
5.350530 -0.326713 0.098495 0.090000
5.313721 -0.752438 0.081816 0.030000
5.126422 -1.156096 0.079826 0.120000
28.966133 16.693287 3.028437 0.090000
29.651676 11.996154 2.857764 0.150000
30.304821 7.933183 2.779365 0.100000
11.156448 1.345559 1.269878 0.320000
31.521646 0.555514 2.665115 0.040000
7.190106 -1.189770 0.955097 0.040000
11.305916 -3.582431 1.246949 0.570000
10.954511 5.511424 0.194826 0.020000
11.501980 4.081619 0.200940 0.050000
11.932031 2.779662 0.187222 0.010000
10.969500 1.330807 0.224325 0.090000
12.161172 0.218635 0.168300 0.020000
11.734524 -1.004771 0.167639 0.040000
11.101025 -2.132084 0.156794 0.030000
10.446940 -3.229805 0.151006 0.060000
4.865949 1.734371 0.104892 0.030000
5.054238 1.302882 0.108779 0.020000
5.182167 0.890259 0.107579 0.100000
5.324641 0.502956 0.096511 0.010000
5.317583 0.087729 0.099949 0.030000
5.325260 -0.312176 0.093483 0.160000
5.253253 -0.728592 0.081747 0.040000
5.075856 -1.127060 0.079802 0.120000
28.954563 16.788429 2.933759 0.100000
29.630383 12.076090 2.768005 0.100000
11.156131 1.365648 1.244952 0.240000
31.540524 0.626199 2.580426 0.050000
12.984367 -1.145057 1.315392 0.100000
7.169875 -1.175081 0.935099 0.050000
11.320513 -3.557037 1.217081 0.350000
10.118731 5.020276 0.205819 0.040000
10.985648 3.886733 0.188868 0.050000
11.394349 2.654361 0.180353 0.010000
11.078886 1.368019 0.194748 0.070000
11.705791 0.234935 0.162172 0.020000
11.283089 -0.933385 0.161726 0.050000
10.703620 -2.009655 0.151212 0.040000
10.139150 -3.085637 0.140739 0.060000
4.801536 1.703132 0.104607 0.030000
5.004452 1.291945 0.103608 0.020000
5.112468 0.873922 0.107336 0.060000
5.254641 0.501597 0.101323 0.010000
5.257402 0.096578 0.099825 0.030000
5.270092 -0.303213 0.088372 0.080000
5.182787 -0.704937 0.081651 0.040000
5.030399 -1.102908 0.074773 0.120000
28.933104 16.878401 2.834037 0.090000
29.633987 12.161504 2.678331 0.080000
11.145732 1.390563 1.215017 0.120000
31.454447 0.694911 2.485456 0.080000
13.004059 -1.124567 1.285519 0.150000
7.214797 -1.169183 0.925238 0.130000
9.727842 4.802769 0.198990 0.040000
10.543714 3.723259 0.182106 0.050000
11.005980 2.566944 0.169014 0.010000
11.255505 0.246331 0.156039 0.020000
10.871837 -0.871232 0.155883 0.050000
10.346605 -1.906438 0.140664 0.040000
9.801159 -2.932065 0.135427 0.060000
4.747025 1.677083 0.104368 0.020000
4.944750 1.275799 0.103393 0.010000
5.042563 0.867563 0.112130 0.040000
5.209662 0.500754 0.096203 0.010000
5.202317 0.100524 0.099696 0.030000
5.209803 -0.289383 0.093266 0.040000
5.142411 -0.685707 0.081617 0.040000
4.974834 -1.073967 0.074736 0.120000
28.911943 16.953394 2.729259 0.050000
29.603104 12.221290 2.578471 0.050000
13.131304 3.188449 1.351884 0.000000
31.418537 0.754564 2.395582 0.260000
12.988578 -1.094729 1.250589 0.160000
7.204659 -1.159302 0.905248 0.160000
9.337049 4.580264 0.192142 0.040000
10.156578 3.570836 0.175529 0.050000
10.548079 2.453155 0.167396 0.010000
10.845321 0.253514 0.144995 0.020000
10.500782 -0.818292 0.145111 0.050000
10.049962 -1.822067 0.130203 0.040000
9.488465 -2.792992 0.125128 0.060000
4.717236 1.666529 0.099251 0.020000
4.900046 1.259940 0.103217 0.010000
5.002776 0.856818 0.106987 0.040000
5.139771 0.494414 0.095997 0.010000
5.147231 0.104470 0.099567 0.020000
5.144527 -0.275631 0.093147 0.030000
5.066933 -0.662167 0.086507 0.040000
4.944457 -1.054545 0.074729 0.110000
28.925682 17.034056 2.624594 0.030000
29.651823 12.302604 2.478900 0.020000
13.195713 3.224818 1.317188 0.010000
8.921901 1.073595 1.023032 0.040000
13.301606 0.316533 1.251652 0.130000
13.008473 -1.084218 1.215680 0.140000
7.144243 -1.135382 0.885179 0.230000
9.000779 4.383826 0.180534 0.050000
9.779454 3.418623 0.163979 0.050000
10.154999 2.350645 0.155989 0.010000
10.380010 1.309807 0.142707 0.010000
10.450312 0.250966 0.138954 0.020000
10.164804 -0.769700 0.139415 0.050000
9.768412 -1.742409 0.119764 0.040000
9.266616 -2.697187 0.114905 0.050000
4.643003 1.625082 0.103903 0.020000
4.835442 1.238699 0.102969 0.010000
4.947978 0.845766 0.106802 0.040000
5.074879 0.488170 0.095804 0.010000
5.082243 0.103225 0.099393 0.020000
5.099453 -0.271475 0.088044 0.020000
5.011669 -0.648204 0.081415 0.050000
4.899095 -1.035392 0.069682 0.110000
13.063771 4.892640 1.308043 0.020000
13.101231 3.203169 1.271860 0.040000
8.921967 1.073688 0.998032 0.040000
12.998855 -1.099277 1.180598 0.070000
7.139475 -1.145420 0.870129 0.260000
11.269711 -3.497523 1.087169 0.020000
8.704955 4.163121 0.178942 0.050000
9.462675 3.247526 0.162516 0.060000
9.862066 2.240016 0.154813 0.020000
10.111210 1.244648 0.141763 0.010000
10.215930 0.216472 0.138214 0.020000
9.980043 -0.783223 0.133882 0.060000
9.578147 -1.731069 0.124310 0.040000
9.100976 -2.665354 0.114591 0.060000
4.623486 1.599703 0.103758 0.020000
4.810925 1.213225 0.102811 0.010000
4.958180 0.835978 0.101793 0.040000
5.075167 0.473173 0.095749 0.010000
5.087447 0.093341 0.094369 0.020000
5.069637 -0.282066 0.092927 0.020000
4.996850 -0.658508 0.086338 0.050000
4.894383 -1.050485 0.069613 0.100000
13.011145 6.846739 1.380170 0.000000
13.040117 4.822175 1.307719 0.020000
13.117173 3.153447 1.276717 0.030000
11.101262 1.375039 1.124842 0.130000
13.247844 0.255603 1.221285 0.050000
12.969613 -1.139862 1.185371 0.160000
7.154938 -1.170146 0.875077 0.390000
11.326003 -3.566512 1.102059 0.100000
8.829165 4.205508 0.179423 0.060000
9.676581 3.306633 0.163294 0.050000
10.046744 2.258556 0.155364 0.020000
10.321267 1.243670 0.142308 0.010000
10.416468 0.190308 0.138640 0.020000
10.160968 -0.829766 0.134182 0.050000
9.744566 -1.802876 0.119477 0.040000
9.197382 -2.738539 0.119571 0.060000
4.678201 1.615772 0.098961 0.020000
4.841015 1.208800 0.102873 0.010000
4.978272 0.831362 0.101828 0.030000
5.110256 0.468844 0.095825 0.010000
5.097624 0.083516 0.099359 0.020000
5.104918 -0.296393 0.092966 0.020000
5.022229 -0.678026 0.086332 0.040000
4.914762 -1.070098 0.069593 0.110000
15.986954 8.628239 1.614563 0.000000
13.056021 4.772397 1.327576 0.010000
13.113080 3.103287 1.296520 0.030000
11.081993 1.334607 1.139642 0.140000
13.258461 0.220727 1.241183 0.230000
12.970219 -1.174949 1.210242 0.170000
7.170292 -1.189892 0.885044 0.390000
11.276248 -3.582541 1.121870 0.070000
9.111621 4.340941 0.180664 0.060000
9.915277 3.376199 0.169176 0.050000
10.281112 2.293032 0.161104 0.020000
10.536214 1.247769 0.147884 0.010000
10.651903 0.169813 0.139179 0.020000
10.331868 -0.876538 0.144454 0.060000
9.910851 -1.869740 0.129663 0.040000
9.374362 -2.840168 0.119655 0.070000
4.718002 1.626537 0.099104 0.020000
4.875913 1.214470 0.102985 0.010000
5.018361 0.827129 0.101917 0.030000
5.160356 0.464821 0.090941 0.010000
5.127810 0.074092 0.099403 0.020000
5.105096 -0.306410 0.097929 0.020000
5.082710 -0.701853 0.081401 0.040000
4.925035 -1.084922 0.074565 0.120000
29.019001 16.600767 2.623227 0.020000
11.062615 1.299157 1.159460 0.400000
12.996024 -1.219536 1.230144 0.160000
7.170650 -1.209926 0.894971 0.370000
11.256870 -3.617992 1.141688 0.330000
9.354454 4.455594 0.186724 0.060000
10.188789 3.456451 0.170188 0.050000
10.545392 2.333100 0.161943 0.010000
10.806163 1.252940 0.148608 0.010000
10.902514 0.139589 0.144721 0.020000
10.578068 -0.936833 0.144872 0.060000
10.087350 -1.946373 0.129839 0.050000
9.571516 -2.951430 0.124756 0.070000
4.737986 1.626901 0.104158 0.020000
4.915810 1.220235 0.103110 0.010000
5.063352 0.827991 0.102037 0.030000
5.175531 0.455092 0.095944 0.010000
5.193098 0.060359 0.094522 0.020000
5.160482 -0.325334 0.093004 0.020000
5.123099 -0.721065 0.076435 0.040000
4.970710 -1.119035 0.069558 0.110000
28.996973 16.435041 2.697554 0.040000
30.339582 7.724857 2.493678 0.050000
11.023254 1.263341 1.174224 0.520000
31.521568 0.336463 2.394297 0.160000
12.991727 -1.259717 1.254984 0.120000
7.196084 -1.234498 0.909946 0.400000
11.318039 -3.681923 1.166610 0.190000
10.487104 3.547180 0.171304 0.050000
10.869360 2.389296 0.167997 0.020000
10.951288 1.245663 0.163960 0.030000
11.163027 0.114555 0.150308 0.020000
10.819160 -0.992244 0.150296 0.060000
10.319018 -2.031970 0.135125 0.040000
9.768670 -3.062692 0.129857 0.070000
4.772883 1.632570 0.104270 0.030000
4.975607 1.231382 0.103308 0.010000
5.093347 0.828566 0.102118 0.040000
5.225617 0.451051 0.096060 0.010000
5.228283 0.051031 0.094580 0.020000
5.220772 -0.339164 0.088110 0.030000
5.163570 -0.745294 0.076450 0.050000
4.986078 -1.138763 0.074524 0.120000
29.019289 16.305206 2.762130 0.080000
30.361408 7.619999 2.563346 0.210000
11.033872 1.228465 1.194122 0.560000
31.518219 0.241144 2.458935 0.090000
12.962255 -1.290360 1.274793 0.090000
7.191443 -1.254627 0.919859 0.390000
11.303660 -3.717278 1.186441 0.460000
9.983779 4.757699 0.189490 0.060000
10.820113 3.653558 0.177569 0.050000
11.228143 2.456179 0.169182 0.020000
11.016716 1.221857 0.179042 0.050000
11.503621 0.086055 0.156091 0.020000
11.100435 -1.056887 0.155790 0.050000
10.545771 -2.122680 0.145380 0.040000
10.001104 -3.188281 0.134997 0.060000
4.832502 1.653734 0.099504 0.030000
5.000685 1.226843 0.108357 0.020000
5.138325 0.829409 0.107238 0.040000
5.280703 0.447105 0.096189 0.010000
5.283464 0.042086 0.094690 0.030000
5.271146 -0.358202 0.088170 0.040000
5.204042 -0.769523 0.076466 0.050000
5.036739 -1.172799 0.074530 0.140000
29.051758 16.165510 2.841697 0.100000
30.368345 7.509875 2.627955 0.270000
11.089262 1.204412 1.224178 0.220000
7.504807 -0.648629 0.952930 0.030000
7.201881 -1.279487 0.934794 0.420000
11.228718 -3.723788 1.206222 0.180000
10.390048 4.955497 0.196286 0.060000
11.207823 3.775987 0.184036 0.060000
11.612004 2.518524 0.175416 0.010000
10.987327 1.186196 0.203833 0.060000
11.929308 0.054202 0.157084 0.020000
11.461984 -1.134995 0.161443 0.050000
10.883103 -2.241240 0.145820 0.040000
10.294212 -3.347696 0.135169 0.070000
4.872386 1.659481 0.104630 0.030000
5.055496 1.237913 0.103541 0.020000
5.203326 0.830672 0.102413 0.060000
5.295879 0.437375 0.101192 0.010000
5.323744 0.027855 0.094743 0.020000
5.286417 -0.372931 0.093155 0.050000
5.259511 -0.793465 0.076522 0.050000
5.072212 -1.197124 0.074532 0.130000
29.083939 16.040812 2.921318 0.080000
30.395226 7.400058 2.712618 0.290000
11.159662 1.180664 1.249273 0.370000
7.495153 -0.668872 0.967830 0.080000
7.212319 -1.304346 0.949729 0.520000
11.179224 -3.754852 1.235977 0.300000
10.806316 5.153486 0.203109 0.060000
12.060566 2.597110 0.181879 0.010000
9.116989 0.909924 0.307925 0.030000
12.320071 0.016642 0.167964 0.020000
11.903817 -1.226549 0.162256 0.050000
11.270797 -2.378858 0.151320 0.040000
10.652869 -3.535878 0.140406 0.070000
4.917185 1.670341 0.104787 0.030000
5.110377 1.243947 0.108707 0.020000
5.293131 0.842413 0.097691 0.210000
5.375877 0.438926 0.096407 0.010000
5.383924 0.019006 0.094867 0.040000
5.361882 -0.396490 0.093265 0.040000
5.310076 -0.822502 0.076546 0.040000
5.097673 -1.221659 0.079508 0.150000
29.081963 15.870414 3.010680 0.030000
16.643286 5.929654 1.791246 0.000000
30.417204 7.285147 2.797249 0.280000
11.170266 1.145769 1.274172 0.310000
16.582870 -0.032062 1.633925 0.010000
7.029321 -0.627731 0.951767 0.170000
7.212663 -1.324398 0.964656 0.540000
11.195114 -3.804648 1.260834 0.240000
11.366119 5.429237 0.210595 0.060000
12.157336 4.069169 0.202604 0.060000
12.653621 2.703468 0.188823 0.010000
9.102514 0.879568 0.327775 0.060000
12.840919 -0.023408 0.174175 0.020000
12.426006 -1.336586 0.168210 0.050000
10.699137 -3.605096 0.165270 0.140000
4.976887 1.686487 0.105003 0.040000
5.160272 1.249904 0.108859 0.020000
5.313305 0.832779 0.102708 0.100000
5.426046 0.429867 0.101504 0.030000
5.449200 0.005254 0.094986 0.040000
5.427266 -0.415222 0.088366 0.040000
5.375639 -0.851251 0.076610 0.040000
5.153442 -1.260579 0.074508 0.130000
29.065001 15.699747 3.095002 0.030000
16.669422 5.864996 1.831075 0.010000
30.424402 7.159988 2.871804 0.220000
11.155957 1.105378 1.303984 0.270000
16.658972 -0.095799 1.683888 0.010000
7.014572 -0.643071 0.966671 0.330000
7.233182 -1.354084 0.984599 0.520000
12.828352 4.282020 0.215147 0.050000
13.296558 2.815765 0.200919 0.010000
9.113023 0.849673 0.352691 0.070000
13.677104 -0.077403 0.176157 0.020000
7.602688 -0.719713 0.392916 0.080000
12.237680 -2.730439 0.162537 0.040000
10.664639 -3.635872 0.195066 0.230000
5.046491 1.707824 0.105264 0.040000
5.230067 1.261242 0.109083 0.020000
5.388291 0.834215 0.102909 0.090000
5.521137 0.426706 0.096741 0.020000
5.499478 -0.008786 0.095065 0.040000
5.487734 -0.439068 0.088435 0.050000
5.421205 -0.880384 0.076621 0.040000
5.189093 -1.294921 0.079474 0.140000
29.137384 15.560705 3.204676 0.020000
16.794804 5.837154 1.896299 0.010000
30.436712 7.024815 2.976334 0.040000
11.166643 1.065466 1.333864 0.210000
16.770054 -0.158884 1.738944 0.010000
7.025010 -0.667931 0.981606 0.130000
7.223527 -1.374327 0.999499 0.560000
11.368405 -3.986673 1.345610 0.370000
12.743545 6.095662 0.236668 0.060000
9.093535 0.819202 0.377528 0.020000
7.593117 -0.744974 0.412797 0.180000
12.912333 -2.967579 0.168417 0.030000
10.655425 -3.681167 0.224874 0.260000
5.106275 1.718952 0.110462 0.040000
5.304862 1.272677 0.109321 0.030000
5.463181 0.840651 0.103128 0.110000
5.571307 0.417647 0.101838 0.020000
5.594843 -0.026963 0.095247 0.040000
5.538191 -0.463125 0.093477 0.040000
5.476852 -0.914342 0.081640 0.050000
5.249944 -1.338763 0.079470 0.140000
29.145544 15.380426 3.314028 0.010000
29.852415 10.873700 3.154119 0.020000
30.419125 6.884068 3.080766 0.030000
11.157333 1.025171 1.363690 0.190000
12.659993 -0.156608 1.458221 0.020000
7.005358 -0.688366 0.996479 0.120000
7.254128 -1.408839 1.024450 0.440000
11.339086 -4.027369 1.380383 0.480000
13.704618 6.569115 0.250937 0.050000
14.910575 4.966982 0.233129 0.050000
15.235023 3.172898 0.222306 0.010000
9.134050 0.789900 0.397525 0.030000
15.700053 -0.213721 0.190931 0.020000
7.538362 -0.761099 0.432594 0.170000
10.621012 -3.716960 0.259651 0.280000
5.185781 1.745480 0.110768 0.050000
5.379656 1.284111 0.109559 0.030000
5.543154 0.842164 0.108343 0.090000
5.661481 0.409372 0.102043 0.030000
5.645205 -0.046020 0.100307 0.050000
5.628749 -0.491395 0.093609 0.050000
5.522406 -0.943494 0.086650 0.060000
5.320985 -1.392412 0.079456 0.130000
47.889923 25.748964 5.386521 0.050000
44.669453 16.443100 4.673514 0.020000
30.486248 6.759965 3.180481 0.020000
11.207903 0.991005 1.398696 0.200000
12.625771 -0.202400 1.492962 0.050000
7.040874 -0.717764 1.016463 0.100000
11.026188 0.961278 0.373100 0.060000
14.689475 -3.588763 0.200747 0.030000
10.621865 -3.767100 0.299467 0.220000
5.255467 1.761799 0.116010 0.050000
5.464436 1.295719 0.114823 0.040000
5.623221 0.838679 0.113539 0.100000
5.736646 0.400792 0.107207 0.030000
5.750568 -0.064005 0.100515 0.050000
5.699297 -0.520068 0.098686 0.040000
5.593146 -0.982164 0.091691 0.050000
5.381823 -1.436273 0.084452 0.140000
48.098019 25.557074 5.616353 0.060000
44.837372 16.265589 4.863295 0.020000
57.307320 12.860323 5.833196 0.080000
11.223671 0.946170 1.433571 0.150000
12.626624 -0.252539 1.532778 1.000000
7.016210 -0.738314 1.036322 0.120000
7.265171 -1.468785 1.064257 0.060000
16.845161 8.134501 0.274954 0.050000
18.622349 6.213271 0.252451 0.020000
13.156041 2.557423 0.364593 0.000000
11.096863 0.922514 0.403141 0.080000
13.275459 -0.280773 0.349354 0.010000
10.607747 -3.817489 0.329243 0.230000
5.374691 1.804108 0.111479 0.070000
5.559226 1.307536 0.115115 0.030000
5.713122 0.845420 0.108798 0.110000
5.851829 0.393015 0.102479 0.030000
5.835935 -0.082373 0.100670 0.050000
5.794868 -0.548224 0.093831 0.050000
5.658900 -1.020911 0.091719 0.050000
5.452768 -1.484923 0.084456 0.130000
47.039940 24.656448 5.665244 0.030000
43.938282 15.678009 4.928764 0.070000
57.351925 12.590342 6.047311 0.050000
12.602483 -0.303157 1.572527 0.290000
7.081803 -0.772155 1.061368 0.370000
7.260695 -1.498949 1.084133 0.120000
13.065506 5.971146 0.417047 0.070000
13.121786 4.076852 0.420153 0.040000
13.166975 2.502458 0.409418 0.000000
11.127628 0.877967 0.438056 0.110000
13.318941 -1.770295 0.368931 0.090000
17.996758 -4.720623 0.205172 0.020000
10.623694 -3.872340 0.369082 0.190000
5.474085 1.835999 0.116857 0.070000
5.668822 1.329639 0.115483 0.040000
5.827991 0.852603 0.114125 0.100000
5.946990 0.384818 0.107697 0.030000
5.936287 -0.100473 0.105865 0.060000
5.890507 -0.581416 0.098957 0.050000
5.749746 -1.064179 0.091795 0.060000
5.533903 -1.543379 0.084450 0.140000
50.538849 26.226500 6.290219 0.030000
43.957588 15.427656 5.112885 0.110000
41.749805 8.825728 4.667577 0.090000
12.713481 -0.361225 1.622601 0.480000
7.037155 -0.793069 1.076174 0.510000
7.271202 -1.528845 1.109050 0.080000
13.066908 5.890975 0.466753 0.040000
13.137898 4.011966 0.469954 0.020000
15.438954 2.941011 0.426979 0.000000
11.173186 0.843687 0.478048 0.100000
12.726655 -0.361646 0.442622 0.010000
11.573884 -1.533967 0.445255 0.080000
13.435419 -3.413391 0.373127 0.040000
10.624752 -3.932458 0.403861 0.200000
5.573491 1.867908 0.117235 0.080000
5.783418 1.351838 0.115864 0.040000
5.947982 0.854920 0.109447 0.130000
6.062160 0.377022 0.107968 0.030000
6.036843 -0.128552 0.106023 0.060000
5.991255 -0.619494 0.099079 0.040000
5.840674 -1.112465 0.096853 0.070000
5.610121 -1.606949 0.089413 0.140000
49.030643 25.067207 6.336974 0.020000
44.304234 15.313450 5.338368 0.090000
57.316956 12.002899 6.500041 0.050000
12.714322 -0.411383 1.667418 0.410000
7.057565 -0.817774 1.101135 0.590000
17.350464 8.093383 0.491122 0.020000
14.917043 4.591032 0.506751 0.130000
15.300644 2.843124 0.486255 0.000000
11.223948 0.799523 0.513017 0.110000
12.662508 -0.413049 0.487264 0.020000
11.589831 -1.588818 0.485093 0.270000
13.411444 -3.474045 0.422840 0.020000
5.677992 1.894914 0.117608 0.080000
5.913010 1.374323 0.116286 0.040000
6.097763 0.867791 0.109886 0.110000
6.172331 0.369130 0.108227 0.030000
6.167297 -0.151058 0.106280 0.050000
6.107000 -0.657284 0.099240 0.040000
5.951803 -1.170347 0.096928 0.060000
5.721538 -1.679828 0.089433 0.140000
43.755119 21.977295 5.856712 0.040000
44.273640 15.062269 5.487356 0.090000
42.762722 8.623533 5.094473 0.100000
12.700274 -0.466808 1.707175 0.490000
7.053102 -0.847920 1.116012 0.540000
53.555878 -24.765535 6.328541 0.060000
13.084588 5.735883 0.576224 0.080000
14.958245 4.521625 0.556601 0.050000
11.259712 0.755072 0.547945 0.080000
12.703546 -0.472420 0.527151 0.020000
11.515411 -1.625397 0.524763 0.300000
11.212234 -4.326515 0.468931 0.340000
5.832006 1.947873 0.118207 0.080000
6.062503 1.402191 0.116780 0.050000
6.227643 0.875279 0.110252 0.110000
6.347503 0.362502 0.103659 0.030000
6.287754 -0.173755 0.106510 0.050000
6.252931 -0.704497 0.099446 0.050000
6.078025 -1.232940 0.097025 0.050000
5.812862 -1.748091 0.089418 0.110000
42.636776 21.090538 5.900497 0.030000
44.422199 14.849325 5.691955 0.060000
42.776573 8.398117 5.268673 0.090000
12.671134 -0.517522 1.746911 0.370000
17.770487 8.075892 0.637155 0.100000
14.994328 4.457085 0.616456 0.150000
13.300479 2.294281 0.598994 0.000000
13.330050 -0.550582 0.568496 0.080000
11.531275 -1.675230 0.559620 0.290000
13.408508 -3.594452 0.512385 0.020000
11.198174 -4.381959 0.513688 0.110000
5.976116 1.995642 0.118761 0.100000
6.246715 1.445745 0.112423 0.050000
6.422331 0.894029 0.105830 0.120000
6.512759 0.350665 0.104046 0.030000
6.478402 -0.205091 0.101891 0.050000
6.418967 -0.756308 0.094687 0.030000
6.209260 -1.295420 0.092135 0.060000
5.979952 -1.854892 0.084457 0.120000
42.924038 20.945225 6.115709 0.030000
44.486111 14.619830 5.876270 0.030000
42.864658 8.214149 5.438221 0.040000
50.069427 3.503861 6.104525 0.020000
12.726951 -0.566645 1.796875 0.470000
7.068940 -0.897790 1.160868 0.120000
47.562019 -22.504177 6.116300 0.070000
13.082285 5.580426 0.680641 0.050000
13.137359 3.751176 0.668985 0.080000
8.942358 1.365469 0.634166 0.010000
7.456754 -0.963340 0.606631 0.140000
15.382600 -4.316919 0.554853 0.020000
6.179749 2.069573 0.114567 0.110000
6.411205 1.473901 0.112957 0.050000
6.562305 0.896711 0.106206 0.130000
6.687918 0.344019 0.104479 0.030000
6.639043 -0.237020 0.102191 0.060000
6.569993 -0.808425 0.094887 0.040000
6.335564 -1.363031 0.097213 0.050000
6.106653 -1.942481 0.084462 0.120000
41.309910 19.844210 6.082402 0.050000
44.346359 14.321496 6.039798 0.100000
40.402809 7.522336 5.304222 0.030000
50.338066 3.283087 6.344408 0.030000
7.084446 -0.927590 1.185798 0.130000
44.326660 -21.185228 5.927755 0.060000
15.136014 4.354359 0.731445 0.210000
8.923062 1.325000 0.658966 0.020000
14.788937 -0.753026 0.666553 0.020000
7.447182 -0.988601 0.626512 0.180000
13.385743 -3.725278 0.611840 0.010000
6.328859 2.117437 0.115134 0.110000
6.585598 1.507246 0.113536 0.060000
6.742080 0.910156 0.106725 0.130000
6.828275 0.326704 0.104781 0.040000
6.814694 -0.268643 0.097532 0.050000
6.675727 -0.846425 0.100022 0.060000
6.471880 -1.430432 0.097319 0.060000
6.248543 -2.039781 0.084471 0.130000
41.393353 19.640112 6.261863 0.050000
46.322189 14.757818 6.481582 0.060000
40.983879 7.437551 5.550426 0.060000
51.435627 3.112848 6.681643 0.020000
7.084969 -0.957659 1.205688 0.220000
44.230946 -21.437840 6.126569 0.110000
13.089897 5.430179 0.780104 0.030000
13.109813 3.610294 0.758390 0.080000
8.863762 1.283747 0.688658 0.020000
14.840029 -0.817260 0.721448 0.110000
7.407521 -1.009437 0.646332 0.160000
11.927083 -3.293302 0.654639 0.020000
6.502855 2.170761 0.120787 0.120000
6.794805 1.551279 0.109246 0.050000
6.921951 0.918602 0.107226 0.150000
7.028525 0.315537 0.105262 0.040000
6.950326 -0.301070 0.102766 0.060000
6.846941 -0.908157 0.100239 0.050000
6.633479 -1.512352 0.097436 0.060000
6.380339 -2.132273 0.084471 0.120000
43.923416 20.626705 6.827141 0.040000
44.761402 14.002831 6.464701 0.100000
8.926731 1.276982 1.498805 0.010000
57.242222 3.215680 7.622192 0.070000
12.028785 -0.675200 1.839649 0.040000
7.105379 -0.982364 1.230650 0.120000
43.923027 -21.574421 6.305259 0.060000
13.090999 5.364987 0.834865 0.010000
8.864271 1.253660 0.713548 0.030000
13.226588 0.646970 0.757680 0.000000
7.423028 -1.039237 0.671262 0.110000
11.857471 -3.319787 0.694359 0.060000
13.535713 -5.823125 0.699434 0.030000
6.686671 2.234292 0.121503 0.130000
6.959282 1.579416 0.114780 0.050000
7.121722 0.932431 0.107799 0.130000
7.198781 0.303795 0.105663 0.030000
7.141057 -0.337423 0.103129 0.060000
6.987859 -0.955485 0.105431 0.050000
6.810088 -1.593966 0.092594 0.060000
6.522229 -2.229573 0.084479 0.130000
41.238239 19.075813 6.594364 0.080000
44.978699 13.856215 6.669725 0.060000
8.912339 1.241609 1.523637 0.060000
11.999453 -0.715916 1.879422 0.050000
7.110805 -1.007338 1.250571 0.100000
44.503647 -22.164486 6.599584 0.060000
8.864863 1.218555 0.743419 0.020000
13.247425 0.597195 0.802549 0.000000
12.102605 -0.724890 0.774646 0.080000
11.631738 -3.289251 0.733884 0.080000
11.167997 -4.663357 0.722566 0.020000
6.885388 2.303110 0.122277 0.130000
7.158574 1.618239 0.115444 0.050000
7.306578 0.940954 0.113313 0.120000
7.423931 0.298106 0.106230 0.040000
7.331788 -0.373777 0.103491 0.050000
7.194162 -1.021546 0.105724 0.040000
6.971674 -1.675904 0.097711 0.050000
6.644014 -2.322275 0.089453 0.120000
44.209026 20.280647 7.226604 0.070000
45.205982 13.709771 6.879776 0.060000
8.843067 1.200201 1.543302 1.000000
11.965134 -0.756709 1.914181 0.060000
7.131311 -1.037042 1.275515 0.180000
45.286053 -22.850834 6.929079 0.140000
14.961459 6.120392 0.992557 0.040000
15.926088 4.323586 0.978396 0.050000
8.885274 1.193850 0.768381 0.020000
13.283067 0.557706 0.847496 0.020000
12.058180 -0.760894 0.814397 0.090000
11.602406 -3.329967 0.773657 0.270000
11.194229 -4.733014 0.762375 0.020000
7.064384 2.356529 0.127943 0.130000
7.387764 1.662637 0.116208 0.040000
7.536248 0.960356 0.113985 0.110000
7.619264 0.281826 0.111679 0.030000
7.552514 -0.409556 0.103935 0.060000
7.370279 -1.078183 0.105973 0.050000
7.143271 -1.757632 0.097855 0.050000
6.841468 -2.448516 0.089499 0.090000
41.795559 18.899878 7.025169 0.050000
45.383194 13.567389 7.084712 0.050000
8.823593 1.169749 1.563138 1.000000
7.121644 -1.057304 1.295414 0.390000
45.179207 -23.043629 7.123085 0.070000
14.952659 6.050010 1.047273 0.030000
16.155890 4.327768 1.039012 0.050000
8.905671 1.169126 0.798342 0.010000
13.313807 0.513122 0.892411 0.070000
12.053843 -0.801131 0.854236 0.090000
11.557788 -3.355973 0.813444 0.240000
11.184977 -4.778364 0.807183 0.020000
7.322515 2.456491 0.128988 0.130000
7.621858 1.712129 0.117003 0.050000
7.721104 0.968880 0.119499 0.100000
7.849509 0.271234 0.112241 0.030000
7.758324 -0.450640 0.109319 0.050000
7.586567 -1.144070 0.111293 0.030000
7.355244 -1.858590 0.098033 0.040000
6.983441 -2.550833 0.094489 0.100000
42.001984 18.798044 7.235332 0.040000
45.395981 13.396943 7.264113 0.120000
8.833992 1.144834 1.593073 0.160000
40.889400 -3.368239 6.075016 0.080000
7.142054 -1.082009 1.320376 0.480000
11.394599 -3.353351 1.973040 0.000000
45.041981 -23.217003 7.317084 0.100000
15.270979 6.130864 1.118405 0.110000
13.129178 3.349757 0.992475 0.040000
8.955966 1.149976 0.828403 0.010000
13.309456 0.472866 0.937251 0.200000
11.934157 -0.823555 0.888841 0.080000
13.375048 -2.426353 0.916644 0.040000
11.206017 -4.838118 0.847016 0.010000
7.546131 2.530786 0.129848 0.120000
7.831122 1.751107 0.127694 0.050000
7.955773 0.988377 0.120184 0.100000
8.044746 0.259953 0.117708 0.030000
7.949042 -0.487012 0.114682 0.040000
7.547015 -1.949952 0.103194 0.040000
7.191085 -2.686880 0.094525 0.090000
41.167576 18.231817 7.271049 0.070000
45.070766 13.125172 7.397256 0.090000
8.864182 1.130282 1.628098 0.110000
43.353313 1.587680 6.684877 0.000000
40.330734 -3.454247 6.153239 0.060000
7.127292 -1.097368 1.340281 0.520000
11.420530 -3.408029 2.017905 0.010000
45.041019 -23.457851 7.531188 0.080000
16.620066 4.356167 1.175330 0.060000
8.956380 1.124888 0.853311 0.020000
11.879651 -0.854733 0.923583 0.090000
13.571544 -6.163452 0.958266 0.020000
7.848966 2.646606 0.131069 0.120000
8.060312 1.795504 0.128457 0.040000
8.205425 1.008144 0.125909 0.100000
8.364987 0.251103 0.113511 0.030000
8.194859 -0.527312 0.115174 0.040000
7.979068 -1.271594 0.116844 0.030000
7.738787 -2.041314 0.108355 0.040000
7.368352 -2.803506 0.094555 0.070000
42.478371 18.670586 7.661106 0.040000
45.287121 13.028564 7.597464 0.070000
11.181925 1.478357 2.010446 0.190000
40.228172 1.348941 6.360828 0.020000
7.014595 -0.434372 1.332451 0.010000
7.142620 -1.117151 1.360247 0.380000
11.375844 -3.428998 2.047710 0.010000
47.858757 -25.231602 8.186956 0.050000
14.955677 5.869431 1.211611 0.070000
16.844664 4.370233 1.240969 0.050000
8.981598 1.110277 0.878323 0.020000
11.870136 -0.885049 0.958446 0.110000
13.381345 -2.506577 1.006363 0.020000
13.557279 -6.208917 1.008060 0.020000
8.102277 2.736455 0.137065 0.130000
8.354095 1.861123 0.134468 0.040000
8.514984 1.034077 0.126814 0.080000
8.615214 0.240875 0.119126 0.030000
8.470765 -0.572035 0.115728 0.030000
8.215544 -1.347097 0.122180 0.030000
7.910467 -2.128059 0.113481 0.040000
7.565889 -2.934764 0.099582 0.070000
41.242233 17.941948 7.610170 0.050000
11.147428 1.447580 2.040242 0.150000
40.205109 1.227965 6.500320 0.020000
7.029922 -0.454156 1.352417 0.040000
11.371424 -3.464217 2.082568 0.030000
47.746159 -25.384483 8.376097 0.050000
13.067795 4.963243 1.168314 0.030000
13.141027 3.234468 1.127079 0.030000
8.982012 1.085189 0.903231 0.020000
11.885617 -0.914886 0.993376 0.090000
7.154163 -1.119896 0.805261 0.000000
13.578403 -6.273688 1.052875 0.020000
8.365503 2.831513 0.138105 0.110000
8.642891 1.926666 0.135466 0.040000
8.804464 1.064645 0.122683 0.100000
8.940454 0.232120 0.114943 0.030000
8.756670 -0.616568 0.116308 0.040000
