# This PCD file was generated using the MATLAB® pcwrite function
# from Computer Vision Toolbox®.
# .PCD v.7 - Point Cloud Data file format
VERSION .7
FIELDS x y z intensity
SIZE 4 4 4 4
TYPE F F F F
COUNT 1 1 1 1
WIDTH 1287
HEIGHT 1
VIEWPOINT 0 0 0 1 0 0 0
POINTS 1287
DATA ascii
7.814348 -0.602179 0.813909 0.030000
11.180569 -3.518592 0.911856 0.270000
13.653693 -6.542110 1.002073 0.020000
7.990639 2.559268 0.141115 0.100000
8.231896 1.713757 0.133601 0.040000
8.352410 0.905941 0.125913 0.070000
8.422168 0.137159 0.118237 0.030000
7.966465 -0.616793 0.139245 0.040000
7.966261 -1.386878 0.121382 0.030000
7.680797 -2.147461 0.112809 0.030000
7.305459 -2.914748 0.098977 0.070000
44.079304 18.345383 7.884078 0.060000
11.060558 1.291091 1.984433 0.530000
40.496525 0.653939 6.363945 0.070000
7.462229 -0.576045 1.393093 0.920000
40.963585 -9.639283 6.421902 0.020000
11.339518 -3.619691 2.036906 0.050000
42.544361 -23.359734 7.275034 0.010000
14.802900 5.496586 1.169826 0.100000
13.129867 3.044496 1.051343 0.030000
11.043686 1.274615 0.934317 0.390000
7.804402 -0.602296 0.793883 0.040000
13.420767 -2.730696 0.960633 0.010000
11.180756 -3.523461 0.876838 0.240000
13.654016 -6.551923 0.952037 0.040000
7.742793 2.444501 0.140041 0.100000
7.983284 1.638983 0.132674 0.040000
8.068231 0.860490 0.125002 0.080000
8.147315 0.126893 0.117481 0.030000
7.971612 -0.621622 0.119240 0.030000
7.780542 -1.350410 0.116032 0.030000
7.474316 -2.071384 0.107553 0.030000
7.098293 -2.803696 0.098849 0.080000
44.779766 18.599117 7.811849 0.070000
11.055855 1.281146 1.944383 0.550000
40.502476 0.624580 6.218851 0.070000
40.969482 -9.663588 6.261826 0.030000
11.304546 -3.615195 1.991831 0.060000
14.778528 5.471316 1.114668 0.050000
13.110275 3.029283 1.006234 0.020000
11.053871 1.269937 0.899325 0.610000
31.391214 0.482366 1.474490 0.000000
7.789553 -0.607508 0.773824 0.080000
13.431062 -2.740354 0.920623 0.010000
11.155865 -3.523791 0.836771 0.200000
13.649352 -6.561812 0.896987 0.040000
7.479950 2.329447 0.138927 0.110000
7.739589 1.569321 0.126779 0.040000
7.838848 0.826091 0.124275 0.080000
7.892458 0.117011 0.116779 0.030000
7.771279 -0.605438 0.113777 0.030000
7.599727 -1.308847 0.110715 0.030000
7.277915 -2.000133 0.107305 0.030000
6.896127 -2.692549 0.098734 0.070000
44.672047 18.507790 7.606226 0.090000
11.061028 1.276354 1.914378 0.600000
40.503345 0.600142 6.068760 0.070000
7.487507 -0.585434 1.358124 0.240000
38.845539 -9.152488 5.798176 0.030000
11.314745 -3.619854 1.951840 0.050000
13.067742 4.728824 0.997441 0.070000
13.130402 3.029852 0.956289 0.020000
11.019078 1.264417 0.859214 0.640000
7.799616 -0.607224 0.748851 0.050000
16.561344 -3.510595 0.940931 0.020000
11.145971 -3.523834 0.796745 0.130000
15.682200 -7.733032 0.882940 0.040000
7.311445 2.251242 0.128197 0.100000
7.540693 1.510520 0.121041 0.030000
7.624476 0.791998 0.118589 0.080000
7.702507 0.113391 0.111270 0.040000
7.570851 -0.584254 0.108333 0.040000
7.348528 -1.248648 0.110283 0.030000
7.106618 -1.933383 0.102106 0.030000
6.698973 -2.581286 0.093633 0.080000
44.445110 18.379301 7.365154 0.060000
11.031343 1.265949 1.869262 0.710000
40.524036 0.586104 5.913761 0.070000
7.492558 -0.585264 1.338138 0.250000
38.846107 -9.161946 5.653141 0.030000
11.314944 -3.624704 1.911822 0.050000
13.087869 4.729393 0.947495 0.090000
18.299025 4.443796 1.055037 0.050000
11.019265 1.259548 0.824196 0.690000
16.669533 0.242250 0.925164 0.000000
7.784684 -0.607418 0.723811 0.040000
16.596781 -3.524699 0.880971 0.030000
11.141076 -3.523781 0.756732 0.120000
15.687548 -7.742711 0.822917 0.200000
7.093211 2.157046 0.127277 0.110000
7.301888 1.445935 0.120178 0.040000
7.435004 0.763382 0.112988 0.090000
7.467551 0.108890 0.110640 0.040000
7.340306 -0.558683 0.112826 0.040000
7.127515 -1.197871 0.109895 0.030000
6.920229 -1.861922 0.096885 0.030000
6.532184 -2.489465 0.093539 0.080000
57.014339 15.250381 8.501344 0.160000
11.051334 1.271461 1.834334 0.700000
40.519466 0.586622 5.748749 0.070000
7.502717 -0.589978 1.313146 0.240000
38.735928 -9.128391 5.472977 0.030000
11.299873 -3.614826 1.866819 0.080000
13.068194 4.719198 0.897405 0.060000
18.294209 4.443961 0.985025 0.050000
11.029354 1.259869 0.789223 0.700000
16.609701 0.241324 0.865004 0.000000
7.809828 -0.611864 0.703860 0.040000
16.601936 -3.524380 0.820985 0.030000
11.141168 -3.523651 0.721732 0.110000
15.748377 -7.776314 0.757950 1.240000
6.899793 2.073345 0.121461 0.110000
7.117785 1.397401 0.119517 0.040000
7.215524 0.734174 0.112307 0.090000
7.272587 0.105156 0.110117 0.040000
7.129879 -0.537691 0.107355 0.040000
6.916501 -1.146904 0.109533 0.040000
6.748919 -1.795191 0.096686 0.040000
6.360204 -2.387740 0.093469 0.080000
44.763954 18.491711 7.016400 0.070000
57.054970 15.252058 8.256454 0.070000
11.026540 1.266132 1.794249 0.780000
40.544853 0.587658 5.598817 0.060000
7.502770 -0.589904 1.293146 0.370000
38.731224 -9.122930 5.322983 0.040000
11.340244 -3.628927 1.831872 0.060000
14.670216 5.415093 0.879174 0.090000
18.264587 4.433648 0.914908 0.050000
11.019461 1.259827 0.749197 0.840000
16.769829 0.244611 0.805433 0.000000
7.789896 -0.612154 0.678807 0.040000
16.632267 -3.533600 0.766029 0.030000
11.136177 -3.518599 0.681737 0.110000
15.708170 -7.756842 0.692917 3.889000
6.731166 2.000103 0.120748 0.120000
6.908878 1.338390 0.118752 0.040000
7.030942 0.710635 0.111737 0.100000
7.062626 0.101134 0.109554 0.040000
6.949434 -0.516143 0.106964 0.040000
6.800961 -1.119093 0.104335 0.040000
6.557422 -1.718845 0.096470 0.040000
6.233899 -2.320129 0.088390 0.070000
46.693256 19.318531 7.099511 0.060000
57.095470 15.258677 8.026581 0.070000
11.046627 1.266645 1.759303 0.800000
40.505291 0.587505 5.433712 0.070000
7.557895 -0.593794 1.278276 0.970000
38.801903 -9.136010 5.168118 0.050000
11.330159 -3.618972 1.791882 0.060000
14.655554 5.405013 0.824098 0.240000
13.140882 3.030731 0.771317 0.020000
11.024551 1.260052 0.714210 0.720000
13.335487 0.189121 0.716262 0.000000
7.830037 -0.616313 0.658896 0.040000
16.632437 -3.533358 0.701030 0.020000
11.191763 -3.542374 0.636794 0.190000
15.642599 -7.717834 0.622890 3.369000
6.547638 1.921574 0.119977 0.110000
6.759686 1.295543 0.113204 0.040000
6.836457 0.681905 0.111123 0.090000
6.892658 0.097878 0.109098 0.040000
6.789081 -0.499211 0.106608 0.040000
6.605026 -1.072856 0.108996 0.030000
6.401206 -1.656826 0.096293 0.040000
6.077203 -2.233114 0.088305 0.070000
44.636238 18.430813 6.590836 0.050000
57.125896 15.270143 7.786701 0.070000
11.021736 1.266315 1.719237 0.860000
40.355598 0.595300 5.253348 0.030000
7.532868 -0.589181 1.253227 0.960000
38.897346 -9.138670 5.028355 0.030000
11.350356 -3.623439 1.751918 0.060000
14.665504 5.415407 0.769162 0.180000
13.131002 3.030707 0.726291 0.030000
11.014548 1.264990 0.679202 0.730000
13.325511 0.194096 0.671253 0.000000
16.687677 -3.537081 0.641159 0.020000
11.221945 -3.546668 0.601856 0.340000
6.393734 1.863635 0.114360 0.110000
6.580485 1.252103 0.112574 0.040000
6.676775 0.663843 0.110639 0.090000
6.737605 0.099927 0.103701 0.030000
6.633631 -0.477184 0.106285 0.040000
6.449193 -1.030833 0.108745 0.030000
6.234882 -1.590018 0.101107 0.040000
5.945599 -2.150620 0.088268 0.080000
46.911980 19.439098 6.730526 0.040000
57.120899 15.300858 7.566800 0.070000
11.036633 1.276730 1.684314 0.870000
36.142166 0.561910 4.612219 0.040000
7.557916 -0.588628 1.233295 0.830000
39.590370 -9.280166 4.959638 0.030000
11.345269 -3.613388 1.711942 0.060000
84.393227 -47.431061 10.989828 0.060000
13.101043 3.035317 0.676229 0.020000
11.029541 1.270406 0.644261 0.680000
13.310440 0.203974 0.626250 0.000000
13.021967 -1.181759 0.610346 0.050000
16.758013 -3.545515 0.581311 0.020000
11.146297 -3.507963 0.561802 0.180000
6.244912 1.800774 0.113738 0.100000
6.426185 1.214141 0.112030 0.030000
6.512093 0.645686 0.110141 0.090000
6.567527 0.101652 0.108264 0.030000
6.493287 -0.459851 0.100983 0.030000
6.308465 -0.993503 0.103516 0.030000
6.093663 -1.527711 0.100970 0.050000
5.808982 -2.068241 0.093217 0.080000
46.038860 19.118547 6.392052 0.050000
57.155205 15.372445 7.317153 0.060000
11.036629 1.281859 1.649333 0.880000
36.166954 0.592903 4.472398 0.030000
7.577869 -0.583171 1.213367 0.480000
39.539673 -9.220502 4.789725 0.020000
11.360192 -3.602936 1.667019 0.060000
18.010736 4.409791 0.639154 0.050000
11.034345 1.285629 0.609330 0.630000
13.325267 0.219426 0.581346 0.000000
13.061969 -1.175845 0.570472 0.040000
17.019079 -3.590303 0.521825 0.050000
11.131117 -3.493105 0.521817 0.190000
6.081092 1.737625 0.113076 0.120000
6.246985 1.170702 0.111401 0.040000
6.347411 0.627529 0.109644 0.080000
6.392464 0.103299 0.107813 0.030000
6.302734 -0.433514 0.105583 0.030000
6.177723 -0.956000 0.103315 0.030000
5.957634 -1.475307 0.100810 0.040000
5.677378 -1.985746 0.093181 0.090000
47.595398 19.838558 6.378791 0.030000
50.068645 13.445199 6.251480 0.080000
11.036529 1.291987 1.614370 0.740000
36.101662 0.627172 4.332353 0.050000
7.572839 -0.578175 1.188372 0.370000
11.289557 -3.564116 1.621978 0.100000
13.077839 4.780511 0.592655 0.030000
17.960846 4.414111 0.564039 0.050000
13.121992 -1.169511 0.520652 0.040000
13.361143 -2.685107 0.490642 0.020000
11.105760 -3.468421 0.476843 0.210000
5.917356 1.669459 0.117395 0.100000
6.097671 1.132817 0.115871 0.040000
6.192728 0.609564 0.109174 0.090000
6.232385 0.105216 0.112402 0.040000
6.177374 -0.415912 0.105321 0.040000
6.062074 -0.923209 0.103135 0.030000
5.856708 -1.427213 0.095725 0.050000
5.581259 -1.927559 0.088146 0.080000
47.733063 19.986881 6.199700 0.050000
49.983265 13.494361 6.036437 0.140000
11.086227 1.313071 1.579577 0.500000
36.121174 0.673086 4.187573 0.050000
7.592792 -0.572719 1.168444 1.050000
11.289278 -3.543972 1.582052 0.130000
14.679582 5.496552 0.534497 0.110000
17.975330 4.449615 0.504208 0.050000
18.854090 0.355941 0.431284 0.000000
13.141818 -1.153963 0.475761 0.080000
13.370971 -2.669751 0.445724 0.060000
11.140844 -3.467621 0.441937 0.210000
5.783243 1.621882 0.116868 0.100000
5.948274 1.099950 0.115358 0.040000
6.057931 0.596961 0.113775 0.090000
6.127322 0.108222 0.107139 0.030000
6.031909 -0.393712 0.110024 0.050000
5.941330 -0.885515 0.102960 0.030000
5.750770 -1.379234 0.095627 0.050000
5.480019 -1.864505 0.093116 0.100000
51.038612 21.529800 6.394066 0.040000
49.972351 13.569899 5.836688 0.140000
11.180796 1.339979 1.554924 0.640000
35.050961 0.708494 3.939909 0.040000
7.592652 -0.562646 1.148481 1.030000
11.289012 -3.523808 1.537126 0.120000
48.304577 -26.203501 5.529480 0.030000
14.708953 5.537323 0.479725 0.080000
17.994921 4.480234 0.439373 0.010000
11.018964 1.320744 0.499419 0.070000
24.187729 0.498682 0.290735 0.010000
13.146539 -1.133723 0.435848 0.060000
13.380691 -2.649415 0.405825 0.030000
11.211032 -3.471130 0.402106 0.260000
11.343390 -5.153765 0.361197 0.100000
5.659129 1.574497 0.116368 0.090000
5.828775 1.072657 0.114945 0.040000
5.953143 0.584952 0.113457 0.080000
5.992251 0.110636 0.106796 0.040000
5.951554 -0.375229 0.104883 0.050000
5.820682 -0.852820 0.102766 0.030000
5.639832 -1.331350 0.095515 0.050000
5.398993 -1.811029 0.088103 0.080000
50.893307 21.577906 6.153863 0.080000
57.205818 15.731888 6.388611 0.050000
11.140716 1.349360 1.514854 0.330000
34.785263 0.763984 3.784420 0.050000
7.627602 -0.556902 1.128593 1.100000
11.324014 -3.517990 1.497239 0.100000
48.277321 -26.053135 5.294966 0.070000
13.086887 4.851247 0.442940 0.040000
8.981382 1.956797 0.506465 0.020000
10.968885 1.329934 0.459322 0.090000
13.249506 0.283646 0.401385 0.000000
18.213503 -3.771452 0.249267 0.020000
11.251128 -3.470216 0.362214 0.290000
11.272263 -5.089969 0.321248 0.080000
5.579623 1.547969 0.116062 0.100000
5.714262 1.045441 0.119545 0.030000
5.818264 0.577368 0.113076 0.090000
5.897078 0.118815 0.106578 0.030000
5.836193 -0.357435 0.104648 0.050000
5.745230 -0.829243 0.097657 0.030000
5.543892 -1.283179 0.095444 0.060000
5.317967 -1.757553 0.083091 0.100000
50.842052 21.677858 5.904098 0.110000
57.238850 15.868424 6.149203 0.080000
11.165323 1.374964 1.480013 0.570000
34.699398 0.827864 3.644432 0.050000
7.622368 -0.541927 1.108635 1.130000
11.328626 -3.492769 1.462344 0.060000
48.203751 -25.838755 5.090569 0.060000
13.081431 4.881313 0.398037 0.030000
8.881658 1.944977 0.481160 0.050000
11.003491 1.355729 0.424508 0.100000
13.249131 0.308790 0.361477 0.010000
16.469778 -3.329695 0.226357 0.030000
11.260848 -3.449879 0.322315 0.330000
11.281982 -5.069633 0.281348 0.270000
5.465315 1.510773 0.115625 0.100000
5.609583 1.028451 0.114209 0.030000
5.733388 0.570760 0.107830 0.090000
5.797001 0.121899 0.106328 0.040000
5.730829 -0.339450 0.104440 0.050000
5.664670 -0.800780 0.097552 0.030000
5.473247 -1.249507 0.090385 0.050000
5.252022 -1.708807 0.083100 0.090000
50.854889 21.818863 5.704654 0.040000
57.251808 16.004467 5.939740 0.070000
11.130147 1.389439 1.439974 0.580000
34.893211 0.906993 3.535231 0.060000
7.642225 -0.531471 1.088726 1.110000
45.244141 -10.119761 4.351268 0.020000
50.096378 -26.732445 5.032186 0.040000
8.906253 1.970562 0.451319 0.110000
11.023100 1.381238 0.389654 0.090000
13.334435 -2.564772 0.266017 0.030000
11.295646 -3.434082 0.287464 0.360000
11.266227 -5.024780 0.241473 0.210000
5.390725 1.489359 0.110351 0.110000
5.549703 1.022322 0.109029 0.030000
5.643405 0.569036 0.107589 0.080000
5.711825 0.130269 0.106137 0.030000
5.650461 -0.320986 0.104299 0.050000
5.589109 -0.772222 0.097461 0.040000
5.407589 -1.215759 0.090339 0.050000
5.160780 -1.645562 0.088097 0.110000
47.273296 20.376959 5.159939 0.030000
8.839037 1.976416 1.231174 0.000000
11.129760 1.414565 1.405066 0.440000
37.065624 1.053386 3.606446 0.020000
7.652083 -0.521207 1.068789 0.540000
45.317436 -10.007751 4.191874 0.020000
47.667538 -25.192167 4.616568 0.050000
14.701654 5.688017 0.260264 0.060000
8.871133 1.979983 0.426262 0.080000
11.047599 1.411822 0.359831 0.110000
15.567486 0.438800 0.208011 0.010000
7.934085 -0.533462 0.429473 0.010000
13.358960 -2.534150 0.226194 0.030000
11.295175 -3.403939 0.247574 0.440000
5.311232 1.462851 0.105044 0.080000
5.460007 1.005601 0.108733 0.030000
5.578431 0.567810 0.102415 0.080000
5.626662 0.138658 0.100945 0.040000
5.575200 -0.307407 0.099153 0.050000
5.523655 -0.748453 0.092379 0.030000
5.326741 -1.172300 0.090289 0.060000
5.105037 -1.606604 0.083096 0.130000
29.605988 12.498938 3.249518 0.020000
8.813832 1.991046 1.201162 0.010000
31.427702 0.972505 3.016423 0.010000
7.661847 -0.505944 1.048871 1.010000
52.446445 -11.507878 4.584910 0.010000
45.394905 -16.127073 4.094328 0.040000
47.689472 -25.006037 4.432315 0.080000
13.496009 5.189876 0.245265 0.060000
8.900618 2.010645 0.401453 0.080000
11.047212 1.436948 0.324923 0.070000
14.457323 0.437557 0.200108 0.010000
7.963844 -0.517816 0.409609 0.020000
13.182539 -2.457406 0.196019 0.040000
11.319770 -3.378353 0.217733 0.340000
11.163842 -4.891460 0.171701 0.070000
5.226618 1.441208 0.109743 0.090000
5.400127 0.999471 0.103554 0.030000
5.463535 0.560590 0.107088 0.080000
5.571590 0.142622 0.095816 0.030000
5.514841 -0.288541 0.094065 0.050000
5.428002 -0.715280 0.092252 0.030000
5.286283 -1.148052 0.085274 0.060000
5.054293 -1.567551 0.078109 0.130000
29.579460 12.593849 3.139800 0.060000
8.828416 2.016422 1.176294 0.050000
31.416252 1.062686 2.911727 0.010000
7.661516 -0.485874 1.028945 1.160000
18.994375 -3.777493 1.886300 0.000000
47.726032 -24.799603 4.243176 0.030000
12.696934 4.874553 0.232007 0.060000
11.076613 1.472627 0.295132 0.140000
13.662032 0.447382 0.183068 0.010000
7.938518 -0.498224 0.389615 1.000000
12.498859 -2.270429 0.184929 0.040000
10.693207 -4.600386 0.161555 0.060000
5.166930 1.425080 0.104527 0.090000
5.295504 0.977427 0.113199 0.030000
5.423460 0.564841 0.101999 0.090000
5.501316 0.156279 0.095684 0.030000
5.434460 -0.270096 0.098924 0.050000
5.382532 -0.691146 0.092223 0.030000
5.205422 -1.104611 0.090224 0.070000
5.023628 -1.533132 0.078156 0.150000
29.572083 12.729026 3.060283 0.020000
8.738499 2.014791 1.151053 1.000000
31.434555 1.163366 2.827148 0.050000
7.676264 -0.470533 1.014040 1.220000
7.705441 -1.210105 1.011367 0.000000
33.244091 -11.334553 2.885414 0.010000
17.510267 -8.261378 1.775756 0.000000
12.101301 4.643160 0.214592 0.070000
11.101016 1.508211 0.265328 0.130000
12.886794 0.452536 0.181064 0.010000
7.913178 -0.478651 0.374622 0.050000
11.930721 -2.111264 0.179038 0.050000
10.353889 -4.376808 0.151500 0.060000
5.097230 1.408743 0.104285 0.100000
5.265440 0.981889 0.103137 0.030000
5.348474 0.563405 0.101798 0.050000
5.441231 0.160128 0.095541 0.030000
5.344080 -0.251842 0.103756 0.040000
5.301972 -0.662684 0.092119 0.040000
5.180057 -1.085075 0.085230 0.080000
4.972871 -1.494097 0.078169 0.120000
29.600039 12.849949 2.960804 0.060000
8.718184 2.034497 1.126073 1.000000
31.377897 1.262647 2.732369 0.090000
7.695917 -0.450098 0.999167 1.190000
7.710096 -1.189958 0.996454 0.000000
33.261745 -11.198843 2.790963 0.010000
11.535349 4.427301 0.207312 0.060000
12.126220 3.083398 0.198859 0.070000
11.040614 1.532150 0.240259 0.120000
12.361330 0.472495 0.174766 0.010000
11.473041 -1.974987 0.173350 0.050000
10.718618 -3.054589 0.157367 0.050000
10.060040 -4.177363 0.141474 0.060000
5.052348 1.402900 0.099146 0.090000
5.190550 0.975453 0.102918 0.030000
5.273474 0.561950 0.106597 0.040000
5.380955 0.173977 0.095435 0.020000
5.313812 -0.237400 0.098731 0.040000
5.251503 -0.638646 0.092077 0.050000
5.119302 -1.046232 0.085216 0.090000
4.937207 -1.459774 0.078204 0.130000
29.567680 12.984665 2.876220 0.130000
8.653057 2.043324 1.105936 0.300000
31.336018 1.372176 2.647666 0.130000
7.705571 -0.429855 0.984268 1.040000
32.471455 -6.467445 2.616487 0.040000
11.058626 4.253177 0.195420 0.070000
11.653059 2.984356 0.187255 0.060000
11.074919 1.572924 0.210500 0.140000
11.910961 0.488909 0.163652 0.010000
11.090743 -1.857251 0.162789 0.060000
10.430823 -2.910038 0.147153 0.050000
9.786367 -3.987553 0.136465 0.060000
4.992633 1.386736 0.103930 0.080000
5.140559 0.974496 0.102784 0.030000
5.243301 0.571392 0.101553 0.040000
5.315775 0.182730 0.095298 0.020000
5.283543 -0.222959 0.093705 0.040000
5.201116 -0.619626 0.097016 0.060000
5.078830 -1.022003 0.085201 0.100000
4.911649 -1.430240 0.073247 0.140000
29.550209 13.124648 2.796694 0.130000
8.642536 2.073202 1.086019 0.320000
31.333927 1.492451 2.568106 0.120000
32.448792 -6.317560 2.536984 0.060000
13.462956 -3.941496 1.336246 0.000000
10.661301 4.110561 0.188853 0.080000
11.259583 2.901824 0.180921 0.060000
11.173912 1.629922 0.185970 0.130000
11.530554 0.506627 0.162725 0.010000
11.308005 -0.667861 0.162778 0.020000
10.783705 -1.753094 0.157375 0.050000
10.178284 -2.779852 0.146978 0.050000
9.517776 -3.802664 0.136451 0.060000
4.967459 1.396273 0.098900 0.080000
5.095567 0.973634 0.102663 0.020000
5.193215 0.575434 0.101438 0.040000
5.290588 0.192249 0.095267 0.010000
5.233156 -0.203939 0.098645 0.040000
5.165656 -0.595283 0.092014 0.060000
5.058355 -0.997390 0.085239 0.100000
4.870986 -1.396013 0.073268 0.140000
29.527508 13.274478 2.732191 0.140000
8.597309 2.087411 1.065954 0.460000
151.863480 27.131788 10.758117 0.390000
31.316883 1.607364 2.508488 0.130000
7.709773 -0.384675 0.959446 0.290000
11.694570 -1.934477 1.194089 0.010000
13.527531 -3.915163 1.311512 0.000000
13.554818 -5.865095 1.334335 0.000000
10.343194 4.009469 0.182647 0.080000
10.900800 2.834941 0.179736 0.070000
11.185152 0.525033 0.156891 0.010000
11.011827 -0.608505 0.157225 0.020000
10.511935 -1.663283 0.156999 0.050000
9.956052 -2.664051 0.136828 0.050000
9.330154 -3.666197 0.126469 0.070000
4.912661 1.385222 0.098715 0.070000
5.055575 0.972868 0.102556 0.020000
5.178039 0.585163 0.096434 0.030000
5.235311 0.206193 0.095175 0.010000
5.197888 -0.189594 0.093606 0.030000
5.125280 -0.576053 0.091980 0.050000
5.022882 -0.973065 0.085237 0.090000
4.865617 -1.376094 0.068328 0.120000
29.494917 13.419136 2.662642 0.150000
8.591775 2.117366 1.051050 0.230000
31.299648 1.732276 2.448907 0.120000
7.734411 -0.364163 0.949587 0.360000
11.633579 -1.880562 1.174130 0.040000
13.481180 -3.840927 1.281667 0.010000
13.563649 -5.799804 1.304600 0.020000
10.069791 3.924236 0.176616 0.090000
10.641545 2.795005 0.168911 0.060000
10.863556 1.649073 0.160230 0.020000
10.944635 0.550450 0.151358 0.010000
10.765641 -0.548191 0.151807 0.020000
10.295264 -1.577399 0.151753 0.060000
9.809367 -2.576827 0.131769 0.050000
9.127222 -3.515057 0.126501 0.060000
4.882571 1.389647 0.098653 0.070000
5.020485 0.977197 0.102480 0.020000
5.127940 0.589186 0.101318 0.040000
5.225134 0.216018 0.090185 0.010000
5.157595 -0.175381 0.098554 0.030000
5.104901 -0.556439 0.091999 0.060000
5.017513 -0.953146 0.080297 0.110000
4.834939 -1.341693 0.073376 0.130000
29.476915 13.584041 2.603208 0.150000
13.216777 2.125008 1.318154 0.000000
31.282207 1.867168 2.394363 0.100000
7.708880 -0.334591 0.934630 0.640000
11.577492 -1.821552 1.154203 0.060000
13.429613 -3.756827 1.261844 0.010000
13.511712 -5.695688 1.279852 0.050000
9.835985 3.859747 0.175766 0.080000
10.367363 2.749746 0.168027 0.070000
10.668305 1.660335 0.159763 0.020000
10.719007 0.581134 0.150883 0.010000
10.574623 -0.496840 0.151499 0.020000
10.169055 -1.514787 0.146656 0.060000
9.637387 -2.475102 0.131699 0.050000
9.005136 -3.407376 0.126583 0.070000
4.842578 1.388880 0.098546 0.060000
4.985396 0.981525 0.102405 0.020000
5.117667 0.604010 0.096347 0.030000
5.174843 0.230039 0.095106 0.010000
5.152322 -0.160461 0.093595 0.030000
5.089520 -0.536730 0.092033 0.070000
4.992039 -0.928630 0.080321 0.100000
4.834665 -1.326678 0.068431 0.120000
29.443794 13.753619 2.553751 0.140000
8.635190 2.203286 1.031483 0.100000
13.260562 2.190913 1.303513 0.010000
13.197770 0.774571 1.268084 0.040000
7.728410 -0.309195 0.929775 0.890000
11.551496 -1.766967 1.134338 0.140000
13.438514 -3.696572 1.242091 0.000000
13.515339 -5.620514 1.255140 0.020000
9.636897 3.810944 0.170065 0.100000
10.177699 2.731129 0.162463 0.050000
10.453262 1.661235 0.154205 0.020000
10.553380 0.612986 0.145569 0.010000
10.418719 -0.449781 0.141267 0.020000
10.037847 -1.452271 0.141546 0.060000
9.510795 -2.392494 0.126675 0.050000
8.898349 -3.314386 0.121649 0.060000
4.832402 1.398706 0.093556 0.060000
4.970125 0.996254 0.097420 0.020000
5.067568 0.608033 0.101231 0.040000
5.164667 0.239864 0.090116 0.010000
5.121944 -0.141040 0.093588 0.030000
5.074249 -0.522002 0.087047 0.070000
4.996764 -0.913518 0.075390 0.100000
4.819189 -1.301970 0.068482 0.140000
29.420549 13.928352 2.514340 0.140000
13.224663 2.240308 1.283603 0.060000
13.231832 0.825269 1.258361 0.070000
7.712960 -0.284449 0.919827 1.030000
11.525580 -1.717400 1.119454 0.190000
16.003340 -4.463027 1.365938 0.000000
9.472503 3.777790 0.169513 0.090000
8.740712 2.288237 0.237066 0.140000
10.303003 1.673360 0.153857 0.020000
10.407845 0.640222 0.140290 0.010000
10.307782 -0.401897 0.141155 0.020000
9.966723 -1.393604 0.136579 0.060000
9.424374 -2.319136 0.126722 0.050000
8.831650 -3.225629 0.116805 0.070000
4.782494 1.392730 0.098404 0.060000
4.940034 1.000678 0.097357 0.020000
5.062294 0.622953 0.096272 0.030000
5.144287 0.259477 0.090135 0.010000
5.111659 -0.126234 0.093616 0.030000
5.058868 -0.502293 0.087080 0.080000
4.986382 -0.893714 0.075436 0.090000
4.818805 -1.281973 0.068555 0.140000
29.397087 14.113045 2.484965 0.150000
13.123800 3.848624 1.299318 0.070000
13.173836 2.284379 1.273634 0.060000
13.215807 0.880008 1.248523 0.040000
11.514650 -1.667564 1.109611 0.200000
13.426007 -3.561678 1.212560 0.000000
13.547824 -5.484758 1.225729 0.040000
9.342732 3.765321 0.164127 0.090000
8.740067 2.323267 0.227194 0.270000
10.167741 1.685772 0.153551 0.020000
10.297195 0.673109 0.140124 0.010000
10.226935 -0.358438 0.141106 0.020000
9.875687 -1.340338 0.136539 0.060000
9.338048 -2.250777 0.126751 0.050000
8.770307 -3.156811 0.121901 0.070000
4.782124 1.412745 0.093477 0.040000
4.929749 1.015484 0.097386 0.020000
5.042011 0.637567 0.096274 0.030000
5.129098 0.269188 0.090132 0.010000
5.096374 -0.111524 0.093631 0.030000
5.043571 -0.487602 0.092095 0.070000
5.006200 -0.883314 0.070526 0.080000
4.808328 -1.257170 0.068620 0.140000
29.358780 14.287397 2.470513 0.130000
13.117664 3.908535 1.294525 0.050000
13.147813 2.338927 1.263769 0.080000
12.561218 -0.442505 1.171897 1.050000
11.528799 -1.622266 1.104816 0.280000
13.490849 -5.380794 1.215967 0.030000
9.262555 3.773787 0.163950 0.090000
8.684599 2.347209 0.227139 0.390000
10.112094 1.719730 0.148531 0.020000
10.251533 0.707240 0.140132 0.010000
10.166097 -0.314577 0.136110 0.020000
9.834736 -1.291114 0.136615 0.060000
9.302096 -2.201457 0.126841 0.050000
8.719070 -3.092780 0.122005 0.070000
4.776837 1.427647 0.093519 0.030000
4.899646 1.019890 0.102323 0.020000
5.041723 0.652564 0.096329 0.030000
5.113801 0.283880 0.095146 0.010000
5.091088 -0.096623 0.093673 0.030000
5.058293 -0.472299 0.087190 0.080000
4.975714 -0.858912 0.075538 0.050000
4.823147 -1.246866 0.063697 0.130000
29.310377 14.466557 2.456052 0.130000
9.059348 2.511445 1.038736 0.060000
13.161482 2.409220 1.259066 0.050000
16.563055 1.293599 1.418799 0.080000
12.595266 -0.391826 1.167174 0.830000
11.547850 -1.571874 1.100053 0.250000
13.443647 -3.436263 1.198072 0.000000
9.172477 3.777062 0.163727 0.080000
8.678943 2.382125 0.222254 0.460000
10.061528 1.748767 0.148507 0.020000
10.195777 0.746179 0.140131 0.010000
10.155333 -0.274776 0.136230 0.020000
9.788882 -1.246984 0.136659 0.050000
9.301331 -2.161465 0.126987 0.050000
8.758501 -3.062001 0.117223 0.070000
4.741831 1.426958 0.098425 0.040000
4.914177 1.045191 0.097455 0.020000
5.016536 0.662084 0.096298 0.030000
5.113526 0.298895 0.090201 0.010000
5.085801 -0.081721 0.093714 0.030000
5.037901 -0.452704 0.092210 0.060000
5.000530 -0.848417 0.070641 0.030000
4.807657 -1.222176 0.068749 0.150000
29.272152 14.635892 2.446582 0.080000
9.048596 2.551265 1.033856 0.110000
13.155525 2.459114 1.259236 0.040000
31.131447 2.709998 2.242100 0.050000
12.579311 -0.342123 1.167318 0.790000
11.587159 -1.536134 1.105289 0.220000
13.513175 -5.240324 1.211547 0.030000
9.156713 3.816767 0.163833 0.090000
8.643470 2.406450 0.222251 0.370000
10.050764 1.788568 0.148627 0.020000
10.205009 0.786363 0.140304 0.010000
10.164564 -0.234592 0.136403 0.020000
9.818206 -1.211416 0.136868 0.050000
9.295469 -2.116569 0.127139 0.050000
4.746364 1.452067 0.093530 0.030000
4.879170 1.044502 0.102362 0.010000
5.016249 0.677081 0.096353 0.030000
5.103228 0.313682 0.095230 0.010000
5.090513 -0.066628 0.093783 0.030000
5.057719 -0.442304 0.087300 0.070000
5.000243 -0.833419 0.070696 0.040000
4.827462 -1.211795 0.068839 0.140000
8.983321 2.565017 1.033736 0.080000
13.159470 2.514199 1.259451 0.060000
16.465691 1.416775 1.414003 0.020000
12.628427 -0.296192 1.172616 0.800000
12.579251 -1.642317 1.152484 0.100000
13.451346 -3.316094 1.198539 0.000000
9.131047 3.851282 0.163894 0.080000
8.647702 2.446538 0.222412 0.310000
10.044998 1.828465 0.148760 0.020000
10.214349 0.821567 0.135459 0.010000
10.208994 -0.203717 0.131634 0.020000
9.852637 -1.180733 0.132072 0.060000
9.350088 -2.095501 0.122360 0.050000
6.213650 -1.816234 0.310213 0.050000
4.731162 1.461760 0.098526 0.040000
4.893797 1.064804 0.097475 0.020000
5.010962 0.691982 0.096395 0.030000
5.122950 0.329081 0.090338 0.010000
5.100332 -0.056420 0.088846 0.030000
5.047420 -0.427517 0.092329 0.070000
5.025142 -0.827942 0.070782 0.050000
4.832187 -1.196684 0.063907 0.180000
13.041727 6.037273 1.352241 0.010000
13.143419 2.568902 1.259612 0.070000
11.224481 0.947323 1.123574 0.040000
12.657463 -0.245627 1.172880 0.490000
12.563200 -1.587615 1.152645 0.170000
15.949160 -3.978832 1.327597 0.000000
11.326365 -4.106582 1.095052 0.020000
9.149797 3.916652 0.164186 0.080000
8.632034 2.481244 0.222500 0.230000
10.103946 1.884622 0.144123 0.020000
10.278378 0.872802 0.135817 0.010000
10.263217 -0.162671 0.131928 0.020000
9.927144 -1.154301 0.132365 0.060000
9.429786 -2.078972 0.122629 0.050000
4.765511 1.497460 0.088748 0.030000
4.893414 1.084800 0.097548 0.010000
5.020673 0.707171 0.096477 0.030000
5.122662 0.344078 0.090393 0.010000
5.115042 -0.041136 0.088941 0.030000
5.072237 -0.417022 0.087432 0.070000
5.014761 -0.808137 0.070828 0.050000
4.852087 -1.191302 0.063979 0.150000
13.091524 4.228073 1.300645 0.060000
13.152242 2.629045 1.269859 0.070000
11.293483 0.998617 1.133945 0.100000
12.631483 -0.196153 1.182997 0.350000
12.597402 -1.546989 1.162886 0.140000
13.423943 -3.191615 1.203930 0.010000
11.335392 -4.056419 1.100263 0.140000
9.213253 3.997882 0.164654 0.080000
8.626351 2.516123 0.227615 0.240000
10.182864 1.941125 0.149539 0.020000
10.342600 0.914039 0.136138 0.010000
10.417613 -0.129709 0.132454 0.020000
10.011649 -1.127678 0.132684 0.060000
9.524577 -2.067154 0.122921 0.050000
9.017604 -3.012012 0.113085 0.080000
4.740407 1.501962 0.093700 0.030000
4.917931 1.110274 0.097707 0.010000
5.020386 0.722168 0.096532 0.040000
5.122471 0.354076 0.090430 0.010000
5.134847 -0.030755 0.089032 0.030000
5.092041 -0.406641 0.087523 0.060000
5.029553 -0.797870 0.075905 0.050000
4.861881 -1.181131 0.069043 0.160000
13.105345 4.288311 1.310905 0.030000
13.141259 2.678806 1.280015 0.060000
11.202912 1.026869 1.138813 0.230000
12.641587 -1.506191 1.178153 0.100000
91.037346 -24.868984 5.405984 0.190000
11.298936 -3.982141 1.110444 0.140000
9.286597 4.084283 0.170167 0.080000
8.635653 2.551271 0.237770 0.160000
10.276684 2.002914 0.155014 0.020000
10.476604 0.966596 0.141683 0.010000
10.547014 -0.097225 0.132912 0.020000
10.121328 -1.110593 0.138034 0.060000
9.679739 -2.074184 0.123299 0.050000
9.127762 -3.019922 0.118343 0.060000
4.754925 1.527245 0.093832 0.030000
4.912727 1.120158 0.102730 0.020000
5.049997 0.742739 0.096686 0.030000
5.167079 0.374934 0.090624 0.010000
5.129547 -0.015872 0.094073 0.030000
5.126843 -0.395972 0.087653 0.070000
5.059452 -0.792296 0.076004 0.050000
4.886780 -1.175653 0.069128 0.140000
16.454851 8.217035 1.639256 0.000000
30.468452 7.017603 2.381384 0.140000
11.177124 1.066345 1.148893 0.160000
13.249869 -0.114515 1.244915 0.290000
13.401473 -3.067134 1.234334 0.000000
11.358393 -3.956071 1.130696 0.110000
9.394456 4.196351 0.175865 0.070000
10.450214 2.081251 0.155758 0.020000
10.645614 1.019843 0.142322 0.010000
10.706396 -0.064185 0.138451 0.030000
8.831735 -0.895583 0.225468 0.030000
9.824808 -2.076406 0.123670 0.050000
9.303399 -3.051564 0.118684 0.070000
4.734807 1.531823 0.103796 0.030000
4.937256 1.145651 0.097889 0.010000
5.059708 0.757927 0.096767 0.040000
5.161875 0.384818 0.095647 0.010000
5.169348 -0.005108 0.094217 0.030000
5.126639 -0.385993 0.092690 0.060000
5.089351 -0.786723 0.076103 0.050000
4.916679 -1.170079 0.069227 0.130000
16.378828 8.265478 1.669238 0.000000
30.421141 7.131552 2.426685 0.260000
11.121438 1.100248 1.158874 0.190000
7.761728 -0.743652 0.933247 0.060000
13.420555 -3.021833 1.254553 0.010000
11.175922 -3.829561 1.135690 0.230000
9.541924 4.329180 0.181744 0.080000
10.618636 2.164473 0.161507 0.020000
10.859411 1.083930 0.148119 0.010000
10.860683 -0.026242 0.143995 0.020000
10.020128 -2.092705 0.134119 0.050000
9.453934 -3.078704 0.123976 0.080000
4.803766 1.588191 0.094186 0.030000
4.946858 1.165820 0.102989 0.020000
5.089306 0.778479 0.101921 0.040000
5.206497 0.405695 0.090841 0.010000
5.189057 0.010272 0.094326 0.020000
5.186545 -0.379826 0.087869 0.050000
5.114154 -0.776246 0.076206 0.040000
4.951672 -1.169409 0.069321 0.160000
29.143209 15.852812 2.675771 0.010000
30.433407 7.266609 2.482219 0.270000
11.175609 1.141219 1.179168 0.110000
7.761222 -0.718694 0.943339 0.200000
13.394358 -2.962398 1.274706 0.010000
11.190114 -3.789337 1.150877 0.240000
9.743819 4.493075 0.182880 0.080000
10.499594 3.417397 0.170854 0.070000
10.866673 2.269242 0.162544 0.020000
10.978417 1.136200 0.153624 0.010000
11.125059 0.008828 0.144816 0.020000
7.943064 -0.722847 0.298791 0.040000
10.240566 -2.113487 0.134617 0.040000
9.680041 -3.134384 0.124359 0.070000
4.798466 1.603073 0.099227 0.030000
4.981290 1.196503 0.098193 0.020000
5.128832 0.804259 0.097120 0.040000
5.231192 0.421152 0.095963 0.010000
5.233857 0.021132 0.094483 0.030000
5.191243 -0.364752 0.092937 0.020000
5.159146 -0.775384 0.076327 0.050000
4.991665 -1.168643 0.069428 0.130000
29.169558 16.033073 2.751511 0.040000
30.411024 7.380944 2.552587 0.280000
11.164875 1.175928 1.204269 0.310000
7.705632 -0.689790 0.953301 0.340000
11.184092 -3.739536 1.176046 0.340000
10.776750 3.567713 0.177136 0.060000
11.164592 2.379949 0.168733 0.020000
11.047585 1.177459 0.173958 0.040000
11.444494 0.039914 0.155765 0.020000
7.912551 -0.698482 0.313802 0.090000
10.501271 -2.148518 0.140168 0.040000
4.827886 1.633642 0.099418 0.030000
5.005889 1.216959 0.103333 0.020000
5.148528 0.819621 0.102229 0.040000
5.275896 0.437011 0.096139 0.010000
5.258661 0.031609 0.094587 0.020000
5.276336 -0.368104 0.088147 0.040000
5.189044 -0.769811 0.076426 0.050000
5.016647 -1.168183 0.074495 0.160000
29.067669 16.120880 2.821572 0.110000
30.393763 7.490413 2.612949 0.300000
11.059389 1.198875 1.214079 0.220000
7.700223 -0.669927 0.963361 0.370000
11.284091 -3.742731 1.206296 0.160000
10.261222 4.893019 0.195717 0.060000
11.098418 3.743886 0.183631 0.050000
11.537031 2.517106 0.170215 0.020000
10.992064 1.201326 0.193902 0.060000
11.878851 0.078258 0.152041 0.020000
7.882039 -0.674117 0.328814 0.140000
10.243168 -3.293664 0.135237 0.070000
4.867208 1.669402 0.099653 0.030000
5.050305 1.247815 0.103564 0.020000
5.193040 0.845478 0.102441 0.060000
5.300603 0.452487 0.096261 0.010000
5.318458 0.042756 0.094784 0.030000
5.331230 -0.362052 0.088313 0.080000
5.239022 -0.768872 0.081560 0.050000
5.076828 -1.177032 0.074619 0.130000
29.030033 16.244833 2.916936 0.110000
16.580469 6.083679 1.736654 0.000000
30.371628 7.589695 2.698261 0.280000
11.063748 1.228873 1.239202 0.500000
31.598305 0.217142 2.604056 0.190000
7.674806 -0.650465 0.978367 0.410000
11.343714 -3.726696 1.236511 0.600000
11.519398 3.956968 0.190522 0.050000
11.939439 2.654800 0.181778 0.020000
10.991425 1.231228 0.219012 0.040000
12.223282 0.109823 0.163058 0.020000
11.198619 -2.265202 0.146554 0.040000
10.610495 -3.411649 0.135757 0.050000
4.916336 1.715351 0.099952 0.030000
5.084820 1.273481 0.103750 0.020000
5.222734 0.861031 0.107576 0.060000
5.365208 0.473728 0.096508 0.010000
5.373256 0.053808 0.094968 0.030000
5.356117 -0.356593 0.093398 0.190000
5.299120 -0.772703 0.076702 0.050000
5.111917 -1.181360 0.074695 0.130000
29.022322 16.374397 3.002398 0.090000
29.815971 11.774280 2.852368 0.040000
30.364395 7.694263 2.783632 0.260000
11.028211 1.253105 1.264200 0.550000
31.506306 0.310121 2.679163 0.360000
7.689476 -0.635236 0.993462 0.190000
17.173962 -3.741525 1.656679 0.000000
11.312792 -3.682372 1.261596 0.370000
11.119824 5.494532 0.210195 0.060000
10.975870 1.255824 0.249063 0.040000
12.737584 0.149644 0.174548 0.020000
11.128930 -3.586770 0.141460 0.090000
4.930937 1.735616 0.105066 0.030000
5.129224 1.304319 0.108980 0.020000
5.282257 0.887194 0.102829 0.080000
5.404900 0.489473 0.101671 0.020000
5.433053 0.064955 0.095166 0.040000
5.375908 -0.346230 0.098488 0.160000
5.354192 -0.776667 0.081831 0.040000
5.167098 -1.190305 0.074805 0.140000
29.014570 16.503904 3.102860 0.050000
29.684719 11.826463 2.937220 0.160000
30.327551 7.778261 2.868849 0.210000
11.007669 1.277624 1.289237 0.550000
31.519453 0.395076 2.764513 0.140000
7.649062 -0.616062 1.008428 0.090000
17.313601 -3.729050 1.712091 0.000000
11.291855 -3.637875 1.291707 0.480000
12.505154 4.445859 0.214913 0.060000
12.987783 3.009886 0.200834 0.010000
10.960316 1.280421 0.279114 0.080000
12.958403 -1.196384 0.175121 0.050000
12.197322 -2.451163 0.163470 0.040000
11.178651 -3.575926 0.171630 0.230000
4.990064 1.781756 0.105392 0.030000
5.183543 1.340365 0.109256 0.020000
5.336755 0.913224 0.108068 0.070000
5.479612 0.505925 0.096927 0.020000
5.497849 0.076198 0.095377 0.040000
5.449475 -0.789826 0.077031 0.040000
5.207269 -1.199556 0.079876 0.130000
28.992275 16.608093 3.213191 0.030000
29.672735 11.915883 3.037522 0.060000
30.355682 7.863484 2.959240 0.060000
11.032108 1.302986 1.319396 0.480000
31.512768 0.469613 2.859774 0.060000
7.668718 -0.600756 1.028537 0.090000
11.281191 -3.608203 1.326790 0.590000
11.558096 5.842803 0.262634 0.050000
10.959771 1.305323 0.304205 0.080000
14.246318 0.228515 0.188780 0.020000
13.078001 -1.179218 0.210498 0.030000
13.055899 -2.629751 0.165047 0.020000
11.127501 -3.522043 0.211697 0.330000
5.014554 1.807193 0.115550 0.030000
5.237957 1.371413 0.109513 0.020000
5.416165 0.944750 0.108392 0.090000
5.544203 0.527147 0.102174 0.020000
5.577739 0.082729 0.095610 0.040000
5.540986 -0.348051 0.093912 0.050000
5.504643 -0.798790 0.082142 0.040000
5.307825 -1.227635 0.080034 0.120000
29.665726 12.005361 3.147838 0.020000
30.338961 7.937774 3.069474 0.020000
11.111414 1.334364 1.359720 0.290000
31.546120 0.539843 2.975123 0.070000
7.643396 -0.586293 1.043524 0.070000
17.798994 -3.765292 1.858224 0.000000
11.295713 -3.588049 1.361903 0.710000
11.562320 5.877744 0.302775 0.090000
8.922325 1.921026 0.406177 0.000000
10.954393 1.320094 0.339246 0.060000
14.766283 -1.331839 0.194337 0.040000
13.321537 -2.664780 0.195611 0.040000
11.061464 -3.473427 0.246706 0.360000
5.103304 1.873923 0.111030 0.040000
5.312177 1.412842 0.109861 0.020000
5.470772 0.965800 0.108613 0.100000
5.633803 0.548867 0.102489 0.030000
5.627524 0.093666 0.100780 0.050000
5.631065 -0.351326 0.094135 0.040000
5.599926 -0.811949 0.077342 0.040000
5.357995 -1.236694 0.085131 0.110000
53.323696 32.041924 6.029104 0.040000
43.511627 18.156523 4.596860 0.030000
30.287628 7.991397 3.179540 0.020000
11.155739 1.365090 1.394950 0.320000
35.043121 0.675428 3.369760 0.170000
7.638058 -0.571466 1.063566 0.080000
18.195026 -3.828049 1.949026 0.000000
11.290049 -3.558281 1.396999 0.780000
11.522127 5.881828 0.342686 0.080000
14.992929 5.623566 0.265785 0.030000
8.956775 1.946599 0.431362 0.000000
10.929032 1.334501 0.369234 0.050000
16.689768 0.330274 0.210537 0.010000
13.366220 -2.654088 0.240768 0.020000
11.096162 -3.462907 0.286836 0.330000
5.162418 1.920045 0.116356 0.040000
5.381480 1.449157 0.115177 0.030000
5.545170 0.997212 0.113924 0.100000
5.693587 0.559996 0.107686 0.020000
5.712400 0.100275 0.106027 0.050000
5.716036 -0.349717 0.099363 0.040000
5.659997 -0.815818 0.082484 0.040000
5.443458 -1.260062 0.085267 0.100000
53.073208 32.036373 6.233431 0.020000
43.519169 18.261063 4.767271 0.050000
57.291637 15.765517 5.848955 0.050000
11.150374 1.379880 1.424991 0.210000
34.801945 0.720451 3.469298 0.230000
7.647894 -0.566369 1.088611 0.270000
11.304749 -3.548144 1.437075 0.680000
11.462321 5.865533 0.382470 0.130000
18.310198 7.107506 0.239960 0.010000
8.931618 1.951026 0.456313 0.010000
10.963552 1.355038 0.404401 0.060000
13.244842 0.273757 0.346336 0.010000
18.092752 -1.638186 0.201881 0.020000
11.120874 -3.452560 0.321939 0.320000
5.236350 1.976471 0.116758 0.040000
5.465602 1.495776 0.115570 0.030000
5.624676 1.023739 0.114230 0.100000
5.798185 0.582003 0.108041 0.030000
5.797192 0.111901 0.106291 0.050000
5.806115 -0.352992 0.099586 0.040000
5.755350 -0.834013 0.087665 0.040000
5.544109 -1.293140 0.085407 0.110000
55.618607 33.788399 6.801594 0.020000
43.472134 18.339460 4.962441 0.020000
57.254131 15.858844 6.114206 0.060000
11.154968 1.394806 1.470059 0.200000
34.705532 0.773082 3.614244 0.230000
7.617560 -0.552020 1.108585 0.350000
11.289251 -3.528603 1.482108 0.640000
11.446893 5.880039 0.437484 0.150000
13.092253 4.836457 0.412899 0.030000
8.931348 1.960913 0.486349 1.000000
11.008068 1.375765 0.439595 0.070000
13.229440 0.288300 0.391350 0.010000
13.291490 -1.120706 0.371274 0.040000
11.170869 -3.456732 0.357055 0.320000
5.325280 2.033184 0.117201 0.040000
5.554819 1.537492 0.115958 0.040000
5.729081 1.055745 0.114622 0.120000
5.907794 0.604124 0.103409 0.030000
5.907076 0.119006 0.106604 0.050000
5.911287 -0.360980 0.099831 0.040000
5.840621 -0.847382 0.087838 0.040000
5.639762 -1.326314 0.085534 0.120000
55.398647 33.753372 7.020892 0.020000
50.886627 21.693533 5.954273 0.050000
57.262337 15.923243 6.324470 0.060000
11.134798 1.399310 1.500024 0.220000
34.849480 0.810350 3.749760 0.280000
7.587431 -0.547652 1.123523 0.440000
145.845413 -33.853672 14.450743 0.020000
11.298954 -3.518562 1.522171 0.760000
11.401976 5.869012 0.482326 0.130000
13.106736 4.856555 0.463012 0.030000
8.906275 1.960323 0.516282 0.020000
11.022782 1.385921 0.474671 0.090000
13.259029 0.303704 0.436485 0.010000
13.250997 -1.101643 0.416240 0.020000
13.410092 -2.613735 0.376034 0.000000
11.225946 -3.465826 0.397165 0.390000
5.424016 2.100086 0.117708 0.040000
5.653842 1.589398 0.116409 0.040000
5.823476 1.087540 0.119987 0.110000
6.017377 0.626208 0.108778 0.030000
6.017056 0.121113 0.106899 0.040000
6.026457 -0.368775 0.100103 0.040000
5.966173 -0.874983 0.088063 0.040000
5.735402 -1.359506 0.090660 0.120000
43.922482 26.551271 5.884152 0.020000
50.889729 21.757687 6.204523 0.060000
57.235538 15.981823 6.574620 0.040000
11.139502 1.409255 1.540074 0.220000
34.873631 0.835304 3.889917 0.210000
7.582271 -0.542841 1.148528 0.490000
45.041180 -10.045689 4.911019 0.000000
11.293672 -3.508790 1.557194 0.770000
11.386861 5.868557 0.527285 0.160000
14.703135 5.577146 0.499858 0.100000
8.916003 1.970401 0.546345 0.020000
11.047495 1.396268 0.509774 0.100000
13.233821 0.308057 0.481436 0.010000
13.255769 -1.096734 0.466271 0.030000
13.414865 -2.608826 0.426065 0.000000
11.255932 -3.470399 0.437227 0.490000
5.522655 2.171988 0.118233 0.050000
5.767849 1.641572 0.121901 0.040000
5.957697 1.130136 0.115495 0.110000
6.136971 0.648503 0.109173 0.030000
6.136937 0.128410 0.107239 0.050000
6.151626 -0.376379 0.100401 0.040000
6.061525 -0.893178 0.093245 0.030000
5.856255 -1.402181 0.085817 0.100000
43.733292 26.481977 6.063403 0.030000
50.922794 21.827507 6.429871 0.060000
48.294922 13.422820 5.811762 0.040000
11.134302 1.414010 1.580078 0.210000
35.282715 0.862502 4.066088 0.220000
7.562127 -0.538300 1.168492 0.420000
44.960083 -10.012859 5.080932 0.000000
11.313646 -3.513573 1.602229 0.780000
11.376745 5.868198 0.572258 0.160000
14.702896 5.581941 0.554876 0.030000
8.925839 1.975498 0.571390 0.010000
11.047308 1.401137 0.544792 0.100000
13.243606 0.313080 0.526480 0.010000
13.320735 -1.100656 0.511426 0.010000
13.394547 -2.599397 0.476047 0.000000
11.260814 -3.470470 0.482240 0.460000
5.611572 2.228683 0.123676 0.040000
5.901783 1.699166 0.117465 0.040000
6.101903 1.172905 0.116031 0.110000
6.286573 0.671390 0.104648 0.030000
6.286909 0.131283 0.107641 0.050000
6.281888 -0.388887 0.100695 0.040000
6.207169 -0.925394 0.093505 0.030000
5.946896 -1.435469 0.090930 0.090000
43.687874 26.475372 6.263261 0.020000
50.961609 21.857412 6.660086 0.050000
57.198418 16.024342 7.059686 0.030000
11.114214 1.413497 1.615024 0.220000
35.392220 0.869068 4.211400 0.250000
44.904297 -9.999640 5.275837 0.010000
11.293449 -3.509105 1.642193 0.710000
11.396432 5.878412 0.617348 0.170000
13.096059 4.870803 0.613039 0.020000
11.062201 1.401275 0.584832 0.110000
13.233490 0.312721 0.571453 0.020000
13.394429 -2.599564 0.521047 0.010000
11.260709 -3.470619 0.522239 0.440000
5.759832 2.321557 0.119408 0.050000
6.040607 1.761836 0.118060 0.040000
6.271022 1.221171 0.111651 0.110000
6.456062 0.699641 0.105196 0.030000
6.461793 0.139652 0.103129 0.040000
6.457253 -0.405513 0.096091 0.040000
6.337815 -0.957898 0.093725 0.020000
6.098017 -1.492585 0.091112 0.090000
43.746304 26.525658 6.493603 0.020000
45.786015 19.549404 6.222991 0.030000
47.960396 13.345098 6.165604 0.030000
11.089236 1.407907 1.644938 0.220000
35.456829 0.869774 4.356572 0.170000
7.551916 -0.533659 1.213483 0.080000
44.858738 -9.996173 5.455733 0.010000
11.283238 -3.504465 1.687184 0.480000
11.391398 5.873131 0.667316 0.170000
13.086026 4.865427 0.662993 0.020000
11.042113 1.400762 0.619778 0.100000
13.248369 0.312841 0.616493 0.020000
13.165146 -1.083963 0.601083 0.010000
13.469572 -2.613311 0.571192 0.020000
11.275698 -3.475479 0.562261 0.450000
5.898177 2.409222 0.120095 0.050000
6.219150 1.840287 0.113818 0.050000
6.420228 1.264036 0.112200 0.130000
6.600652 0.722414 0.105658 0.030000
6.641773 0.143118 0.098612 0.050000
6.602595 -0.422751 0.101406 0.040000
6.508563 -0.994616 0.089034 0.020000
6.233950 -1.539990 0.091290 0.090000
43.834385 26.596569 6.709099 0.020000
44.070297 18.791504 6.190695 0.030000
47.969791 13.349564 6.360647 0.040000
11.114018 1.413218 1.690023 0.170000
36.106064 0.886441 4.568331 0.100000
7.526868 -0.534213 1.233416 0.080000
44.803112 -9.987860 5.625620 0.000000
11.430795 5.898726 0.712514 0.150000
14.657844 5.560451 0.724680 0.050000
13.123042 3.190730 0.686865 0.010000
11.072016 1.401206 0.654858 0.100000
13.228256 0.312291 0.661439 0.020000
13.245205 -1.092596 0.646261 0.040000
13.379088 -2.595206 0.616024 0.020000
11.260500 -3.470916 0.602238 0.510000
6.056327 2.507268 0.120872 0.060000
6.353058 1.897843 0.119381 0.050000
6.589334 1.312283 0.112821 0.160000
6.775236 0.745762 0.106200 0.030000
6.796731 0.146068 0.104027 0.050000
6.782958 -0.439281 0.096815 0.050000
6.654302 -1.031832 0.089277 0.030000
6.420462 -1.616413 0.086493 0.110000
43.706131 26.478413 6.893327 0.030000
44.258743 18.844334 6.406386 0.040000
45.533745 12.613165 6.246549 0.030000
11.109024 1.407993 1.724991 0.150000
36.056297 0.854987 4.703085 0.180000
7.511914 -0.539573 1.253357 0.070000
40.067772 -8.916948 5.232236 0.020000
11.460576 5.904132 0.757612 0.140000
14.687695 5.560821 0.779760 0.160000
13.118117 3.180469 0.731814 0.000000
11.052107 1.390676 0.694768 0.100000
13.135108 -1.094870 0.690965 0.060000
11.275681 -3.485775 0.642223 0.530000
6.199767 2.590030 0.121554 0.070000
6.546597 1.976582 0.115179 0.060000
6.758536 1.355532 0.113424 0.140000
6.959818 0.769301 0.106770 0.030000
6.961796 0.144229 0.104451 0.060000
6.918399 -0.461710 0.102085 0.050000
6.830227 -1.078470 0.089562 0.030000
6.566680 -1.678624 0.086643 0.090000
43.661930 26.406784 7.102947 0.030000
44.412659 18.871479 6.626891 0.040000
46.727158 12.919809 6.595808 0.070000
35.931484 0.827152 4.822658 0.180000
7.491866 -0.540031 1.273303 0.120000
39.802006 -8.897511 5.361617 0.020000
11.394207 -3.572847 1.822221 0.080000
11.495356 5.909634 0.802724 0.120000
14.677923 5.540410 0.839659 0.110000
13.133175 3.170572 0.781817 0.000000
11.077106 1.386026 0.729816 0.090000
31.457800 0.730500 0.980581 0.030000
13.175271 -1.109268 0.736017 0.200000
13.399494 -2.630188 0.715948 0.010000
11.245568 -3.486517 0.687142 0.470000
6.367902 2.688249 0.127358 0.070000
6.710308 2.044711 0.120860 0.060000
6.937736 1.398971 0.114053 0.160000
7.129499 0.787554 0.107280 0.030000
7.131860 0.142485 0.104889 0.060000
7.088833 -0.483468 0.107449 0.050000
6.976050 -1.120704 0.094786 0.030000
6.743180 -1.755257 0.086819 0.080000
44.803749 27.052372 7.488332 0.040000
44.527390 18.857924 6.832142 0.050000
46.563881 12.806076 6.754961 0.060000
11.154094 1.393560 1.805056 0.070000
40.654243 0.884897 5.575208 0.320000
7.537079 -0.554259 1.298369 0.330000
39.657242 -8.930803 5.501116 0.030000
11.384487 -3.593184 1.862121 0.100000
13.076477 4.814520 0.857781 0.040000
13.153341 3.155790 0.826815 0.010000
11.067305 1.370707 0.764734 0.100000
30.898479 0.674375 1.088913 0.010000
13.120356 -1.120487 0.780832 0.200000
13.394665 -2.645448 0.760879 0.020000
11.205581 -3.492412 0.722016 0.500000
6.531242 2.776393 0.128112 0.080000
6.898931 2.118337 0.121626 0.060000
7.136836 1.447793 0.114754 0.140000
7.324066 0.811266 0.112876 0.030000
7.361913 0.141891 0.105487 0.050000
7.264375 -0.510110 0.107809 0.050000
7.141964 -1.167553 0.100045 0.030000
6.914586 -1.826987 0.087000 0.080000
44.711212 26.894838 7.687507 0.050000
44.816040 18.897577 7.073046 0.050000
50.229187 13.768839 7.478114 0.070000
11.149278 1.378319 1.844987 0.170000
40.710144 0.815351 5.740097 0.250000
7.467053 -0.555655 1.313181 0.390000
40.014870 -9.094771 5.716443 0.030000
11.374660 -3.608539 1.907038 0.260000
13.027756 6.823648 0.945123 0.050000
13.091823 4.789626 0.907729 0.070000
13.148608 3.135531 0.871728 0.000000
