# This PCD file was generated using the MATLAB® pcwrite function
# from Computer Vision Toolbox®.
# .PCD v.7 - Point Cloud Data file format
VERSION .7
FIELDS x y z intensity
SIZE 4 4 4 4
TYPE F F F F
COUNT 1 1 1 1
WIDTH 1285
HEIGHT 1
VIEWPOINT 0 0 0 1 0 0 0
POINTS 1285
DATA ascii
15.677555 -4.133401 1.146311 0.060000
10.573231 -3.930462 0.953740 0.140000
8.252066 3.269382 0.149437 0.120000
8.629557 2.361487 0.137047 0.060000
8.836683 1.470315 0.129275 0.110000
9.032949 0.623943 0.121641 0.030000
8.118762 -0.218953 0.181122 0.070000
8.730657 -1.087186 0.124491 0.030000
8.527106 -1.946199 0.110766 0.030000
8.037421 -2.750738 0.111497 0.090000
52.836121 27.141136 10.259657 0.060000
41.790485 14.392005 7.548404 0.060000
42.643696 8.778013 7.349760 0.050000
11.164926 0.792727 2.057853 0.150000
7.760204 -0.220642 1.495193 0.310000
40.629009 -12.082955 6.911950 0.010000
13.117817 3.913887 1.199544 0.020000
15.403793 2.832256 1.261491 0.000000
8.047153 -0.232875 0.875890 0.050000
11.563604 -1.601321 1.029984 0.280000
8.421145 3.317591 0.160057 0.330000
8.948143 2.437584 0.143162 0.050000
9.200945 1.512299 0.130382 0.100000
9.373078 0.620456 0.122516 0.030000
9.017327 -1.171710 0.124925 0.030000
8.703868 -2.037867 0.120887 0.030000
8.234958 -2.881996 0.116525 0.080000
52.599232 26.696009 10.397386 0.070000
42.945934 14.592922 7.892170 0.040000
42.741817 8.594292 7.504335 0.050000
11.165696 0.747605 2.092688 0.180000
7.770725 -0.250519 1.515110 0.960000
13.058506 5.692772 1.286003 0.050000
15.691957 4.742728 1.374346 0.020000
15.708797 2.827914 1.312272 0.000000
31.229643 2.312578 2.030877 0.030000
8.057769 -0.267751 0.895789 0.140000
11.519410 -1.647267 1.054698 0.330000
13.426408 -3.571378 1.132524 0.020000
8.436844 3.277793 0.184951 0.380000
9.281848 2.509006 0.139298 0.050000
9.490602 1.532850 0.131214 0.100000
9.693306 0.611587 0.123319 0.030000
9.611732 -0.350127 0.114531 0.030000
9.283907 -1.251619 0.125324 0.030000
8.941123 -2.153343 0.121077 0.030000
8.442698 -3.023043 0.116543 0.070000
8.387641 3.265799 1.834795 0.000000
43.094467 14.390218 8.031806 0.040000
41.859737 8.177453 7.465483 0.040000
11.211458 0.703345 2.127643 0.160000
7.721188 -0.276509 1.524884 0.960000
44.264423 -20.869816 8.233789 0.120000
13.074644 5.627923 1.325805 0.060000
13.100238 3.778288 1.263995 0.050000
31.232185 2.167271 2.120345 0.030000
7.973142 -0.289412 0.905487 0.190000
11.535300 -1.697063 1.079555 0.310000
8.457458 3.243109 0.204876 0.430000
9.595531 2.580008 0.145381 0.050000
9.810051 1.563955 0.137164 0.090000
9.958626 0.596648 0.128956 0.030000
9.862713 -0.400365 0.124999 0.030000
9.540570 -1.336737 0.130678 0.030000
9.268936 -2.297091 0.121398 0.030000
7.867749 -2.779249 0.180949 0.060000
8.324064 3.189531 1.844345 0.020000
46.271713 15.248652 8.743299 0.060000
41.903156 7.982810 7.584874 0.110000
7.721627 -0.301560 1.539792 0.900000
45.834293 -21.951500 8.658871 0.060000
8.203336 3.080206 1.023615 0.060000
31.264668 2.027594 2.194911 0.040000
7.948587 -0.314942 0.920328 0.210000
11.531098 -1.742244 1.104376 0.310000
13.463997 -3.715941 1.202085 0.030000
16.741459 -7.234546 1.402563 0.000000
8.483086 3.208539 0.219814 0.480000
9.859797 2.620057 0.151220 0.050000
10.065003 1.568838 0.137847 0.090000
10.244135 0.572093 0.134610 0.030000
10.098722 -0.450854 0.125428 0.040000
9.782250 -1.422124 0.130991 0.030000
9.506288 -2.417566 0.121570 0.030000
8.918921 -3.343997 0.121593 0.070000
8.314985 3.139293 1.859135 0.030000
46.728092 15.151606 8.954131 0.040000
42.424549 7.887045 7.785881 0.090000
7.692086 -0.327167 1.549620 0.350000
45.627579 -22.140913 8.772628 0.080000
8.238756 3.055807 1.043617 0.150000
13.206704 2.134982 1.273165 0.000000
13.223706 0.730169 1.237986 0.020000
7.934125 -0.345280 0.935178 0.240000
11.572080 -1.796560 1.129281 0.240000
16.117317 -4.670918 1.375463 0.020000
13.572507 -5.734476 1.264866 0.030000
8.483800 3.168472 0.239668 0.380000
10.173575 2.686060 0.157284 0.040000
10.339830 1.579067 0.148603 0.080000
10.504552 0.552058 0.140215 0.030000
10.304712 -0.501955 0.135775 0.030000
9.983732 -1.498297 0.136234 0.030000
9.738544 -2.533139 0.121747 0.030000
9.121758 -3.490139 0.121579 0.060000
8.355309 3.119989 1.879169 0.110000
43.663422 13.869482 8.451360 0.060000
7.702620 -0.357025 1.564537 0.290000
44.047764 -21.620472 8.605437 0.070000
8.224582 3.010473 1.058412 0.220000
7.919581 -0.370599 0.945046 0.250000
11.618155 -1.855780 1.154182 0.190000
13.441061 -3.831602 1.256596 0.030000
13.493031 -5.766095 1.289541 0.030000
8.504332 3.138805 0.254611 0.540000
10.447758 2.731319 0.158168 0.040000
10.619586 1.594427 0.149390 0.070000
10.764982 0.532043 0.140821 0.030000
10.505620 -0.548134 0.141128 0.030000
10.190214 -1.574374 0.141490 0.030000
9.900417 -2.630074 0.126809 0.030000
9.304310 -3.621665 0.121567 0.070000
8.351049 3.079864 1.889009 0.090000
47.933861 15.068253 9.346972 0.010000
56.905743 10.184688 10.587251 0.010000
7.658094 -0.382901 1.569324 0.400000
43.891705 -21.838793 8.684219 0.080000
8.309526 3.012045 1.073640 0.600000
16.319836 4.568952 1.585342 0.010000
31.296818 1.627424 2.388510 0.050000
11.679229 -1.914712 1.179122 0.110000
13.437134 -3.891798 1.286363 0.050000
8.519947 3.104024 0.274523 0.520000
10.884428 1.604483 0.155119 0.080000
10.980504 0.506147 0.146287 0.020000
8.222410 -0.422370 0.280637 0.020000
10.366701 -1.651026 0.146666 0.030000
10.067386 -2.731913 0.131866 0.030000
9.497136 -3.768017 0.126526 0.060000
8.351681 3.044815 1.903880 0.060000
45.767147 14.137748 9.022855 0.090000
39.909470 6.854502 7.555475 0.020000
41.481014 2.078407 7.636824 0.020000
7.683529 -0.407473 1.584300 0.890000
11.376715 -3.249903 2.308381 0.000000
45.270016 -22.833948 9.059121 0.050000
8.295353 2.966710 1.088434 1.000000
16.330988 4.504025 1.620130 0.060000
31.319065 1.502626 2.443104 0.040000
7.890397 -0.416240 0.964801 0.050000
10.926587 2.795464 0.169657 0.050000
11.099483 1.603601 0.155677 0.090000
11.186028 0.480060 0.151726 0.030000
8.227862 -0.447307 0.290559 0.070000
10.523001 -1.718063 0.151825 0.030000
10.234258 -2.828752 0.136942 0.030000
9.639504 -3.890312 0.126443 0.060000
45.428562 13.801240 9.010719 0.100000
11.158732 1.606945 2.280866 0.010000
41.713642 1.927414 7.751871 0.020000
7.628827 -0.423524 1.584097 0.880000
11.312181 -3.276181 2.318115 0.000000
45.092537 -22.977648 9.133124 0.060000
8.325595 2.952232 1.103460 0.650000
17.406368 2.664204 1.641098 0.000000
31.346148 1.387959 2.487749 0.050000
7.880851 -0.441464 0.974682 0.050000
32.485538 -6.406835 2.526748 0.140000
11.165968 2.830055 0.170410 0.030000
11.194822 1.585387 0.165858 0.140000
11.391564 0.453992 0.152166 0.020000
8.183228 -0.468202 0.300365 0.100000
10.689298 -1.784908 0.157010 0.030000
10.365849 -2.911265 0.141979 0.030000
9.781669 -4.002627 0.131397 0.060000
45.441933 13.616225 9.075068 0.050000
11.209150 1.582833 2.300908 0.060000
41.506817 1.758386 7.760703 0.010000
7.639278 -0.448365 1.594032 0.350000
11.318003 -3.321132 2.332963 1.000000
45.046974 -23.218800 9.197110 0.050000
8.355960 2.932792 1.108467 0.580000
17.437460 2.604716 1.660958 0.000000
31.343273 1.272774 2.517314 0.050000
7.866224 -0.461766 0.979568 0.050000
32.437878 -6.532862 2.551155 0.050000
33.222813 -11.228915 2.605748 0.010000
11.370642 2.848978 0.171015 0.040000
11.155762 1.534594 0.175568 0.220000
11.552192 0.422044 0.157467 0.020000
8.193692 -0.493025 0.305300 0.040000
10.820615 -1.852405 0.157102 0.020000
10.482456 -2.994046 0.141975 0.030000
9.863283 -4.086079 0.131300 0.070000
39.766487 1.536007 7.485331 0.020000
7.594587 -0.464205 1.588856 0.340000
43.984436 -9.388058 8.250740 0.000000
11.253398 -3.342373 2.332716 0.040000
45.056759 -23.478933 9.271170 0.020000
8.371506 2.903048 1.118397 0.460000
18.500315 2.714779 1.749142 0.000000
31.370394 1.158163 2.546959 0.050000
7.841599 -0.482259 0.984428 0.120000
33.230595 -11.378922 2.640211 0.070000
11.115354 4.164266 0.190238 0.110000
11.096597 1.488397 0.190242 0.320000
11.727734 0.395402 0.157826 0.030000
10.926744 -1.910383 0.157164 0.020000
10.543581 -3.052904 0.146916 0.020000
9.945075 -4.179547 0.136166 0.060000
11.215548 1.507887 2.315647 0.140000
39.294785 1.367145 7.428471 0.050000
7.610037 -0.488950 1.598805 0.260000
43.907452 -9.549652 8.274939 0.020000
11.259329 -3.392305 2.342546 0.040000
11.361141 -5.071165 2.476572 0.000000
8.426661 2.894066 1.128507 0.340000
11.308694 1.493574 1.250826 0.000000
31.377544 1.043207 2.566550 0.050000
7.826985 -0.502543 0.984314 0.060000
18.868980 -3.734263 1.716131 0.010000
33.329029 -11.562197 2.674787 0.020000
11.546254 2.817299 0.181355 0.030000
10.972551 1.435976 0.199723 0.260000
11.768493 0.356175 0.157786 0.030000
11.411352 -0.840894 0.157404 0.030000
10.962587 -1.954722 0.162092 0.020000
10.579629 -3.107224 0.146808 0.020000
9.991312 -4.243673 0.136048 0.050000
51.763905 22.941450 11.171256 0.090000
50.412766 14.517771 10.131405 0.060000
38.892906 1.209659 7.361835 0.050000
7.585438 -0.509407 1.593665 0.320000
43.860596 -9.715615 8.284200 0.020000
11.326805 -5.106847 2.481350 0.010000
17.823719 4.611991 1.799429 0.000000
11.209670 1.441668 1.250374 0.000000
31.379721 0.928191 2.576128 0.010000
7.817358 -0.522749 0.989214 0.060000
18.463642 -3.716932 1.690137 0.000000
33.352066 -11.721820 2.684254 0.110000
11.280788 4.142412 0.195588 0.100000
11.591821 2.788167 0.181366 0.030000
11.068109 1.407801 0.199868 0.370000
11.764247 0.316069 0.162626 0.020000
11.397026 -0.876175 0.157236 0.020000
10.953356 -1.994906 0.161919 0.020000
10.560303 -3.142600 0.146627 0.020000
9.992270 -4.293664 0.135865 0.050000
40.893456 17.700661 8.853375 0.080000
50.436962 14.298177 10.135652 0.130000
11.271839 1.438898 2.330537 0.030000
38.755844 1.057062 7.345911 0.040000
7.565825 -0.529786 1.593538 0.660000
43.808933 -9.891673 8.293410 0.010000
11.366817 -3.525380 2.372332 0.020000
11.292496 -5.142492 2.476128 0.010000
18.203007 4.649170 1.825558 0.000000
11.225434 1.401963 1.250268 1.000000
7.802852 -0.548013 0.984082 0.060000
18.098392 -3.703833 1.664232 0.000000
33.360130 -11.881694 2.683681 0.100000
11.247041 4.076755 0.195256 0.080000
11.513081 2.721647 0.180913 0.030000
10.949089 1.355512 0.199363 0.280000
11.665032 0.274161 0.162212 0.030000
11.297523 -0.903085 0.156876 0.030000
10.848567 -2.006915 0.161601 0.020000
10.430122 -3.135110 0.151315 0.020000
9.851625 -4.261352 0.135618 0.050000
41.546741 17.782839 8.950387 0.030000
11.212765 1.392832 2.310212 0.130000
38.928577 0.915327 7.350834 0.050000
7.561222 -0.549859 1.588451 1.120000
43.837540 -10.076066 8.267799 0.010000
11.347518 -3.560719 2.362150 0.030000
18.353580 4.622086 1.815850 0.000000
11.201244 1.361548 1.235054 1.000000
31.389219 0.698461 2.540299 0.020000
7.773171 -0.563547 0.973947 0.110000
11.354861 -3.521337 1.207304 0.040000
34.491142 -18.206682 2.808122 0.010000
11.094306 1.348366 0.179715 0.440000
11.490748 0.235835 0.156614 0.020000
11.027575 -0.908256 0.156152 0.030000
10.582946 -1.976997 0.161019 0.020000
10.234406 -3.098834 0.145939 0.030000
9.614849 -4.170870 0.135336 0.050000
44.340885 18.829758 9.446578 0.050000
11.198490 1.357626 2.290043 0.310000
38.721420 0.781776 7.229796 0.020000
7.556550 -0.564896 1.573383 1.080000
43.845566 -10.220590 8.172282 0.010000
11.348241 -3.595638 2.342022 0.050000
11.294394 -5.237363 2.445780 0.000000
29.640079 12.091260 2.773086 0.220000
18.916834 4.717872 1.822677 0.000000
11.082194 1.314351 1.209568 0.130000
8.174738 0.139213 0.992608 0.000000
7.838651 -0.587279 0.969030 0.220000
17.030756 -3.558796 1.536983 0.000000
11.320413 -3.546909 1.182118 0.120000
10.708013 3.761412 0.182677 0.080000
10.892714 2.474741 0.173376 0.030000
11.091315 0.203198 0.150450 0.030000
10.702360 -0.899465 0.150336 0.030000
10.282057 -1.932733 0.155398 0.020000
9.927560 -3.004675 0.140488 0.020000
9.337327 -4.041144 0.130094 0.050000
50.891407 21.571424 10.638880 0.050000
11.044525 1.309870 2.234463 0.390000
7.893215 0.126472 1.631832 0.000000
7.551877 -0.579933 1.558314 1.120000
11.323708 -3.616002 2.311882 0.040000
11.295047 -5.267245 2.415670 0.000000
29.661953 12.007012 2.677829 0.170000
19.285788 4.780058 1.793871 0.000000
11.077657 1.294371 1.179481 0.280000
7.778823 -0.593334 0.943851 0.270000
13.424739 -2.721792 1.280679 0.010000
11.245421 -3.543216 1.146936 0.220000
13.632587 -6.528667 1.317071 0.010000
8.530995 2.789199 0.268381 0.030000
10.460286 2.336434 0.171733 0.030000
10.661779 0.174966 0.149224 0.030000
10.346865 -0.876251 0.144494 0.030000
9.970896 -1.873646 0.144805 0.020000
9.575243 -2.886384 0.135008 0.020000
8.943472 -3.843652 0.129800 0.060000
43.395439 18.133417 8.926516 0.050000
11.059888 1.295272 2.204449 0.400000
7.918441 0.117008 1.616863 0.020000
7.562106 -0.589684 1.543305 0.940000
11.293818 -3.616427 2.271802 0.050000
11.320791 -5.301649 2.385609 0.000000
13.203738 3.064888 1.331614 0.010000
11.053027 1.279006 1.149360 0.380000
13.228741 0.205136 1.246048 0.020000
13.409955 -2.726911 1.235621 0.010000
11.220518 -3.543565 1.111869 0.190000
13.638184 -6.553400 1.271993 0.020000
8.551152 2.784676 0.243417 0.050000
10.087502 2.219329 0.155324 0.030000
10.222805 1.161752 0.146746 0.080000
10.232064 0.156752 0.143034 0.030000
9.956184 -0.843709 0.138595 0.030000
9.604348 -1.795633 0.139138 0.020000
9.232829 -2.762901 0.129573 0.020000
8.640284 -3.679411 0.124619 0.060000
41.444500 17.197922 8.362940 0.040000
11.050268 1.280213 2.169367 0.440000
7.848737 0.105800 1.581639 0.030000
7.557255 -0.594705 1.523273 0.900000
11.299099 -3.626200 2.236779 0.050000
11.326086 -5.311402 2.345586 0.010000
13.056747 4.732349 1.342429 0.030000
13.149249 3.044006 1.286394 0.040000
11.013413 1.263373 1.114198 0.410000
16.358320 0.239639 1.374346 0.020000
7.789200 -0.608010 0.908823 0.060000
13.405252 -2.736856 1.195572 0.010000
11.215706 -3.548530 1.076838 0.190000
11.247161 -5.193309 1.095806 0.010000
8.541315 2.779578 0.218372 0.070000
9.704600 2.106994 0.148907 0.030000
9.853846 1.104694 0.140571 0.070000
9.867254 0.144800 0.132038 0.030000
9.630588 -0.814921 0.132852 0.030000
9.292982 -1.726566 0.133582 0.020000
8.870227 -2.629804 0.124121 0.030000
8.276423 -3.481345 0.124405 0.050000
41.515289 17.179861 8.203056 0.040000
11.060454 1.275536 2.134376 0.440000
7.873772 0.106334 1.566706 0.040000
7.577399 -0.599246 1.503309 0.670000
11.294300 -3.631146 2.196748 0.060000
11.341558 -5.330981 2.310553 0.010000
13.047250 4.712328 1.297329 0.030000
11.028598 1.258791 1.079220 0.620000
16.363655 0.229941 1.319324 0.020000
7.789349 -0.612935 0.888805 0.050000
13.390469 -2.741975 1.150514 0.010000
13.638814 -6.573042 1.176921 0.020000
8.536490 2.774595 0.188340 0.110000
9.336490 2.004926 0.147567 0.030000
9.479791 1.052539 0.134401 0.070000
9.552326 0.138785 0.126193 0.030000
9.239716 -0.772381 0.126990 0.020000
8.931242 -1.638460 0.127965 0.030000
8.522512 -2.491438 0.123728 0.020000
8.023718 -3.341123 0.114267 0.050000
41.590595 17.186892 8.043277 0.050000
11.075529 1.275935 2.104417 0.460000
7.923897 0.102349 1.551822 0.090000
7.582546 -0.604075 1.483304 0.610000
11.294392 -3.631016 2.161748 0.060000
11.346662 -5.330737 2.270567 0.000000
13.104972 3.018483 1.196182 0.010000
11.053671 1.259382 1.049287 0.500000
16.363787 0.230127 1.269324 0.010000
7.804398 -0.612573 0.868845 0.050000
13.395668 -2.746730 1.110509 0.020000
11.120358 -3.520057 0.996694 0.080000
13.618770 -6.563223 1.121904 0.020000
8.551456 2.779974 0.163399 0.130000
8.958489 1.897687 0.141182 0.030000
9.085823 0.994984 0.133158 0.080000
9.177397 0.131604 0.125188 0.030000
8.959110 -0.742731 0.121368 0.030000
8.614673 -1.559509 0.127433 0.030000
8.235363 -2.381918 0.123385 0.030000
7.760796 -3.191132 0.114138 0.070000
41.591354 17.172564 7.863224 0.080000
11.055734 1.270701 2.064345 0.450000
7.908966 0.102154 1.526782 0.110000
7.567505 -0.599289 1.463282 0.730000
11.309589 -3.635579 2.121770 0.050000
15.036246 5.565554 1.310693 0.020000
13.134988 3.024224 1.151282 0.010000
11.048777 1.259435 1.009274 0.470000
7.809462 -0.612384 0.843859 0.060000
13.420877 -2.751083 1.065558 0.010000
11.120449 -3.519927 0.961694 0.090000
13.639089 -6.572652 1.071922 0.010000
8.437393 2.732854 0.142926 0.110000
8.630084 1.811382 0.140004 0.030000
8.776660 0.949073 0.127181 0.070000
8.842363 0.130187 0.124308 0.030000
8.608314 -0.704443 0.120594 0.030000
8.293200 -1.485653 0.126868 0.020000
7.953115 -2.267304 0.123075 0.030000
7.523170 -3.055640 0.109022 0.060000
44.670471 18.500412 8.246202 0.040000
11.060823 1.270927 2.029359 0.490000
7.899033 0.102056 1.501755 0.120000
7.597648 -0.603639 1.443345 0.710000
11.309598 -3.630431 2.081789 0.050000
42.298569 -23.350208 7.484430 0.020000
14.892484 5.508010 1.250103 0.060000
13.159991 3.029850 1.111367 0.020000
11.048855 1.259546 0.979275 0.410000
7.829607 -0.616926 0.823894 0.150000
11.155821 -3.534124 0.926734 0.130000
13.649422 -6.582254 1.016913 0.020000
8.134845 2.602037 0.141650 0.100000
8.336590 1.730765 0.133938 0.030000
8.462390 0.908047 0.126208 0.080000
8.522423 0.124059 0.123450 0.030000
8.282499 -0.665694 0.124888 0.030000
8.051916 -1.420244 0.121481 0.030000
7.746552 -2.186209 0.112837 0.030000
7.341014 -2.944091 0.103961 0.070000
44.075844 18.255043 7.953734 0.070000
11.080803 1.276421 1.999431 0.490000
7.913986 0.107416 1.481814 0.070000
7.607603 -0.598374 1.423390 0.650000
40.969685 -9.704379 6.476676 0.010000
11.304511 -3.620380 2.041813 0.050000
42.394199 -23.357737 7.309649 0.010000
14.818133 5.481802 1.189811 0.100000
13.120116 3.029252 1.066261 0.030000
11.058848 1.264867 0.944320 0.380000
7.879745 -0.620893 0.804010 0.200000
13.415920 -2.740846 0.975582 0.010000
11.175921 -3.533592 0.886788 0.180000
13.654346 -6.571993 0.971963 0.040000
7.832201 2.476219 0.140392 0.100000
8.072885 1.660702 0.132989 0.040000
8.168020 0.872403 0.125307 0.070000
8.247378 0.123791 0.122731 0.030000
8.071977 -0.639703 0.119435 0.030000
7.825809 -1.364564 0.121098 0.020000
7.565065 -2.109653 0.107647 0.030000
7.159049 -2.842540 0.098863 0.070000
44.720375 18.557734 7.876541 0.030000
11.045914 1.275899 1.959338 0.560000
7.612654 -0.598204 1.403404 0.570000
40.949409 -9.669211 6.326753 0.030000
11.334680 -3.624693 2.011875 0.060000
14.788282 5.481431 1.134731 0.090000
13.120043 3.039417 1.021298 0.030000
11.053736 1.274881 0.914344 0.430000
13.259588 0.201790 0.956113 0.000000
7.839626 -0.611568 0.778940 0.280000
16.646297 -3.519282 1.026121 0.010000
11.170727 -3.518561 0.851830 0.270000
13.628920 -6.542274 0.917007 0.020000
7.569167 2.371163 0.139315 0.100000
7.828997 1.601039 0.127130 0.040000
7.913547 0.842525 0.124532 0.090000
7.982346 0.123733 0.117039 0.030000
7.851360 -0.608905 0.113974 0.030000
7.654908 -1.317792 0.110826 0.030000
7.368473 -2.028404 0.107436 0.030000
6.981878 -2.730913 0.098816 0.070000
44.586128 18.545914 7.671144 0.070000
195.586273 54.157497 30.452911 0.140000
11.055812 1.286219 1.924402 0.560000
7.617609 -0.593035 1.383436 0.730000
40.948994 -9.623588 6.156919 0.020000
11.349686 -3.619258 1.971934 0.050000
13.067307 4.748746 1.017514 0.060000
17.989628 4.397551 1.139059 0.040000
11.048650 1.284932 0.874367 0.450000
13.329488 0.213277 0.916338 0.000000
16.701443 -3.518005 0.966270 0.010000
11.175735 -3.513317 0.811862 0.290000
13.608493 -6.512458 0.862064 0.030000
7.390568 2.297766 0.128576 0.110000
7.600094 1.541645 0.126312 0.040000
7.713980 0.818717 0.118922 0.090000
7.777301 0.124825 0.111508 0.030000
7.645741 -0.577819 0.108552 0.030000
7.463890 -1.266441 0.110518 0.030000
7.161800 -1.942328 0.102217 0.030000
6.789627 -2.614556 0.093746 0.080000
44.466602 18.549395 7.460843 0.070000
11.060615 1.301442 1.889470 0.610000
7.647560 -0.587387 1.363535 0.870000
41.721771 -9.753610 6.103453 0.020000
11.349407 -3.599113 1.932008 0.050000
13.081955 4.774214 0.967647 0.130000
17.860121 4.380324 1.068656 0.050000
11.043647 1.289965 0.839373 0.390000
13.239444 0.221738 0.866134 0.000000
13.076043 -1.166600 0.850546 0.140000
13.385321 -2.690928 0.840687 0.010000
11.185645 -3.502979 0.771926 0.310000
15.706342 -7.682414 0.843190 0.150000
7.137436 2.197900 0.127544 0.110000
7.401007 1.492842 0.120611 0.040000
7.479407 0.794220 0.118219 0.100000
7.557150 0.130610 0.110955 0.030000
7.425111 -0.547039 0.108091 0.030000
7.207500 -1.196339 0.110109 0.030000
7.000406 -1.870388 0.097063 0.040000
6.607457 -2.503025 0.093685 0.080000
44.857487 18.787436 7.322747 0.070000
56.994003 15.514671 8.602274 0.090000
11.050529 1.311397 1.849481 0.520000
43.499451 0.812046 6.217370 0.060000
7.652515 -0.582218 1.343567 0.900000
39.641453 -9.171698 5.650181 0.030000
11.369316 -3.588583 1.892098 0.050000
13.081702 4.794396 0.917720 0.080000
17.730425 4.373096 0.998290 0.050000
13.085858 -1.151263 0.810628 0.160000
13.445427 -2.689612 0.795848 0.020000
11.210541 -3.492372 0.737030 0.260000
15.670547 -7.632871 0.783280 0.370000
6.968631 2.134675 0.121868 0.110000
7.176911 1.443541 0.119843 0.040000
7.294743 0.775698 0.112668 0.090000
7.342095 0.131491 0.110397 0.040000
7.199470 -0.516373 0.112616 0.040000
7.026480 -1.144797 0.109828 0.040000
6.803718 -1.784140 0.096870 0.040000
6.450570 -2.406013 0.093637 0.090000
45.426533 19.118795 7.215463 0.040000
50.201115 13.678560 7.402705 0.110000
11.174983 1.343860 1.829926 0.670000
40.675129 0.824920 5.675040 0.040000
7.662374 -0.571954 1.323630 1.090000
39.705750 -9.114944 5.510559 0.040000
11.343863 -3.558900 1.847142 0.050000
43.323589 -23.461912 6.481680 0.020000
17.660416 4.381995 0.933139 0.040000
11.058156 1.325506 0.769542 0.100000
31.464027 0.655313 1.060319 0.010000
13.135679 -1.135141 0.765818 0.150000
13.364697 -2.645985 0.750799 0.030000
11.255636 -3.491361 0.697151 0.280000
15.669950 -7.592637 0.718428 0.140000
6.760107 2.055667 0.121030 0.120000
6.997725 1.400120 0.114214 0.040000
7.085152 0.751662 0.117031 0.110000
7.161937 0.138042 0.109951 0.040000
7.038938 -0.489424 0.107297 0.040000
6.845460 -1.093255 0.109547 0.030000
6.662498 -1.721833 0.096733 0.040000
6.303777 -2.313808 0.093596 0.090000
44.657185 18.860153 6.902490 0.080000
46.804295 12.790788 6.725531 0.070000
35.942085 0.781980 4.922518 0.030000
7.672246 -0.561672 1.298694 1.070000
39.739738 -9.038673 5.345929 0.040000
11.333504 -3.533929 1.802207 0.030000
43.458031 -23.403593 6.282245 0.030000
14.717411 5.566134 0.849858 0.180000
13.128929 3.130465 0.786657 0.050000
11.062972 1.340747 0.729611 0.130000
31.468216 0.715880 0.930553 0.010000
13.125415 -1.115169 0.720865 0.130000
11.280544 -3.480736 0.657255 0.330000
6.601191 1.997613 0.120400 0.110000
6.798515 1.356279 0.118531 0.040000
6.930386 0.738714 0.111579 0.090000
6.966782 0.144306 0.109465 0.040000
6.863396 -0.462781 0.106938 0.040000
6.714635 -1.050734 0.104364 0.030000
6.470796 -1.635508 0.101554 0.060000
6.187278 -2.236007 0.088581 0.100000
44.288780 18.809023 6.646336 0.070000
46.509678 12.801008 6.489798 0.110000
11.124722 1.368195 1.749884 0.170000
35.991100 0.853445 4.782910 0.030000
39.974567 -9.008676 5.211652 0.030000
11.282672 -3.484729 1.757257 0.050000
43.567043 -23.325832 6.102817 0.030000
14.696996 5.595968 0.789915 0.130000
17.356016 4.366657 0.797286 0.050000
11.067678 1.360970 0.694698 0.130000
13.338348 0.304288 0.691697 0.010000
13.155144 -1.094431 0.676019 0.090000
13.364082 -2.600641 0.655965 0.010000
11.310356 -3.465015 0.617391 0.360000
6.432290 1.939387 0.114742 0.120000
6.629230 1.318048 0.112947 0.040000
6.725711 0.719791 0.110975 0.100000
6.816631 0.151450 0.104099 0.040000
6.702864 -0.435833 0.101619 0.050000
6.538614 -0.999096 0.104096 0.030000
6.334589 -1.573087 0.096430 0.040000
6.030295 -2.133995 0.088551 0.090000
43.964729 18.788656 6.415411 0.100000
47.949635 13.338681 6.495555 0.070000
11.104447 1.387957 1.709905 0.370000
35.310349 0.916207 4.566365 0.020000
7.701962 -0.540952 1.258848 0.280000
44.754013 -10.033772 5.615321 0.020000
11.292295 -3.459394 1.717376 0.050000
43.665630 -23.223192 5.903454 0.040000
17.191326 4.358758 0.726826 0.070000
11.082289 1.386382 0.659830 0.130000
31.161478 0.835870 0.700196 0.010000
13.373636 -2.570269 0.606102 0.040000
11.299888 -3.435064 0.577474 0.420000
13.580321 -6.301768 0.537770 0.020000
6.258568 1.871047 0.114035 0.120000
6.454934 1.279704 0.112349 0.040000
6.570932 0.706824 0.110522 0.090000
6.641472 0.158096 0.103667 0.040000
6.552304 -0.408730 0.106327 0.050000
6.397778 -0.956786 0.103886 0.020000
6.163075 -1.496376 0.101268 0.040000
5.893596 -2.046598 0.088519 0.100000
51.065033 22.127497 7.191365 0.050000
47.758877 13.405809 6.285305 0.050000
11.134054 1.413657 1.675077 0.430000
35.304169 0.996598 4.431646 0.020000
7.716723 -0.525593 1.238943 0.300000
44.812611 -9.937027 5.450832 0.020000
11.332201 -3.448481 1.677520 0.040000
43.860012 -23.163799 5.724180 0.050000
13.137568 3.221160 0.647015 0.040000
11.012118 1.400187 0.619698 0.080000
30.845522 0.900289 0.574610 0.030000
11.906766 -0.917997 0.588415 0.060000
13.342993 -2.530684 0.561169 0.050000
11.304512 -3.409824 0.537580 0.400000
6.114457 1.823279 0.113481 0.100000
6.290526 1.246531 0.116797 0.040000
6.396156 0.693474 0.110016 0.080000
6.471300 0.164820 0.108247 0.030000
6.386760 -0.381896 0.105994 0.040000
6.266940 -0.914284 0.103703 0.030000
6.041948 -1.438686 0.101166 0.050000
5.772086 -1.968911 0.088490 0.080000
8.555157 2.930396 1.438981 0.000000
57.191605 16.358721 7.210913 0.050000
11.123572 1.443590 1.640161 0.350000
35.287598 1.096775 4.301974 0.040000
7.741580 -0.515042 1.219047 0.320000
44.915760 -9.814370 5.271555 0.010000
44.023548 -23.059971 5.539991 0.060000
8.453193 2.886461 0.613543 0.030000
16.762115 4.330992 0.600601 0.060000
11.051532 1.436077 0.584934 0.100000
11.876192 -0.883448 0.553464 0.080000
18.787054 -3.721265 0.470953 0.030000
11.303946 -3.374682 0.497709 0.370000
13.578775 -6.206396 0.433119 0.020000
5.930628 1.759729 0.117765 0.110000
6.106219 1.207976 0.121172 0.040000
6.251266 0.685680 0.114609 0.080000
6.281130 0.171161 0.112775 0.030000
6.241212 -0.354678 0.105716 0.040000
6.131103 -0.871878 0.103506 0.030000
5.930831 -1.380785 0.096091 0.050000
5.660573 -1.891033 0.088489 0.090000
8.495259 2.929377 1.403821 0.020000
48.623997 13.973634 5.974670 0.030000
36.250427 1.225402 4.259964 0.010000
7.756354 -0.499665 1.194143 0.720000
45.054070 -9.701077 5.102336 0.010000
45.212788 -23.522038 5.476377 0.060000
16.661825 4.354313 0.535426 0.050000
11.185736 1.483784 0.550461 0.150000
26.864712 0.929697 0.389326 0.010000
18.851555 -3.684767 0.401256 0.020000
11.383940 -3.368002 0.457942 0.260000
13.537572 -6.136990 0.383269 0.040000
5.791517 1.712056 0.117225 0.100000
5.981638 1.185604 0.115764 0.030000
6.096487 0.672713 0.114157 0.090000
6.165974 0.178975 0.107503 0.030000
6.075655 -0.327862 0.110383 0.040000
6.015262 -0.829089 0.103362 0.040000
5.824798 -1.327807 0.096011 0.060000
5.554143 -1.818077 0.093482 0.100000
8.405668 2.912805 1.363525 0.040000
46.657867 13.547352 5.572949 0.050000
44.566704 1.662219 4.973304 0.040000
7.786018 -0.479020 1.174297 0.350000
52.452297 -11.181668 5.666150 0.010000
45.218979 -23.291035 5.247250 0.040000
8.447379 2.936560 0.558714 0.070000
13.140538 3.346752 0.507488 0.020000
11.195168 1.519117 0.510617 0.150000
24.719419 0.933850 0.318741 0.010000
8.218305 -0.503362 0.525328 0.050000
13.351235 -2.420012 0.426601 0.020000
11.463837 -3.356323 0.418193 0.210000
11.267686 -4.860254 0.387090 0.010000
5.662294 1.669556 0.121729 0.120000
5.842131 1.157909 0.120297 0.030000
5.986520 0.670625 0.108862 0.100000
6.040805 0.186579 0.107205 0.030000
5.990301 -0.309476 0.105229 0.050000
5.904612 -0.796203 0.103196 0.040000
5.718763 -1.274828 0.095931 0.060000
5.483019 -1.759410 0.088515 0.110000
8.424951 2.953255 1.343725 0.150000
46.262188 13.610610 5.347149 0.070000
36.231548 1.466092 3.985807 0.020000
7.805779 -0.463565 1.154406 0.300000
52.433838 -10.971196 5.451881 0.040000
45.093529 -22.977594 5.033085 0.060000
11.169593 1.553762 0.475678 0.110000
13.290133 0.509391 0.422331 0.010000
8.162901 -0.479327 0.500273 0.080000
13.335398 -2.370141 0.381744 0.060000
11.528655 -3.339914 0.373423 0.290000
11.302318 -4.834422 0.342276 0.070000
5.577816 1.642970 0.111410 0.110000
5.722549 1.135634 0.114902 0.030000
5.856627 0.663118 0.113495 0.090000
5.940536 0.199661 0.106991 0.030000
5.869749 -0.281779 0.105017 0.050000
5.808877 -0.758011 0.098088 0.040000
5.632821 -1.226466 0.095887 0.060000
5.391791 -1.696146 0.088512 0.090000
8.295571 2.925937 1.298285 0.150000
48.848232 14.615076 5.422634 0.050000
57.429008 2.585545 5.875319 0.040000
7.810351 -0.438400 1.134511 0.310000
52.500626 -10.774131 5.247786 0.020000
45.321548 -22.847563 4.859162 0.170000
13.089957 5.216462 0.419306 0.050000
13.178671 3.457850 0.413000 0.040000
11.174026 1.589000 0.435820 0.150000
13.254395 0.553879 0.377402 0.020000
8.182470 -0.453874 0.480418 0.100000
11.803032 -1.999404 0.374122 0.130000
11.563083 -3.304102 0.333646 0.350000
11.270991 -4.759861 0.302471 0.050000
5.478313 1.616059 0.111050 0.100000
5.632662 1.128911 0.114642 0.030000
5.756659 0.661221 0.108227 0.090000
5.830366 0.207553 0.106733 0.030000
5.794380 -0.263220 0.104889 0.050000
5.708129 -0.719934 0.097966 0.040000
5.546975 -1.183102 0.095824 0.060000
5.325762 -1.642383 0.083539 0.110000
8.235578 2.929917 1.263143 0.200000
49.113056 14.910806 5.259423 0.050000
42.716518 7.209745 4.449090 0.130000
57.440281 2.811625 5.651187 0.080000
7.875104 -0.422083 1.114740 1.010000
11.669675 -1.975896 1.448873 0.000000
39.863995 -13.247125 3.990595 0.020000
45.478699 -22.668770 4.655235 0.130000
8.529915 3.078496 0.469456 0.080000
11.163448 1.623932 0.400922 0.170000
8.192055 -0.428594 0.455537 0.060000
11.752174 -1.950241 0.339172 0.230000
11.597688 -3.278306 0.298831 0.420000
11.239842 -4.695318 0.267630 0.270000
5.378811 1.589149 0.110690 0.080000
5.542871 1.117189 0.114364 0.030000
5.656678 0.659306 0.107959 0.100000
5.745190 0.215923 0.106542 0.030000
5.693919 -0.240139 0.104713 0.060000
5.637567 -0.691280 0.097889 0.040000
5.466032 -1.134644 0.095793 0.060000
5.249627 -1.583831 0.083558 0.120000
8.235068 2.960005 1.238254 0.210000
45.943840 14.121657 4.788212 0.050000
42.579006 7.362744 4.284299 0.140000
57.431408 3.042248 5.447019 0.110000
7.854681 -0.397397 1.094779 1.000000
11.683997 -1.935486 1.414060 0.020000
39.966286 -13.084605 3.846465 0.020000
45.100266 -22.200092 4.425987 0.070000
8.484619 3.097742 0.439409 0.100000
13.132190 3.547306 0.323210 0.010000
11.167677 1.669149 0.366101 0.180000
16.070576 0.803481 0.215679 0.010000
12.188120 -0.686559 0.315007 0.080000
11.771605 -1.914716 0.299354 0.220000
11.627021 -3.237591 0.259059 0.290000
11.248987 -4.644988 0.227840 0.160000
5.274392 1.557125 0.115299 0.080000
5.463090 1.105677 0.109113 0.030000
5.561696 0.657487 0.107704 0.090000
5.659931 0.229311 0.101369 0.030000
5.633560 -0.221274 0.099625 0.060000
5.546913 -0.658010 0.097776 0.050000
5.415383 -1.100589 0.090787 0.060000
5.183585 -1.530086 0.083585 0.150000
8.249172 3.010375 1.213477 0.170000
30.115017 9.173392 3.158483 0.040000
30.708738 5.339287 3.090780 0.060000
31.292879 1.739930 3.053924 0.010000
7.874250 -0.371944 1.074924 0.450000
17.411076 -5.182991 1.856942 0.000000
45.262135 -22.011335 4.257109 0.030000
8.493820 3.143018 0.414601 0.150000
13.151045 3.612825 0.283503 0.060000
11.176890 1.714444 0.336293 0.150000
14.945538 0.796989 0.197718 0.010000
5.219524 1.551110 0.105133 0.090000
5.368286 1.093841 0.113822 0.030000
5.501611 0.661337 0.107562 0.080000
5.589657 0.242967 0.101237 0.030000
5.548097 -0.197906 0.099489 0.050000
5.511454 -0.633667 0.092774 0.040000
5.344630 -1.061937 0.090746 0.070000
5.132732 -1.486052 0.083616 0.120000
8.332759 3.087045 1.198980 0.240000
16.922289 4.924397 1.903239 0.010000
30.731476 5.470076 3.001324 0.020000
31.265749 1.864799 2.954317 0.010000
7.893819 -0.346492 1.055070 0.300000
11.592115 -1.826933 1.334223 0.060000
17.610853 -7.779642 1.852811 0.000000
13.965529 0.788218 0.195128 0.010000
13.062943 -0.654414 0.212409 0.070000
11.120718 -4.467193 0.168166 0.080000
5.139814 1.534562 0.109864 0.070000
5.308406 1.087712 0.108643 0.030000
5.401630 0.659422 0.107294 0.080000
5.509480 0.251433 0.101059 0.030000
5.487725 -0.179059 0.099402 0.060000
5.415801 -0.600493 0.092647 0.040000
5.304089 -1.032672 0.080749 0.070000
5.076893 -1.442096 0.078634 0.140000
8.346959 3.132416 1.174186 0.120000
16.697323 4.930347 1.832673 0.040000
30.694075 5.609769 2.896745 0.150000
31.308224 2.011005 2.854970 0.040000
7.898392 -0.321326 1.035175 0.460000
11.531068 -1.767964 1.299282 0.060000
18.006912 -5.211328 1.788391 0.000000
17.462519 -7.597194 1.783101 0.000000
12.192455 5.104969 0.221547 0.080000
12.791103 3.616189 0.212575 0.080000
13.195316 0.793505 0.183137 0.010000
12.526248 -0.569641 0.201323 0.050000
12.351343 -1.878149 0.176002 0.040000
11.513553 -3.044381 0.164480 0.050000
10.735750 -4.209465 0.153119 0.060000
5.075031 1.523338 0.104653 0.080000
5.228517 1.081181 0.108410 0.020000
5.401273 0.679455 0.097367 0.290000
5.439206 0.265090 0.100926 0.030000
5.422354 -0.160308 0.099301 0.050000
5.385341 -0.576054 0.087658 0.030000
5.243225 -0.988848 0.085753 0.050000
5.046228 -1.407677 0.078682 0.130000
30.676317 5.764750 2.817274 0.220000
31.175703 2.153822 2.765154 0.110000
7.972925 -0.294858 1.025468 1.050000
11.535174 -1.717785 1.274479 0.140000
11.567198 4.852986 0.208978 0.080000
12.218632 3.480238 0.200575 0.050000
12.569967 0.806549 0.176553 0.010000
11.808378 -1.728521 0.175141 0.040000
11.079814 -2.852636 0.159061 0.050000
10.371328 -3.981386 0.148015 0.070000
5.020233 1.512286 0.104469 0.070000
5.168529 1.080032 0.108249 0.020000
5.301374 0.672522 0.102081 0.210000
5.394036 0.274245 0.095842 0.020000
5.346985 -0.141748 0.099173 0.050000
5.304768 -0.547610 0.092554 0.040000
5.202657 -0.959620 0.085756 0.080000
5.005469 -1.368450 0.078721 0.150000
30.643957 5.899465 2.732689 0.210000
31.188335 2.289400 2.680690 0.120000
7.942408 -0.265363 1.005498 1.040000
11.519311 -1.667951 1.239623 0.160000
11.006435 4.627225 0.201675 0.080000
11.695851 3.360223 0.193764 0.060000
11.980725 2.065469 0.184695 0.020000
11.400504 0.764053 0.198343 0.020000
11.913662 -0.436239 0.170220 0.020000
11.405989 -1.606169 0.164546 0.040000
10.716541 -2.684545 0.153737 0.040000
10.112761 -3.796268 0.138028 0.070000
4.955436 1.501043 0.104258 0.070000
5.113539 1.078978 0.108102 0.020000
5.251192 0.681563 0.101983 0.080000
5.333760 0.288093 0.095736 0.020000
5.306609 -0.122518 0.099139 0.040000
5.254298 -0.523572 0.092512 0.050000
5.141998 -0.925776 0.085723 0.080000
4.979912 -1.338916 0.073764 0.150000
29.362486 14.301059 2.855577 0.140000
30.611380 6.044142 2.658141 0.190000
31.180851 2.429556 2.606191 0.120000
11.523417 -1.617772 1.214820 0.170000
10.599208 4.479419 0.195062 0.080000
11.257670 3.261832 0.187255 0.060000
11.576293 2.032736 0.178517 0.010000
11.329789 0.802761 0.183302 0.050000
11.048851 -1.497990 0.164015 0.050000
10.433924 -2.549916 0.148500 0.040000
9.813984 -3.601956 0.137971 0.070000
4.925359 1.505486 0.099196 0.050000
5.078463 1.083326 0.103026 0.030000
5.288481 0.302228 0.095671 0.010000
5.261234 -0.103384 0.099092 0.030000
5.208827 -0.499439 0.092483 0.060000
5.136629 -0.905857 0.080783 0.070000
4.939153 -1.299690 0.073804 0.130000
29.289534 14.464966 2.780995 0.170000
30.583872 6.183878 2.593588 0.210000
31.178242 2.574770 2.541723 0.130000
176.352066 -29.572443 11.486258 50.000000
13.458427 -3.441421 1.318093 0.000000
17.232759 -7.060729 1.574493 0.000000
10.246587 4.352661 0.188670 0.080000
10.903996 3.190065 0.181065 0.060000
11.216769 2.005882 0.167479 0.020000
11.219096 0.840721 0.163154 0.050000
8.323219 -0.205475 0.301707 0.020000
10.771999 -1.403257 0.158645 0.040000
10.211583 -2.429134 0.143368 0.040000
9.575879 -3.441469 0.132946 0.070000
4.895282 1.509930 0.094134 0.050000
5.018461 1.082158 0.107865 0.020000
5.175931 0.695142 0.096837 0.040000
5.233286 0.311154 0.100560 0.010000
5.225966 -0.089038 0.094053 0.040000
5.188448 -0.479826 0.092502 0.050000
5.101156 -0.881532 0.080781 0.060000
4.928689 -1.274868 0.068869 0.130000
29.285896 14.665207 2.706729 0.160000
30.581015 6.344145 2.514176 0.120000
31.130571 2.724159 2.467153 0.120000
8.005858 -0.179005 0.970984 0.250000
13.457260 -3.376322 1.288331 0.000000
13.543113 -5.250100 1.306590 0.010000
9.938670 4.241763 0.182454 0.080000
10.610022 3.134443 0.175090 0.070000
10.897212 1.979757 0.166548 0.020000
8.302674 -0.175826 0.291763 0.020000
10.480247 -1.313810 0.153216 0.060000
10.034713 -2.332486 0.138266 0.050000
9.418430 -3.314444 0.128007 0.070000
4.830473 1.498668 0.098923 0.040000
5.003189 1.096887 0.102880 0.020000
5.110835 0.698878 0.101681 0.040000
5.213016 0.325787 0.095561 0.010000
5.180579 -0.069922 0.099006 0.030000
5.142977 -0.455692 0.092473 0.060000
5.100786 -0.861517 0.075854 0.060000
4.898011 -1.240468 0.073916 0.150000
29.257883 14.829901 2.652268 0.150000
30.578449 6.484286 2.469690 0.020000
8.070489 -0.157726 0.961232 0.860000
12.538994 -1.638326 1.217394 0.160000
13.471255 -3.320970 1.268573 0.020000
13.541728 -5.175040 1.286865 0.030000
9.685155 4.161893 0.181496 0.080000
10.345946 3.084395 0.169215 0.070000
10.667364 1.970372 0.160913 0.020000
10.798243 0.882705 0.152211 0.010000
10.724241 -0.213906 0.147941 0.020000
10.324043 -1.251772 0.148039 0.060000
9.847844 -2.236029 0.133137 0.050000
9.306643 -3.221550 0.123060 0.070000
4.810380 1.503284 0.098887 0.040000
4.948295 1.090834 0.102714 0.020000
5.095659 0.708607 0.096678 0.040000
5.177831 0.335115 0.095504 0.010000
5.155309 -0.055385 0.093994 0.040000
5.137704 -0.440772 0.087515 0.050000
5.065313 -0.837192 0.075852 0.050000
4.897737 -1.225452 0.068971 0.150000
29.214968 14.989308 2.597748 0.080000
13.132357 4.178681 1.345568 0.000000
30.501213 6.608030 2.414948 0.080000
13.180561 1.149271 1.279432 0.020000
8.044945 -0.128174 0.951275 0.940000
12.548086 -1.588069 1.197605 0.200000
11.356447 -4.116155 1.135096 1.000000
9.491162 4.108187 0.175790 0.080000
10.156379 3.060779 0.163632 0.060000
10.437420 1.965986 0.155296 0.020000
10.602813 0.903984 0.146780 0.010000
10.573324 -0.166770 0.142723 0.020000
10.172839 -1.189639 0.142875 0.060000
9.696243 -2.153918 0.133046 0.050000
9.184763 -3.123849 0.118105 0.060000
4.770484 1.497519 0.098762 0.040000
4.928203 1.095450 0.102679 0.020000
5.050559 0.712726 0.101576 0.040000
5.182555 0.350226 0.090572 0.010000
5.120015 -0.041077 0.098955 0.040000
5.092220 -0.416658 0.092486 0.050000
5.065039 -0.822176 0.070907 0.050000
4.872166 -1.195936 0.069014 0.150000
13.150969 4.254124 1.325897 0.010000
13.157080 2.634047 1.294890 0.040000
11.253451 0.997795 1.148837 0.030000
8.034398 -0.098334 0.941358 0.950000
12.607239 -1.541892 1.187931 0.160000
13.418687 -3.181806 1.228953 0.010000
11.294868 -4.032264 1.120247 0.150000
9.307155 4.054654 0.175110 0.070000
9.961881 3.032030 0.168018 0.070000
10.282340 1.967998 0.159899 0.020000
10.427366 0.925628 0.146402 0.010000
10.472577 -0.128693 0.142601 0.020000
10.071804 -1.136564 0.142808 0.060000
9.574829 -2.081231 0.132999 0.050000
9.062857 -3.026185 0.123150 0.070000
4.765115 1.517438 0.093822 0.030000
4.912919 1.110160 0.102694 0.010000
5.055188 0.732836 0.096662 0.040000
5.142371 0.359458 0.090502 0.010000
5.109743 -0.026253 0.093983 0.030000
5.087029 -0.406755 0.092509 0.040000
5.029553 -0.797870 0.075905 0.060000
4.871879 -1.180939 0.069069 0.160000
13.110140 4.298387 1.315955 0.030000
13.151148 2.683978 1.285060 0.050000
11.212814 1.032059 1.138859 0.080000
8.078911 -0.072477 0.941570 0.920000
16.217663 -3.903824 1.368577 0.010000
11.298936 -3.982141 1.110444 0.210000
9.187560 4.032359 0.174715 0.080000
9.846915 3.029846 0.162710 0.060000
10.142271 1.970316 0.159542 0.020000
10.326906 0.948708 0.146226 0.010000
10.401933 -0.095021 0.137542 0.020000
10.015965 -1.092608 0.137826 0.060000
9.533891 -2.031988 0.128076 0.050000
8.976339 -2.947828 0.123216 0.070000
4.735107 1.516845 0.098741 0.030000
4.902742 1.119985 0.097704 0.010000
5.015086 0.737051 0.101573 0.030000
5.122183 0.369073 0.090485 0.010000
5.109455 -0.011256 0.094038 0.030000
5.076648 -0.386951 0.092556 0.040000
5.029266 -0.782873 0.075960 0.070000
4.861497 -1.161134 0.069116 0.140000
13.032474 6.257080 1.368034 0.000000
13.069324 4.342668 1.301013 0.040000
13.145230 2.733929 1.270230 0.060000
11.202076 1.071897 1.128978 0.150000
8.073459 -0.047540 0.931649 0.880000
13.411550 -3.066831 1.204362 0.000000
11.343283 -3.946248 1.100693 0.230000
9.043162 3.999588 0.174216 0.070000
9.722034 3.022454 0.162356 0.060000
10.061915 1.988798 0.154401 0.020000
10.236362 0.976997 0.141095 0.010000
10.261096 -0.052711 0.137332 0.020000
8.836786 -0.895413 0.205482 0.040000
9.472861 -1.978129 0.123116 0.050000
8.940306 -2.893490 0.118324 0.070000
4.729834 1.531765 0.093783 0.020000
4.872639 1.124391 0.102641 0.010000
5.009909 0.746972 0.096597 0.030000
5.101886 0.383669 0.095486 0.010000
5.094266 -0.001545 0.094034 0.030000
5.071470 -0.377030 0.087579 0.040000
5.013886 -0.763164 0.075993 0.060000
4.861210 -1.146137 0.069171 0.130000
13.031133 6.327067 1.368291 0.010000
13.078173 4.402848 1.301260 0.050000
13.149176 2.789014 1.270445 0.050000
11.121529 1.100378 1.123874 0.180000
11.191133 -3.834106 1.090712 0.250000
8.987981 4.008533 0.174106 0.070000
9.671660 3.041492 0.162295 0.060000
9.996545 2.007550 0.154300 0.020000
10.200793 1.006321 0.141111 0.010000
10.240525 -0.023100 0.137388 0.020000
9.929365 -1.009233 0.132910 0.050000
9.457098 -1.938424 0.123223 0.050000
8.929541 -2.853689 0.118443 0.070000
4.689924 1.525981 0.098657 0.030000
4.867461 1.134312 0.097665 0.010000
4.989707 0.756568 0.101580 0.030000
5.101708 0.393686 0.090523 0.010000
5.099074 0.008549 0.094084 0.030000
5.061172 -0.362243 0.092607 0.030000
5.023692 -0.752974 0.076057 0.060000
4.850829 -1.126333 0.069218 0.140000
13.029804 6.397072 1.363547 0.010000
13.067229 4.452665 1.296416 0.040000
13.128330 2.833641 1.265557 0.050000
11.160660 1.146136 1.124146 0.120000
7.811496 -0.727604 0.908437 0.010000
13.404552 -2.961928 1.199733 0.000000
11.190188 -3.784097 1.085896 0.250000
8.932704 4.022477 0.174013 0.070000
9.631189 3.065721 0.162280 0.060000
9.970974 2.037065 0.154343 0.020000
10.160226 1.035550 0.141114 0.010000
10.219858 0.011511 0.137463 0.020000
9.923778 -0.979353 0.138006 0.050000
9.461522 -1.908334 0.123346 0.050000
8.964150 -2.833022 0.118611 0.080000
4.689637 1.540978 0.098712 0.020000
4.862175 1.149213 0.097706 0.010000
4.979518 0.766375 0.101590 0.030000
5.096504 0.403569 0.095546 0.010000
5.093787 0.023450 0.094126 0.030000
5.060980 -0.352244 0.092644 0.020000
5.018406 -0.738073 0.076098 0.060000
4.860635 -1.116143 0.069281 0.140000
13.023656 6.456965 1.363754 0.010000
13.080981 4.517940 1.296695 0.040000
13.137370 2.883823 1.265767 0.050000
11.174986 1.181416 1.124315 0.280000
13.453775 -2.920978 1.200014 0.010000
11.189230 -3.734106 1.086079 0.290000
8.946756 4.072773 0.169237 0.070000
8.543697 2.654583 0.222913 0.050000
9.970221 2.077076 0.149489 0.020000
10.194549 1.071213 0.141336 0.010000
10.239280 0.041888 0.137626 0.020000
9.928120 -0.944246 0.133148 0.050000
9.506130 -1.887476 0.123540 0.050000
8.983681 -2.807626 0.113756 0.070000
4.694361 1.556090 0.093781 0.020000
4.851972 1.159001 0.102716 0.010000
4.994241 0.781678 0.096685 0.030000
5.096230 0.418585 0.090601 0.010000
5.108606 0.033754 0.089203 0.030000
5.070704 -0.337037 0.087726 0.020000
5.028213 -0.727883 0.076162 0.060000
4.875550 -1.110838 0.064340 0.140000
13.012412 6.521761 1.363965 0.000000
13.065025 4.567644 1.296838 0.030000
13.131413 2.933718 1.265937 0.050000
11.019645 1.198462 1.118973 0.350000
7.825631 -0.682325 0.908642 0.030000
11.319371 -3.741652 1.096391 0.200000
8.940990 4.112669 0.169370 0.080000
8.582732 2.705340 0.223204 0.160000
10.009351 2.122834 0.149762 0.020000
10.233774 1.111972 0.141590 0.010000
10.283614 0.077762 0.132875 0.020000
10.027813 -0.927333 0.133471 0.050000
9.565845 -1.871311 0.118756 0.040000
9.083758 -2.810709 0.114006 0.070000
4.679160 1.565782 0.098777 0.020000
4.851780 1.168999 0.102753 0.010000
4.998952 0.796771 0.096753 0.030000
5.101024 0.428660 0.095651 0.010000
5.118317 0.048943 0.089285 0.030000
5.065500 -0.327153 0.092749 0.020000
5.017914 -0.713096 0.081190 0.060000
4.890342 -1.100571 0.069416 0.130000
16.035843 8.429232 1.588950 0.000000
13.073835 4.627768 1.312085 0.030000
13.115527 2.978385 1.276062 0.050000
11.053859 1.239107 1.124213 0.620000
13.250526 0.115630 1.220772 0.130000
7.780065 -0.653193 0.908631 0.030000
13.401555 -2.806994 1.210302 0.000000
11.328481 -3.696506 1.106583 0.250000
8.969810 4.173195 0.179670 0.060000
8.542426 2.719533 0.233152 0.240000
10.078367 2.174146 0.155133 0.020000
10.352890 1.159261 0.142076 0.010000
10.408003 0.110131 0.138320 0.030000
10.117400 -0.905632 0.138786 0.060000
9.715899 -1.873456 0.124140 0.040000
9.183835 -2.813793 0.114255 0.070000
4.703593 1.596274 0.093954 0.020000
4.871310 1.194396 0.097898 0.010000
5.018661 0.812151 0.096862 0.040000
5.130744 0.444251 0.090787 0.010000
5.108114 0.058731 0.094295 0.030000
5.115408 -0.321178 0.087901 0.020000
5.047825 -0.707504 0.076289 0.050000
4.905148 -1.090286 0.069493 0.130000
16.039244 8.509219 1.614257 0.000000
13.144511 3.028876 1.296325 0.030000
11.008266 1.268202 1.134202 0.690000
13.239723 0.155375 1.235891 0.220000
7.769561 -0.628426 0.918696 0.060000
13.420746 -2.766675 1.225502 0.000000
11.236952 -3.618263 1.111634 0.380000
8.541824 2.749491 0.243262 0.230000
10.256801 2.257578 0.155909 0.020000
10.491905 1.211933 0.142635 0.010000
10.577395 0.143381 0.138886 0.020000
10.282178 -0.892474 0.139265 0.040000
9.866063 -1.880581 0.124505 0.050000
9.319276 -2.836222 0.119526 0.070000
4.713195 1.616443 0.099054 0.020000
4.876009 1.209471 0.102967 0.010000
5.013361 0.827034 0.101903 0.030000
5.145441 0.459517 0.095882 0.010000
5.122906 0.068998 0.099371 0.030000
5.120203 -0.311103 0.092951 0.020000
5.072712 -0.702045 0.081374 0.050000
4.935238 -1.094710 0.069555 0.120000
29.009113 16.595594 2.618182 0.020000
11.022540 1.303408 1.154371 0.490000
13.233905 0.195197 1.256024 0.150000
7.774151 -0.608371 0.928782 0.060000
13.424927 -2.726661 1.245661 0.010000
11.241133 -3.578250 1.131794 0.440000
9.304477 4.454655 0.181590 0.060000
8.561124 2.784830 0.253443 0.100000
10.465119 2.346565 0.161783 0.020000
10.715701 1.276212 0.148458 0.010000
10.841759 0.178432 0.144707 0.020000
10.492126 -0.888471 0.144828 0.050000
10.066492 -1.901765 0.129950 0.040000
4.737616 1.646916 0.099231 0.020000
4.900608 1.229927 0.108107 0.010000
5.072885 0.853197 0.097156 0.030000
5.175148 0.475088 0.096017 0.010000
5.187716 0.080259 0.094582 0.030000
5.175097 -0.305051 0.093117 0.020000
5.097611 -0.696567 0.081459 0.060000
4.980325 -1.098848 0.069658 0.120000
28.961735 16.709452 2.688482 0.040000
29.691820 12.033084 2.543003 0.030000
11.111691 1.345031 1.179758 0.270000
8.109898 0.133043 0.972415 0.140000
7.813913 -0.597663 0.943926 0.150000
11.290854 -3.567405 1.161965 0.480000
10.792937 2.462846 0.168071 0.020000
10.934675 1.330379 0.159231 0.020000
11.151304 0.204347 0.150611 0.020000
10.797342 -0.897645 0.150591 0.050000
10.297093 -1.932390 0.140438 0.040000
9.817032 -2.976750 0.130303 0.070000
4.762132 1.672390 0.099390 0.020000
4.950037 1.260898 0.103351 0.020000
5.077666 0.863253 0.107206 0.040000
5.214853 0.490851 0.096180 0.010000
5.212506 0.090717 0.099686 0.030000
5.225087 -0.304093 0.093251 0.020000
5.167790 -0.705225 0.081610 0.050000
5.020413 -1.103081 0.069747 0.130000
28.959379 16.819077 2.783885 0.070000
29.645239 12.101855 2.638138 0.080000
11.111243 1.364935 1.204831 0.240000
8.169547 0.149115 0.992631 0.310000
7.838665 -0.587261 0.964030 0.310000
11.300307 -3.542312 1.187083 0.390000
9.856681 4.865266 0.194558 0.050000
11.195357 2.600559 0.174634 0.010000
11.108728 1.378647 0.179865 0.050000
11.590730 0.237750 0.156882 0.020000
11.227920 -0.924422 0.156615 0.050000
10.108785 -3.066197 0.135732 0.050000
4.816355 1.713436 0.099684 0.030000
4.994549 1.286755 0.103563 0.020000
5.142188 0.889512 0.102472 0.050000
5.279553 0.507093 0.096409 0.010000
5.267400 0.096770 0.099852 0.030000
5.305085 -0.302542 0.088466 0.040000
