# This PCD file was generated using the MATLAB® pcwrite function
# from Computer Vision Toolbox®.
# .PCD v.7 - Point Cloud Data file format
VERSION .7
FIELDS x y z intensity
SIZE 4 4 4 4
TYPE F F F F
COUNT 1 1 1 1
WIDTH 1283
HEIGHT 1
VIEWPOINT 0 0 0 1 0 0 0
POINTS 1283
DATA ascii
13.037637 6.589328 0.799277 0.020000
14.698294 5.265898 0.798692 0.100000
18.420969 4.377000 0.815105 0.000000
11.055243 1.225671 0.704162 0.460000
8.251996 0.066853 0.672537 0.020000
12.908191 -1.259281 0.699762 0.080000
13.403431 -2.830001 0.675215 0.030000
10.967053 -3.561736 0.651135 0.100000
6.280889 2.531555 0.126549 0.080000
6.647537 1.928507 0.115264 0.060000
6.824865 1.286790 0.113341 0.130000
7.021244 0.695465 0.106655 0.030000
7.003321 0.065010 0.104265 0.070000
6.965019 -0.545832 0.101894 0.050000
6.831843 -1.163473 0.094251 0.050000
6.588593 -1.778222 0.086330 0.100000
44.556633 25.893425 7.213376 0.030000
45.520218 18.467089 6.773280 0.040000
57.165970 14.975051 8.005711 0.070000
11.032026 1.246380 1.754190 0.380000
8.080061 0.071067 1.352111 1.240000
45.756203 -5.240289 6.060761 0.020000
39.070213 -9.326437 5.313111 0.020000
11.326972 -3.719197 1.831502 0.260000
13.041547 6.639228 0.849473 0.020000
14.682304 5.310417 0.848816 0.080000
18.295357 4.399378 0.874861 0.010000
11.044578 1.255343 0.739245 0.990000
8.221566 0.086200 0.692530 0.030000
12.922605 -1.234148 0.739893 0.180000
11.046934 -3.560352 0.691349 0.110000
6.473374 2.665283 0.122548 0.090000
6.810973 2.011652 0.115999 0.060000
7.028594 1.355722 0.109129 0.140000
7.205539 0.734001 0.107280 0.030000
7.192998 0.083646 0.104829 0.070000
7.155175 -0.552191 0.102367 0.050000
6.982281 -1.185614 0.099561 0.040000
6.774707 -1.834667 0.086606 0.090000
44.561775 26.112663 7.459207 0.030000
44.941002 18.400452 6.916522 0.060000
57.131763 15.158493 8.261306 0.080000
11.026443 1.271131 1.794268 0.390000
8.094692 0.086240 1.382206 0.660000
45.943703 -5.137450 6.271635 0.020000
39.580090 -9.347519 5.544366 0.030000
11.336387 -3.694159 1.871620 0.430000
18.065409 4.384715 0.944207 0.010000
11.034105 1.275018 0.774291 0.750000
8.226213 0.101200 0.717598 0.040000
13.067256 -1.221558 0.790318 0.210000
16.672785 -3.568031 0.821007 0.010000
11.162178 -3.578313 0.736584 0.160000
6.611419 2.767927 0.128290 0.090000
6.989297 2.100064 0.121794 0.060000
7.202399 1.419043 0.114818 0.120000
7.394724 0.777613 0.112936 0.030000
7.417765 0.097953 0.105469 0.060000
7.330321 -0.558856 0.107800 0.040000
7.203102 -1.226392 0.099986 0.040000
6.940717 -1.886515 0.091847 0.090000
44.513145 26.270954 7.679670 0.040000
45.006897 18.585978 7.127386 0.030000
50.305859 13.415080 7.522000 0.040000
11.035858 1.296169 1.834386 0.380000
8.084354 0.100971 1.402234 0.500000
46.036259 -5.036375 6.467254 0.010000
39.522396 -9.229172 5.699657 0.010000
11.325601 -3.659525 1.916721 0.280000
8.211068 3.751280 0.806128 0.010000
13.088305 4.709471 0.927422 0.070000
17.875372 4.375835 1.008678 0.010000
8.215861 0.115913 0.742626 0.050000
13.076549 -1.191558 0.840454 0.260000
13.376045 -2.726039 0.820532 0.020000
11.156500 -3.548563 0.776680 0.310000
6.798988 2.896542 0.129258 0.100000
7.142723 2.182999 0.127502 0.060000
7.416017 1.493148 0.115651 0.120000
7.613916 0.821819 0.113672 0.030000
7.597431 0.116379 0.111007 0.050000
7.590669 -0.573854 0.103423 0.040000
7.433935 -1.266960 0.095438 0.030000
7.111644 -1.933250 0.092120 0.090000
44.731579 26.579237 7.941389 0.050000
44.557766 18.516850 7.265958 0.050000
50.327858 13.539680 7.752523 0.070000
11.055367 1.316399 1.874512 0.320000
8.089002 0.115971 1.427302 0.420000
46.084030 -4.946141 6.657716 0.020000
41.695278 -9.684324 6.163642 0.020000
11.360380 -3.654022 1.961833 0.350000
8.180996 3.750594 0.836047 0.010000
13.087612 4.739298 0.972532 0.090000
17.765043 4.383504 1.068419 0.010000
11.053043 1.320114 0.849509 0.080000
8.170613 0.124956 0.767542 0.200000
13.050969 -1.167191 0.880479 0.250000
13.370354 -2.696307 0.865628 0.030000
11.191197 -3.538044 0.816810 0.420000
6.971643 3.019852 0.135167 0.070000
7.370667 2.292384 0.128504 0.060000
7.614721 1.561947 0.121426 0.100000
7.808196 0.860528 0.119323 0.030000
7.837194 0.130973 0.111687 0.050000
7.770909 -0.585423 0.108851 0.040000
7.684942 -1.317162 0.095906 0.030000
7.318029 -2.004328 0.097394 0.070000
44.550667 26.600117 8.120996 0.050000
44.649422 18.662861 7.476742 0.060000
50.310246 13.648647 7.947884 0.080000
11.134660 1.347758 1.919836 0.260000
8.073748 0.125589 1.452298 0.520000
46.077206 -4.876937 6.842957 0.030000
41.653320 -9.605719 6.328826 0.010000
11.319626 -3.619925 1.996853 0.670000
8.195448 3.775783 0.861179 0.000000
17.704611 4.397129 1.128313 0.010000
11.117461 1.346224 0.884775 0.080000
8.110285 0.138730 0.787436 0.300000
13.055481 -1.147247 0.920565 0.250000
13.374852 -2.676383 0.910714 0.050000
11.180629 -3.513370 0.851875 0.480000
7.183825 3.168942 0.136275 0.080000
7.563811 2.391100 0.129375 0.050000
7.823423 1.630938 0.127227 0.110000
8.017390 0.904543 0.120033 0.030000
8.056949 0.145166 0.117313 0.050000
7.996141 -0.596129 0.114399 0.030000
7.830368 -1.339417 0.106203 0.020000
7.504227 -2.065792 0.102652 0.070000
11.165561 5.692963 2.251073 0.010000
44.329292 18.646194 7.620846 0.040000
50.327488 13.763227 8.158357 0.080000
11.164058 1.373161 1.965008 0.290000
8.073490 0.135494 1.477335 1.270000
50.999626 -5.340974 7.734091 0.010000
11.379593 -3.623943 2.041995 0.310000
8.185181 3.785478 0.891188 0.000000
14.832028 5.547281 1.135090 0.100000
13.158215 3.135165 1.021753 0.010000
11.117083 1.361091 0.919829 0.080000
8.095044 0.148366 0.807432 0.490000
13.055076 -1.132418 0.965620 0.250000
13.394444 -2.661170 0.955822 0.080000
11.215409 -3.507868 0.896986 0.450000
7.430699 3.333681 0.142532 0.070000
7.836351 2.521324 0.135571 0.050000
8.042124 1.700120 0.133055 0.110000
8.281561 0.949592 0.125890 0.030000
8.266705 0.159167 0.122913 0.040000
8.226469 -0.611739 0.119942 0.030000
8.041178 -1.380406 0.111601 0.030000
7.730718 -2.141468 0.102962 0.060000
11.179866 5.723077 2.296222 0.010000
44.024776 18.599878 7.749880 0.050000
50.290466 13.841836 8.348555 0.060000
11.188674 1.388507 2.000129 0.200000
8.073247 0.145418 1.497371 1.130000
51.398636 -5.319208 7.975215 0.020000
11.384296 -3.613997 2.082045 0.230000
14.876001 5.592911 1.195375 0.050000
11.131687 1.376226 0.959924 0.080000
8.094883 0.153272 0.832450 0.510000
13.074777 -1.122185 1.005709 0.250000
13.404133 -2.651148 1.000885 0.030000
11.210032 -3.493097 0.932028 0.400000
7.633157 3.467563 0.148558 0.080000
8.054394 2.625519 0.136527 0.050000
8.300638 1.780085 0.134027 0.100000
8.550649 0.999754 0.126779 0.030000
8.246547 0.163690 0.147878 0.070000
8.461795 -0.627254 0.125499 0.030000
8.312277 -1.435223 0.112105 0.020000
7.916998 -2.207948 0.113201 0.050000
11.124963 5.711877 2.336038 0.060000
43.948433 18.642727 7.939842 0.030000
50.313560 13.911502 8.563876 0.070000
8.073086 0.150324 1.522389 0.950000
43.657986 -4.438724 6.983273 0.010000
44.270405 -10.073907 7.213926 0.000000
11.389095 -3.609051 2.122076 0.200000
13.046089 6.873018 1.215357 0.010000
13.137518 3.159461 1.106790 0.000000
11.116516 1.380827 0.989902 0.070000
8.094735 0.158197 0.852468 0.570000
11.245016 -3.497574 0.972103 0.310000
7.919558 3.658082 0.150014 0.140000
8.336932 2.755934 0.142750 0.050000
8.569055 1.865241 0.135044 0.100000
8.839732 1.050299 0.127722 0.030000
8.281405 0.169304 0.162990 0.060000
8.767422 -0.656387 0.121188 0.030000
8.598564 -1.499752 0.112612 0.020000
8.103196 -2.269412 0.118458 0.060000
11.080071 5.700887 2.370880 1.000000
41.216110 17.476311 7.623371 0.050000
50.322010 13.965977 8.754103 0.070000
11.158210 1.402669 2.070103 0.080000
8.077936 0.155345 1.542421 0.700000
42.309330 -4.254355 6.935438 0.010000
44.233925 -10.020202 7.379033 0.010000
11.398797 -3.599010 2.162139 0.210000
13.025867 6.877448 1.265322 0.020000
13.132210 3.169196 1.151813 0.000000
11.111330 1.385600 1.024907 0.080000
8.099573 0.163199 0.877500 0.590000
13.403515 -2.631486 1.090958 0.010000
11.244733 -3.487706 1.007139 0.280000
7.973729 3.699054 0.170308 0.300000
8.629374 2.891541 0.149017 0.060000
8.887258 1.961334 0.141232 0.090000
9.168699 1.106591 0.133790 0.030000
8.341247 0.175378 0.183169 0.040000
9.108028 -0.684869 0.121972 0.020000
8.430627 -2.393162 0.118853 0.050000
11.045287 5.685108 2.400731 0.130000
41.279476 17.536875 7.803763 0.060000
50.320938 13.995265 8.944211 0.070000
11.187908 1.413093 2.110220 0.070000
8.072777 0.160155 1.567425 0.490000
43.015041 -4.321823 7.202032 0.020000
44.172943 -9.991951 7.538980 0.010000
11.398693 -3.599159 2.202139 0.200000
12.995934 6.866690 1.315204 0.020000
13.070077 4.832971 1.247837 0.010000
13.136995 3.174124 1.196845 0.000000
11.076259 1.384818 1.054813 0.110000
8.099424 0.168124 0.897518 0.550000
11.866466 -0.970556 1.073120 0.020000
13.413312 -2.626444 1.131003 0.010000
11.274815 -3.497278 1.047182 0.220000
7.963761 3.693770 0.195262 0.280000
8.941728 3.032548 0.150357 0.050000
9.235372 2.063019 0.142519 0.100000
9.512773 1.158190 0.134879 0.030000
9.448718 -0.718369 0.127736 0.020000
9.246401 -1.642388 0.118773 0.020000
11.025187 5.684577 2.440677 0.160000
41.293362 17.571524 7.973930 0.060000
50.364628 14.035357 9.149476 0.070000
11.177832 1.412790 2.140193 0.070000
8.077724 0.160177 1.587439 0.520000
43.024551 -4.317190 7.352075 0.030000
44.127342 -9.983409 7.698894 0.010000
11.388494 -3.594500 2.242130 0.220000
13.089764 4.843184 1.292927 0.030000
13.146780 3.179147 1.241889 0.000000
11.071168 1.384592 1.089799 0.110000
8.089361 0.167839 0.922491 0.580000
11.871469 -0.975589 1.108114 0.010000
13.433287 -2.631227 1.176037 0.010000
11.264629 -3.492601 1.082174 0.180000
8.018110 3.724725 0.220520 0.250000
9.303772 3.189491 0.156885 0.050000
9.613371 2.170259 0.148904 0.080000
9.911631 1.220821 0.141153 0.030000
9.910905 0.215648 0.132415 0.030000
9.799406 -0.751677 0.133528 0.020000
9.567861 -1.716263 0.124338 0.020000
9.080379 -2.635780 0.124647 0.050000
11.029985 5.689522 2.480708 0.170000
41.272945 17.570545 8.133875 0.060000
50.393826 14.050203 9.344609 0.070000
11.187630 1.417832 2.180238 0.070000
8.067673 0.159911 1.607412 0.880000
42.938995 -4.309359 7.496882 0.030000
44.026684 -9.970885 7.848680 0.020000
11.393485 -3.599552 2.282125 0.240000
7.986359 3.701106 1.040357 0.000000
13.049941 4.827254 1.337764 0.020000
13.136773 3.173808 1.281844 0.010000
11.100975 1.390036 1.124897 0.110000
8.089405 0.162766 0.942472 0.540000
13.083760 -1.097760 1.210826 0.090000
13.393082 -2.627162 1.220948 0.010000
11.259622 -3.497845 1.122141 0.230000
9.680622 3.356719 0.163491 0.050000
9.971471 2.272116 0.155218 0.080000
10.270688 1.272689 0.147284 0.030000
10.295819 0.223003 0.138447 0.020000
10.110088 -0.785769 0.144212 0.020000
9.874407 -1.795443 0.134844 0.020000
9.387800 -2.759933 0.129988 0.050000
11.034976 5.684470 2.520703 0.170000
41.263203 17.534767 8.293718 0.050000
50.418983 14.014964 9.539546 0.060000
11.172841 1.402436 2.210142 0.130000
8.062704 0.154723 1.632380 1.110000
42.072994 -4.265955 7.499784 0.020000
43.946991 -10.007950 7.993335 0.010000
11.363508 -3.605237 2.312026 0.320000
28.927965 16.903784 2.704117 0.040000
29.679976 12.127837 2.553324 0.030000
11.121084 1.380309 1.154914 0.110000
8.079451 0.157501 0.962427 0.660000
13.043963 -1.113654 1.245663 0.120000
16.994892 -3.504216 1.467092 0.010000
11.264913 -3.517875 1.157081 0.330000
8.018363 3.704543 0.270446 0.100000
10.122269 3.535191 0.170307 0.050000
10.404460 2.380409 0.161751 0.070000
10.679832 1.320514 0.153529 0.030000
10.716016 0.216031 0.144518 0.020000
10.456161 -0.839169 0.149917 0.020000
10.216342 -1.893930 0.140370 0.020000
11.025461 5.654154 2.555566 0.190000
41.353931 17.475925 8.448738 0.020000
50.495224 13.925749 9.719415 0.040000
11.163148 1.382137 2.240041 0.180000
8.052955 0.139479 1.647298 1.190000
42.294701 -4.377370 7.674950 0.030000
43.898468 -10.104391 8.127851 0.010000
11.348816 -3.625632 2.341912 0.290000
28.949341 16.818830 2.798857 0.110000
29.656567 12.032042 2.642908 0.090000
11.106488 1.354915 1.184782 0.100000
13.044352 -1.138779 1.280571 0.240000
13.393844 -2.677431 1.295764 0.010000
11.270409 -3.547885 1.186984 0.400000
8.033596 3.689758 0.290431 0.070000
10.474890 3.661948 0.176699 0.050000
10.797853 2.467959 0.163103 0.070000
10.929567 1.335263 0.164236 0.050000
8.391538 0.145951 0.288191 0.030000
10.762240 -0.893335 0.155515 0.020000
9.993218 -3.038424 0.140533 0.050000
11.045858 5.629431 2.585528 0.190000
44.310097 18.650200 9.155827 0.030000
11.093806 1.345765 2.249726 0.190000
8.073186 0.124790 1.667296 1.140000
42.411942 -4.510607 7.799762 0.030000
43.815521 -10.226367 8.227182 0.000000
11.314236 -3.651391 2.366726 0.360000
28.946516 16.693441 2.883385 0.150000
29.683090 11.942259 2.717644 0.140000
11.116913 1.330037 1.204717 0.090000
8.060046 0.122013 0.992244 0.150000
13.019961 -1.174344 1.305375 0.230000
13.394545 -2.717516 1.320617 0.000000
11.271123 -3.587952 1.206837 0.380000
8.009411 3.644214 0.310198 0.100000
10.822812 3.773631 0.178022 0.040000
11.082021 2.513391 0.169014 0.070000
11.149596 1.334440 0.174808 0.110000
8.411878 0.126282 0.303172 0.070000
11.028328 -0.948267 0.161005 0.020000
10.714659 -2.064472 0.156037 0.020000
10.139985 -3.130666 0.150574 0.040000
11.081253 5.604994 2.615530 0.160000
43.788010 18.235201 9.132921 0.030000
11.039570 1.304701 2.254431 0.200000
8.073544 0.104757 1.677223 0.780000
42.349560 -4.657065 7.864055 0.030000
11.304965 -3.691631 2.381552 0.300000
28.959270 16.543495 2.927861 0.170000
29.735167 11.828072 2.762356 0.050000
30.357777 7.799705 2.634005 0.010000
11.012782 1.283016 1.209270 0.190000
8.060404 0.101980 1.002171 0.140000
12.975615 -1.210236 1.315126 0.160000
11.287025 -3.637729 1.226694 0.330000
8.049664 3.629946 0.320251 0.130000
11.026995 3.817531 0.183718 0.050000
11.291680 2.532392 0.174632 0.060000
11.035537 1.282192 0.189316 0.120000
8.412344 0.101268 0.308080 0.060000
11.169342 -1.000594 0.166179 0.020000
10.886256 -2.146200 0.156181 0.010000
10.317156 -3.242293 0.150621 0.040000
43.900898 18.077116 9.192629 0.030000
11.035215 1.269575 2.264289 0.250000
42.322636 -4.822739 7.898369 0.040000
11.199998 -3.693623 2.376271 0.220000
28.996977 16.399099 2.952423 0.170000
16.450781 6.066193 1.736251 0.010000
30.449610 7.701355 2.658880 0.020000
11.048420 1.248656 1.219235 0.230000
8.055883 0.076889 1.002066 0.190000
12.961370 -1.250535 1.319939 0.160000
17.038992 -3.733834 1.581355 0.000000
11.308063 -3.692355 1.231546 0.610000
8.065141 3.605238 0.320199 0.120000
11.126976 3.819446 0.183986 0.040000
11.391950 2.519310 0.174845 0.080000
10.996298 1.241415 0.194062 0.160000
8.582805 0.079547 0.303444 0.090000
11.230193 -1.044436 0.166175 0.020000
10.912113 -2.190712 0.156083 0.020000
44.202492 17.987637 9.258084 0.050000
11.030887 1.234486 2.264148 0.210000
8.079474 0.054825 1.687053 0.450000
41.934963 -4.939982 7.841921 0.030000
11.180768 -3.733998 2.376071 0.250000
29.010029 16.239304 2.956863 0.160000
30.362406 7.554659 2.658107 0.050000
11.014193 1.207993 1.218995 0.310000
8.061253 0.056970 1.007006 0.350000
12.952126 -1.290737 1.324766 0.170000
17.010038 -3.789417 1.586073 0.000000
11.152738 3.779932 0.183907 0.050000
11.397715 2.479413 0.174712 0.070000
11.001954 1.206499 0.198947 0.140000
8.563287 0.054169 0.303299 0.120000
11.230960 -1.084429 0.166028 0.020000
10.912880 -2.230705 0.155937 0.020000
10.348971 -3.336700 0.150353 0.050000
44.310799 17.814644 9.267724 0.070000
48.668396 12.450831 9.619163 0.010000
11.161289 1.211906 2.284405 0.220000
8.054875 0.034368 1.681912 0.530000
41.797806 -5.087580 7.826014 0.040000
11.186712 -3.783911 2.380901 0.220000
29.052799 16.095097 2.956439 0.160000
30.379894 7.424971 2.657670 0.060000
11.059855 1.173862 1.218987 0.370000
8.061732 0.031974 1.006914 0.470000
12.953084 -1.340728 1.324583 0.160000
11.183866 -3.734722 1.226064 0.310000
10.652878 5.070532 0.202400 0.110000
11.123784 3.724350 0.188624 0.050000
11.363680 2.428752 0.174434 0.070000
11.052532 1.177480 0.193971 0.080000
8.578763 0.029461 0.303247 0.080000
11.171450 -1.110573 0.165776 0.020000
10.848275 -2.251946 0.155689 0.020000
10.279271 -3.353038 0.150111 0.050000
44.513489 17.673428 9.287728 0.050000
48.687363 12.246213 9.603452 0.010000
11.186942 1.177373 2.289343 0.260000
8.070352 0.009660 1.681861 0.690000
41.720745 -5.239009 7.805250 0.030000
29.095718 15.945966 2.935996 0.110000
30.412130 7.310623 2.642329 0.060000
11.160316 1.150782 1.219164 0.210000
8.067223 0.007093 1.001836 0.670000
12.968957 -1.385413 1.319458 0.170000
13.454547 -2.981505 1.344792 0.000000
11.184836 -3.784694 1.220881 0.230000
10.545006 4.958447 0.201701 0.090000
11.025432 3.637451 0.188045 0.050000
11.269847 2.366944 0.173960 0.070000
11.133119 1.149055 0.184076 0.140000
11.046857 -1.132963 0.165367 0.020000
10.743486 -2.263955 0.155371 0.020000
10.164102 -3.345242 0.149839 0.050000
44.557457 17.474436 9.232102 0.020000
47.950291 11.852743 9.405063 0.030000
11.202636 1.142704 2.279255 0.220000
8.065845 -0.015412 1.676756 0.710000
41.714027 -5.404002 7.759619 0.030000
29.074167 15.770650 2.900288 0.040000
17.220655 6.075829 1.768296 0.000000
30.444502 7.191332 2.611970 0.060000
8.097710 -0.017309 0.996825 0.370000
12.984938 -1.435079 1.309315 0.140000
13.440534 -3.031746 1.334569 0.000000
11.205913 -3.839264 1.210733 0.170000
10.402633 4.820714 0.195818 0.100000
10.907288 3.540190 0.182375 0.050000
11.131419 2.284297 0.168291 0.070000
11.118914 1.108813 0.173889 0.140000
10.872094 -1.146294 0.159861 0.020000
10.588433 -2.261906 0.149974 0.020000
10.003570 -3.318293 0.144520 0.050000
42.916142 24.002892 9.597091 0.020000
43.738670 16.914518 8.992882 0.040000
47.944607 11.637871 9.329248 0.040000
11.233218 1.113303 2.274225 0.120000
8.071336 -0.040293 1.671678 0.670000
40.378956 -5.373539 7.476244 0.030000
41.433228 -10.860766 7.853602 0.000000
29.092335 15.611116 2.859742 0.110000
30.442072 7.061372 2.581480 0.060000
11.136809 1.075391 1.198822 0.090000
8.088203 -0.042477 0.991706 0.450000
13.461623 -3.086297 1.319421 0.010000
11.317713 -3.932139 1.210680 0.150000
10.289871 4.703552 0.190088 0.110000
10.739344 3.431972 0.176534 0.050000
10.972791 2.211246 0.167605 0.070000
10.841497 -0.071690 0.163776 0.050000
10.707316 -1.159452 0.159382 0.020000
10.438378 -2.259761 0.144590 0.020000
9.833026 -3.291555 0.144174 0.050000
52.683754 29.418562 11.647739 0.040000
42.572701 16.213163 8.687227 0.030000
47.978893 11.423728 9.263541 0.030000
8.061843 -0.065442 1.661559 0.690000
40.417526 -5.552649 7.425678 0.020000
40.678303 -10.844506 7.656690 0.020000
11.447648 -4.094042 2.400429 0.080000
29.155123 15.472460 2.814390 0.050000
30.504299 6.952728 2.531238 0.020000
11.157516 1.040837 1.183747 0.080000
8.098706 -0.067243 0.981642 0.240000
13.222328 -1.555499 1.294487 0.070000
13.442541 -3.131597 1.299203 0.020000
11.318819 -3.987054 1.190478 0.220000
10.087976 4.539657 0.188951 0.110000
10.551583 3.313355 0.175603 0.040000
10.774552 2.117433 0.166739 0.080000
10.980608 1.021204 0.158202 0.030000
10.802298 -0.112412 0.153522 0.040000
10.502451 -1.168377 0.158814 0.020000
10.227939 -2.238787 0.144119 0.020000
9.672399 -3.259607 0.138874 0.050000
52.917931 29.213285 11.572587 0.040000
42.621914 16.004345 8.611579 0.040000
48.047977 11.220254 9.197965 0.020000
8.067347 -0.090305 1.651481 0.700000
42.922470 -6.101165 7.810182 0.010000
40.556503 -11.001574 7.575787 0.030000
11.383121 -4.115172 2.370182 0.130000
29.183533 15.303194 2.753834 0.120000
30.507113 6.812941 2.480725 0.010000
11.193206 1.006551 1.173713 0.110000
8.089118 -0.087394 0.971542 0.170000
12.671795 -1.525854 1.243159 0.140000
13.408463 -3.177184 1.278944 0.040000
11.314817 -4.037085 1.175282 0.280000
9.915895 4.386352 0.182932 0.100000
10.339031 3.184280 0.169568 0.050000
10.546332 2.023064 0.160793 0.080000
10.751814 0.956829 0.152365 0.030000
10.622919 -0.145835 0.147930 0.030000
10.292599 -1.177380 0.153233 0.020000
10.057792 -2.232026 0.138700 0.020000
9.481681 -3.223235 0.133511 0.060000
53.038780 28.925989 11.451833 0.040000
42.666069 15.800484 8.520935 0.070000
49.072384 11.249584 9.280748 0.030000
8.057867 -0.115436 1.636363 0.890000
40.198761 -5.856269 7.253977 0.030000
40.504887 -11.167297 7.495036 0.030000
11.358945 -4.155569 2.349968 0.310000
29.196861 15.138659 2.688257 0.150000
30.479944 6.672597 2.425132 0.020000
11.179028 0.966346 1.153526 0.100000
8.074639 -0.112621 0.956410 0.140000
12.602557 -1.562077 1.212844 0.200000
9.674307 4.206712 0.176634 0.110000
10.121386 3.060108 0.163538 0.050000
10.303116 1.928407 0.154806 0.070000
10.493012 0.891861 0.151448 0.030000
10.403452 -0.175025 0.142248 0.030000
10.072557 -1.176575 0.147662 0.020000
9.827177 -2.201419 0.133211 0.020000
9.321054 -3.191287 0.128211 0.060000
41.985828 15.318251 8.277365 0.060000
49.131592 11.046085 9.170145 0.020000
8.058372 -0.140394 1.626271 0.810000
40.167042 -6.016611 7.173297 0.040000
40.563808 -11.360929 7.419469 0.030000
11.289433 -4.176775 2.314708 0.420000
29.200495 14.958953 2.617597 0.070000
13.123221 4.133498 1.345376 0.010000
13.228420 2.565419 1.289821 0.010000
8.170630 0.619347 0.959382 0.150000
8.080239 -0.142482 0.946314 0.150000
12.578489 -1.607454 1.187612 0.250000
9.472425 4.042835 0.170498 0.110000
9.874032 2.920365 0.157373 0.050000
10.064898 1.833847 0.148832 0.080000
10.269134 0.832599 0.140644 0.030000
10.143993 -0.204981 0.136460 0.030000
9.852612 -1.180770 0.142072 0.020000
9.556365 -2.161599 0.132653 0.020000
6.137941 -1.782752 0.330140 0.020000
53.092388 28.263126 11.114506 0.050000
42.144535 15.141663 8.167122 0.070000
11.177527 0.902584 2.168296 0.000000
8.053904 -0.165410 1.606166 0.490000
40.236122 -6.214957 7.072739 0.040000
40.688797 -11.608267 7.333875 0.030000
11.280457 -4.226864 2.289498 0.190000
29.248964 14.790163 2.532096 0.050000
13.149348 4.079099 1.315242 0.020000
8.101271 0.588086 0.939084 0.470000
8.120846 -0.171655 0.931311 0.370000
12.594605 -1.662063 1.162451 0.160000
13.422132 -3.356642 1.193312 0.010000
13.507587 -5.210443 1.216644 0.080000
9.240834 3.863386 0.164226 0.130000
9.611764 2.775316 0.156149 0.050000
9.841582 1.744572 0.142918 0.080000
9.990336 0.767248 0.139673 0.030000
9.929525 -0.234075 0.130792 0.030000
9.602575 -1.180540 0.136420 0.020000
9.310754 -2.131279 0.127124 0.020000
8.772815 -3.026739 0.122391 0.050000
53.283192 27.982264 10.968958 0.070000
41.846951 14.776541 7.989985 0.060000
11.178455 0.857685 2.143131 0.020000
8.069502 -0.195080 1.596097 0.470000
39.964317 -6.364675 6.931472 0.040000
40.984898 -11.917485 7.288498 0.020000
29.267550 14.615818 2.441495 0.080000
13.140592 4.019049 1.279996 0.020000
30.563265 6.269928 2.203851 0.040000
8.121881 0.558531 0.924028 0.390000
8.071373 -0.197552 0.916085 0.670000
11.587307 -1.541058 1.085270 0.270000
13.473624 -3.430578 1.168171 0.000000
10.552533 -3.906165 1.038777 0.030000
8.989236 3.683536 0.162901 0.110000
9.344401 2.635171 0.154931 0.050000
9.568454 1.644324 0.141832 0.080000
9.731547 0.702299 0.133756 0.030000
9.665067 -0.264127 0.124990 0.030000
9.337446 -1.175599 0.130746 0.030000
8.989568 -2.072420 0.126504 0.020000
8.470955 -2.932504 0.121953 0.070000
52.598293 27.235260 10.624390 0.050000
41.737766 14.495005 7.823652 0.110000
42.690983 8.882965 7.615276 0.040000
11.134417 0.811962 2.107846 0.060000
8.060131 -0.225192 1.575960 0.440000
39.932896 -6.534867 6.810756 0.040000
40.707500 -12.032195 7.117345 0.010000
29.305954 14.451873 2.345985 0.150000
15.639915 4.846694 1.389597 0.030000
13.192125 2.385040 1.194055 0.010000
8.086902 -0.222185 0.896034 0.560000
11.558157 -1.581514 1.055044 0.360000
13.409494 -3.471685 1.132851 0.010000
10.598931 -3.975197 1.013641 0.080000
8.698040 3.482942 0.156395 0.120000
9.052056 2.494566 0.148645 0.040000
9.285245 1.548901 0.135738 0.070000
9.437656 0.641660 0.132763 0.030000
9.370409 -0.284773 0.124144 0.030000
9.037024 -1.156349 0.130034 0.020000
8.733767 -2.032293 0.120986 0.030000
8.224481 -2.857193 0.116590 0.080000
52.591427 26.840847 10.407904 0.070000
41.871819 14.303015 7.693287 0.050000
42.720173 8.684003 7.474612 0.050000
11.190226 0.773098 2.087847 0.140000
8.065757 -0.255016 1.555864 0.830000
40.162689 -6.770178 6.720480 0.020000
13.062886 5.727936 1.266145 0.040000
13.133471 3.879163 1.204456 0.020000
15.364758 2.781500 1.261201 0.000000
8.087528 -0.252105 0.875924 0.530000
11.524117 -1.627045 1.019785 0.320000
15.503646 -4.196872 1.180622 0.010000
8.431553 3.297824 0.150011 0.110000
8.764806 2.349057 0.142354 0.050000
8.952224 1.442505 0.134473 0.080000
9.123687 0.585655 0.126735 0.030000
9.035760 -0.306186 0.123191 0.030000
8.741695 -1.142002 0.129316 0.030000
8.482855 -1.987091 0.120499 0.030000
7.927511 -2.757881 0.121184 0.090000
52.618774 26.487080 10.196658 0.050000
45.272717 15.271742 8.135770 0.050000
11.211149 0.728582 2.062736 0.130000
8.046292 -0.280320 1.535719 1.200000
40.221703 -6.963678 6.609913 0.030000
40.731281 -12.455916 6.870830 0.010000
15.315245 4.580833 1.277760 0.070000
13.224232 2.285913 1.118770 0.010000
8.103140 -0.281756 0.860855 0.480000
11.540055 -1.671638 0.989661 0.330000
13.412098 -3.596364 1.052393 0.000000
8.194663 3.133258 0.148781 0.100000
8.487350 2.213719 0.141127 0.050000
8.679000 1.347255 0.133406 0.090000
8.829796 0.525016 0.125743 0.030000
8.776109 -0.326144 0.117439 0.030000
8.451270 -1.122561 0.128630 0.030000
8.201866 -1.937445 0.114950 0.030000
7.807189 -2.740127 0.105936 0.100000
53.567055 26.595516 10.129536 0.040000
45.561462 15.097736 8.000875 0.040000
41.663837 8.025343 7.009401 0.020000
8.066916 -0.309857 1.515662 1.070000
40.075390 -7.135942 6.453890 0.030000
40.348503 -12.547530 6.669488 0.020000
43.904507 -20.789385 7.603142 0.150000
13.090799 5.588776 1.175700 0.030000
13.126078 3.754292 1.123972 0.050000
15.103422 2.601830 1.159850 0.010000
31.209484 2.098163 1.755025 0.050000
11.571181 -1.725941 0.959540 0.260000
15.506673 -4.341491 1.085091 0.020000
13.520281 -5.584551 1.020284 0.050000
7.982495 2.984187 0.142673 0.110000
8.214700 2.088476 0.139949 0.050000
8.400585 1.261908 0.132362 0.090000
8.545615 0.479566 0.124832 0.030000
8.446253 -0.337482 0.121536 0.030000
8.195852 -1.102431 0.123038 0.030000
7.900473 -1.868223 0.119421 0.030000
7.565510 -2.654741 0.105622 0.080000
52.173225 25.545414 9.636989 0.040000
45.849827 14.943727 7.866055 0.050000
42.405048 7.974676 6.971147 0.050000
8.162689 0.432072 1.528671 0.080000
8.042464 -0.335238 1.490504 1.200000
40.053825 -7.295870 6.313237 0.010000
40.156364 -12.675628 6.503509 0.020000
43.732925 -20.941982 7.407125 0.120000
15.318394 4.431252 1.172212 0.110000
13.218746 0.760942 1.003085 0.010000
11.702577 -1.793327 0.929632 0.350000
13.424713 -3.720832 0.966962 0.020000
7.745427 2.829638 0.136480 0.120000
7.991767 1.979205 0.133961 0.050000
8.147070 1.182039 0.131403 0.090000
8.261531 0.429116 0.123903 0.030000
8.161402 -0.347939 0.120753 0.030000
7.935517 -1.087414 0.122415 0.030000
7.750144 -1.851062 0.109092 0.030000
7.359124 -2.583662 0.100348 0.080000
41.209667 19.662178 7.466478 0.090000
45.219532 14.472654 7.567655 0.060000
40.820618 7.465744 6.555115 0.060000
8.083370 0.400676 1.493346 0.120000
40.105255 -12.856033 6.337703 0.010000
43.526085 -21.080217 7.201069 0.090000
13.133230 5.474898 1.085386 0.020000
15.364665 4.372311 1.122113 0.080000
11.693545 -1.838361 0.889441 0.330000
13.451263 -3.795172 0.921755 0.030000
13.573873 -5.758207 0.924778 0.040000
7.478639 2.659498 0.135151 0.110000
7.778641 1.880124 0.128036 0.050000
7.913372 1.112569 0.125535 0.090000
8.022355 0.384546 0.118113 0.030000
7.911558 -0.357707 0.115065 0.030000
7.760289 -1.075731 0.112001 0.030000
7.544333 -1.809978 0.103707 0.030000
7.142644 -2.507776 0.095065 0.090000
41.175274 19.397207 7.265401 0.070000
45.969490 14.492295 7.494685 0.060000
40.894238 7.297657 6.409681 0.020000
8.089010 0.370870 1.468250 0.110000
8.053620 -0.389887 1.450330 0.430000
44.384720 -21.778767 7.165713 0.060000
13.104980 3.569350 0.988228 0.080000
15.107454 2.412423 1.009155 0.000000
13.245866 0.661737 0.922787 0.010000
11.744778 -1.897262 0.854355 0.200000
15.345200 -4.504007 0.919064 0.050000
13.534873 -5.803779 0.874506 0.050000
7.280976 2.535691 0.134174 0.110000
7.570500 1.781121 0.127125 0.040000
7.709573 1.048673 0.119765 0.090000
7.783071 0.344956 0.117341 0.030000
7.716799 -0.371421 0.109505 0.040000
7.560039 -1.064564 0.111519 0.030000
7.293134 -1.749779 0.103275 0.040000
6.956338 -2.441333 0.094825 0.080000
41.022022 19.075039 7.038801 0.110000
44.826595 13.901659 7.119502 0.110000
41.366219 7.212029 6.315594 0.030000
8.069558 0.345585 1.443105 0.110000
8.069162 -0.414502 1.425278 0.460000
44.344753 -22.013842 6.964733 0.050000
13.081676 5.309267 0.979635 0.050000
13.234857 2.021840 0.907814 0.000000
13.311738 0.623156 0.877815 0.030000
12.057061 -0.705997 0.839598 0.080000
11.731945 -3.307555 0.794078 0.100000
13.541357 -5.873466 0.819263 0.040000
7.078410 2.406788 0.133167 0.120000
7.362181 1.692133 0.121251 0.050000
7.490764 0.984471 0.118956 0.100000
7.593694 0.311342 0.111722 0.040000
7.496840 -0.375635 0.108915 0.040000
7.329507 -1.038975 0.111013 0.030000
7.092309 -1.708618 0.102904 0.040000
6.749843 -2.365274 0.094569 0.090000
41.234962 18.944645 6.888871 0.070000
44.920773 13.709070 6.944030 0.080000
41.544521 7.060930 6.175496 0.080000
8.090085 0.321047 1.423067 0.180000
8.039617 -0.434980 1.400125 0.630000
45.354603 -22.774508 6.929541 0.130000
14.965814 6.155519 0.982699 0.040000
13.117142 3.469914 0.892889 0.030000
11.531421 1.674448 0.822075 0.010000
13.307718 0.578237 0.832637 0.200000
12.047934 -0.746033 0.799425 0.090000
11.602087 -3.309878 0.748730 0.190000
13.547841 -5.943152 0.764021 0.030000
6.925381 2.303876 0.122384 0.120000
7.173749 1.608510 0.120448 0.040000
7.316768 0.931148 0.113303 0.120000
7.379213 0.282229 0.111054 0.040000
7.286880 -0.379656 0.108352 0.040000
7.114068 -1.018097 0.110528 0.030000
6.901400 -1.662247 0.097578 0.040000
6.578642 -2.303524 0.089352 0.100000
44.355591 20.208662 7.166718 0.030000
46.510330 14.004474 6.974278 0.110000
57.168095 9.623578 8.140824 0.040000
8.070551 0.300779 1.392941 0.150000
8.060143 -0.459518 1.380087 1.260000
45.248428 -22.945801 6.718625 0.090000
14.848279 6.033448 0.926938 0.110000
16.026335 4.320744 0.913646 0.060000
11.228210 1.583772 0.780946 0.020000
12.078798 -0.785302 0.759359 0.070000
18.937828 -3.549667 0.831988 0.020000
11.547681 -3.335778 0.708492 0.280000
6.742427 2.195353 0.121503 0.120000
6.985318 1.524886 0.119645 0.040000
7.097863 0.871945 0.112512 0.120000
7.179730 0.253403 0.110426 0.040000
7.081918 -0.383582 0.107803 0.040000
6.923625 -0.996741 0.110110 0.030000
6.735664 -1.625415 0.097282 0.040000
6.397239 -2.231985 0.089144 0.100000
41.521885 18.636406 6.528471 0.070000
45.575497 13.512730 6.630006 0.050000
41.392117 6.714289 5.808806 0.060000
8.086079 0.276145 1.372889 0.120000
45.162346 -23.121710 6.507744 0.020000
14.795279 5.937654 0.861443 0.180000
16.216553 4.319606 0.854138 0.050000
11.293878 1.555171 0.741011 0.050000
14.924630 -1.060793 0.750764 0.450000
13.365202 -2.405787 0.711693 0.020000
11.412523 -3.323217 0.668185 0.220000
13.565699 -6.077449 0.658567 0.020000
6.579278 2.097211 0.120713 0.120000
6.811705 1.451567 0.113919 0.040000
6.948658 0.829080 0.111963 0.110000
6.995244 0.224865 0.109838 0.040000
6.911950 -0.386838 0.107347 0.040000
6.763285 -0.979790 0.104755 0.040000
6.534552 -1.569257 0.096966 0.050000
6.276412 -2.189273 0.083988 0.100000
44.895321 20.015228 6.822404 0.060000
47.691662 13.983066 6.712279 0.050000
11.231584 1.530197 1.770766 0.010000
8.081541 0.256165 1.342803 0.120000
45.379353 -15.849473 6.045339 0.010000
46.439804 -24.017311 6.482749 0.020000
14.736967 5.856725 0.805989 0.140000
16.496178 4.350187 0.794981 0.040000
11.209751 1.513681 0.705636 0.090000
11.368032 -3.343908 0.622992 0.250000
15.699208 -7.276599 0.604678 0.020000
6.435947 2.009469 0.115012 0.110000
6.642982 1.383323 0.113225 0.040000
6.759555 0.780449 0.111288 0.100000
6.835574 0.206822 0.104354 0.030000
6.746980 -0.389998 0.106905 0.040000
6.612929 -0.962667 0.104426 0.030000
6.373815 -1.532328 0.096684 0.040000
6.084806 -2.107947 0.088790 0.090000
45.350723 20.019501 6.673608 0.070000
47.844681 13.851615 6.537188 0.130000
11.212267 1.499968 1.730603 0.070000
8.081977 0.236243 1.322730 0.130000
44.821037 -9.622561 5.657025 0.000000
11.365901 -3.388026 1.732833 0.000000
46.256851 -24.095022 6.261981 0.030000
14.728179 5.801767 0.745761 0.220000
16.686285 4.354030 0.740491 0.080000
11.090823 1.461522 0.670132 0.110000
13.236255 0.417481 0.656851 0.010000
11.900679 -0.868288 0.638585 0.130000
18.108149 -3.544786 0.619838 0.010000
11.318420 -3.359732 0.587803 0.350000
13.578079 -6.186846 0.553191 0.010000
6.287508 1.926612 0.114317 0.110000
6.479163 1.320175 0.112563 0.040000
6.600256 0.742392 0.110731 0.110000
6.655978 0.183360 0.108798 0.040000
6.586915 -0.388063 0.106494 0.040000
6.447481 -0.940831 0.104075 0.020000
6.207875 -1.485516 0.101425 0.050000
5.933493 -2.040833 0.088644 0.080000
45.691528 20.001575 6.524429 0.040000
49.111000 14.061050 6.501272 0.080000
11.153162 1.458994 1.685296 0.200000
8.122309 0.222086 1.302782 0.400000
13.105456 -1.014677 1.851198 0.320000
44.874466 -9.775906 5.476593 0.010000
11.386782 -3.427469 1.687741 0.000000
43.962437 -23.031906 5.749938 0.040000
13.121970 3.250830 0.657085 0.030000
11.041512 1.430719 0.629888 0.100000
30.859196 0.965452 0.604888 0.020000
11.901358 -0.898133 0.598475 0.110000
13.387850 -2.524879 0.576308 0.020000
11.309102 -3.389770 0.547666 0.380000
13.569074 -6.231843 0.503000 0.010000
6.129250 1.833546 0.118558 0.110000
6.330245 1.262313 0.111959 0.040000
6.430958 0.704143 0.110147 0.100000
6.506293 0.165490 0.108341 0.030000
6.426848 -0.386129 0.106083 0.050000
6.282033 -0.918996 0.103724 0.030000
6.077241 -1.452994 0.096205 0.050000
5.777072 -1.968834 0.093504 0.080000
45.749969 19.853476 6.304029 0.080000
57.207565 16.303888 7.245751 0.040000
11.153732 1.434129 1.650204 1.000000
8.092680 0.206626 1.272647 0.460000
13.101136 -1.044618 1.811075 0.230000
44.897316 -9.899848 5.301190 0.020000
11.382449 -3.457428 1.652618 1.000000
43.940372 -23.161728 5.579396 0.040000
13.122663 3.221003 0.611975 0.030000
11.042083 1.405854 0.594797 0.110000
13.398553 -2.554496 0.526225 0.070000
11.299686 -3.414808 0.507548 0.430000
13.610468 -6.295842 0.442870 0.020000
5.980715 1.755687 0.117881 0.100000
6.146416 1.198762 0.116243 0.040000
6.286656 0.666373 0.109630 0.080000
6.331517 0.152141 0.107835 0.030000
6.261688 -0.379290 0.105678 0.050000
6.156673 -0.901394 0.103463 0.030000
5.931394 -1.410798 0.100981 0.050000
5.676337 -1.930738 0.088382 0.090000
46.363277 19.965717 6.176045 0.040000
48.118519 13.473919 5.956493 0.070000
11.159302 1.409359 1.615126 0.500000
8.073037 0.191339 1.247539 0.630000
13.091735 -1.069638 1.765957 0.190000
44.930054 -10.018619 5.130832 0.020000
11.322577 -3.458410 1.607457 0.020000
47.582142 -25.338175 5.800814 0.020000
14.711418 5.657062 0.570178 0.050000
17.251307 4.385572 0.547081 0.040000
11.062566 1.386389 0.554778 0.130000
8.319875 0.193578 0.563184 0.000000
13.295370 -1.081120 0.506433 0.070000
11.295271 -3.439750 0.467444 0.370000
13.581097 -6.321207 0.387698 0.040000
5.842082 1.683020 0.117249 0.100000
6.032300 1.151569 0.115770 0.040000
6.127248 0.633295 0.114091 0.090000
6.196830 0.134558 0.107418 0.030000
6.141614 -0.376590 0.105374 0.040000
6.021219 -0.878984 0.103192 0.030000
5.835849 -1.382605 0.095836 0.050000
5.555210 -1.873048 0.088281 0.090000
50.882111 21.851439 6.509854 0.100000
48.245621 13.392035 5.766518 0.070000
11.149791 1.389320 1.575027 0.420000
8.108370 0.177086 1.227578 0.250000
13.067349 -1.094926 1.715799 0.350000
45.067852 -10.140396 4.965737 0.010000
11.348348 -3.492776 1.567396 0.060000
48.029980 -25.719042 5.630566 0.030000
14.722230 5.622465 0.515077 0.130000
13.114049 3.161157 0.521729 0.020000
11.028131 1.360835 0.524592 0.110000
8.420113 0.185588 0.538416 0.010000
25.059828 -5.340574 0.251305 0.040000
11.280748 -3.459903 0.432330 0.400000
11.286790 -5.074944 0.391342 0.020000
5.738156 1.626019 0.116766 0.100000
5.888176 1.103782 0.120216 0.030000
6.022664 0.611307 0.108736 0.090000
6.061951 0.126974 0.107038 0.030000
6.006544 -0.374176 0.105031 0.050000
5.915869 -0.860980 0.097984 0.030000
5.715106 -1.344911 0.095661 0.050000
5.474567 -1.839568 0.083194 0.090000
50.850811 21.691690 6.269176 0.120000
57.208107 15.856514 6.509082 0.060000
11.155278 1.369569 1.534967 0.360000
8.073742 0.161531 1.197429 0.170000
13.133003 -1.123545 1.680863 0.380000
11.308569 -3.498374 1.522271 0.060000
48.270603 -25.983784 5.440207 0.060000
13.134546 3.141711 0.476710 0.070000
10.978723 1.335031 0.484367 0.090000
8.315485 0.168673 0.513080 0.010000
13.181284 -1.118000 0.420997 0.020000
13.390358 -2.629153 0.385925 0.010000
11.261157 -3.475116 0.387222 0.310000
11.343060 -5.133694 0.341270 0.070000
5.634133 1.574018 0.116301 0.100000
5.788878 1.066892 0.114819 0.030000
5.883156 0.583612 0.113269 0.080000
5.962162 0.115061 0.106733 0.040000
5.906467 -0.371092 0.104781 0.050000
5.795495 -0.843301 0.102736 0.030000
5.619644 -1.321735 0.095498 0.050000
5.368616 -1.791607 0.088096 0.090000
46.064816 19.452312 5.518351 0.060000
49.991188 13.671341 5.547111 0.040000
11.155752 1.349703 1.499894 0.410000
8.088984 0.151894 1.177433 0.420000
13.123423 -1.138548 1.630782 0.560000
11.314055 -3.518126 1.482212 0.090000
48.334003 -26.131844 5.234820 0.070000
13.082215 4.836210 0.427872 0.050000
13.120158 3.116615 0.426579 0.040000
11.103804 1.337574 0.444703 0.160000
8.360734 0.159630 0.488164 0.040000
13.136697 -1.133691 0.375822 0.030000
13.390954 -2.653980 0.340834 0.040000
11.150790 -3.452097 0.352019 0.200000
11.303172 -5.134311 0.301163 0.060000
5.545025 1.527321 0.110894 0.100000
5.679570 1.029792 0.114396 0.030000
5.798568 0.562006 0.107968 0.080000
5.862276 0.108146 0.106447 0.040000
5.806294 -0.363009 0.104549 0.050000
5.710237 -0.829913 0.097563 0.030000
5.508898 -1.283849 0.095350 0.060000
5.287878 -1.753128 0.083028 0.090000
45.398228 19.045483 5.240096 0.050000
49.963741 13.566548 5.341648 0.120000
11.156035 1.339835 1.464858 0.730000
8.084241 0.141893 1.152383 0.490000
13.098832 -1.153857 1.585660 0.660000
11.304436 -3.533184 1.447130 0.110000
48.482765 -26.298271 5.029588 0.040000
13.105662 3.096498 0.381466 0.030000
11.064178 1.321922 0.414541 0.090000
8.315999 0.148863 0.463007 0.040000
13.127090 -1.148731 0.335740 0.030000
13.371266 -2.664194 0.295744 0.040000
11.100808 -3.447907 0.311904 0.240000
11.308659 -5.154063 0.261104 0.240000
5.451001 1.475511 0.110456 0.100000
5.605076 1.003379 0.109104 0.030000
5.698874 0.545094 0.107645 0.080000
5.762391 0.101232 0.106161 0.040000
5.716228 -0.359715 0.099327 0.050000
5.634963 -0.816352 0.097417 0.030000
5.428434 -1.260386 0.095227 0.060000
5.202018 -1.709783 0.087966 0.100000
43.570789 18.161629 4.877037 0.070000
49.955662 13.492059 5.156347 0.160000
11.076633 1.313456 1.424552 0.560000
8.084389 0.136968 1.132365 0.640000
13.069134 -1.164281 1.545544 0.590000
17.799238 -3.790622 1.948132 0.000000
11.314826 -3.547841 1.407103 0.130000
48.611389 -26.460159 4.844320 0.010000
10.979763 1.295429 0.379221 0.120000
8.371150 0.145010 0.438136 0.040000
13.371672 -2.679024 0.250689 0.020000
11.075987 -3.453274 0.281819 0.260000
5.386588 1.444272 0.110172 0.090000
5.520667 0.971757 0.108766 0.030000
5.624176 0.528661 0.107389 0.080000
5.677515 0.094624 0.100914 0.040000
5.626149 -0.356440 0.099104 0.060000
5.564702 -0.802677 0.092284 0.030000
5.352982 -1.236808 0.090118 0.060000
5.136468 -1.681015 0.082901 0.100000
43.488159 18.065783 4.671463 0.050000
49.977139 13.443194 4.956220 0.070000
11.027035 1.297650 1.384363 0.910000
8.084537 0.132044 1.112347 0.730000
13.039449 -1.174686 1.500427 0.660000
17.573626 -3.749642 1.867694 0.000000
11.310110 -3.557805 1.372053 0.120000
55.604229 -30.513435 5.252510 0.080000
14.516890 5.414467 0.248765 0.030000
15.091388 3.620171 0.238594 0.040000
10.999934 1.290925 0.349257 0.230000
8.381392 0.135278 0.418127 0.040000
13.107686 -1.168813 0.255614 0.020000
13.166035 -2.642828 0.215287 0.030000
11.066189 -3.458316 0.241774 0.260000
5.297371 1.402556 0.109784 0.100000
5.446064 0.950324 0.108491 0.030000
5.539479 0.512036 0.107106 0.080000
5.622634 0.088590 0.095749 0.030000
5.535974 -0.348165 0.098899 0.050000
5.499536 -0.793905 0.087147 0.040000
5.277421 -1.208251 0.090027 0.050000
5.055717 -1.642555 0.082833 0.090000
29.675797 11.995387 3.192827 0.020000
30.339888 7.892876 3.044309 0.020000
11.012334 1.287513 1.344287 0.980000
8.114693 0.127712 1.087409 1.220000
13.024652 -1.179824 1.460369 0.810000
17.358013 -3.708471 1.787284 0.000000
11.320404 -3.567463 1.332043 0.130000
55.520374 -30.539129 5.002193 0.130000
13.168270 4.808550 0.237992 0.040000
13.887867 3.272097 0.224159 0.040000
11.010215 1.281248 0.314248 0.300000
8.401549 0.130755 0.393162 0.040000
12.829726 -2.574165 0.189664 0.040000
11.202609 -3.525568 0.201880 0.260000
10.799211 -4.913429 0.165668 0.060000
5.232972 1.371336 0.104500 0.090000
5.371557 0.923892 0.108199 0.030000
5.474696 0.500811 0.101895 0.080000
5.537746 0.081963 0.095502 0.030000
5.470891 -0.344411 0.098743 0.050000
5.409169 -0.775633 0.086979 0.030000
5.201956 -1.184692 0.089917 0.060000
5.005164 -1.613500 0.077809 0.120000
29.661867 11.955535 3.077642 0.050000
30.325836 7.857985 2.939142 0.070000
11.047502 1.283296 1.314363 0.900000
13.060038 -1.194002 1.420408 0.720000
17.257998 -3.700165 1.727053 0.000000
11.320687 -3.577331 1.297007 0.110000
55.476418 -30.559059 4.752002 0.100000
12.449289 4.489779 0.219930 0.050000
12.997563 3.020038 0.210898 0.050000
10.995405 1.276092 0.279189 0.090000
8.401711 0.125849 0.368144 0.030000
12.822553 -1.153996 0.179924 0.020000
12.056159 -2.393911 0.178315 0.040000
10.313961 -4.642638 0.155407 0.050000
5.163559 1.340001 0.104202 0.100000
5.301953 0.902556 0.107937 0.030000
5.394902 0.489281 0.101644 0.070000
5.472758 0.080718 0.095328 0.030000
5.330603 -0.332132 0.108423 0.100000
5.318789 -0.757379 0.091811 0.040000
5.146584 -1.165749 0.089843 0.070000
4.944601 -1.584654 0.077759 0.100000
29.677534 11.936234 2.967610 0.140000
30.361198 7.854047 2.834218 0.180000
11.052674 1.278504 1.284358 1.030000
8.080009 0.117211 1.042279 0.160000
13.080234 -1.198469 1.380444 0.660000
17.182905 -3.686344 1.656908 0.000000
11.310793 -3.577374 1.256981 0.110000
55.437233 -30.568949 4.516860 0.040000
11.804719 4.202439 0.202179 0.060000
12.360980 2.837869 0.193559 0.050000
10.995592 1.271223 0.244171 0.070000
8.436769 0.126612 0.343238 0.020000
12.106071 -1.082687 0.173319 0.010000
11.468408 -2.255125 0.172296 0.050000
9.970327 -4.454131 0.140211 0.050000
5.109062 1.313971 0.098963 0.100000
5.237266 0.886332 0.102708 0.030000
5.315205 0.472752 0.101374 0.040000
5.407784 0.079492 0.090154 0.020000
5.345736 -0.336788 0.093445 0.210000
5.243421 -0.738819 0.091683 0.040000
5.081130 -1.141980 0.084761 0.070000
4.889036 -1.555713 0.077721 0.130000
29.653318 11.911188 2.852452 0.130000
30.312071 7.823504 2.723975 0.220000
11.057860 1.273731 1.249354 0.850000
8.085059 0.117381 1.022293 0.180000
13.010268 -1.194643 1.335275 0.470000
17.102791 -3.672656 1.596749 0.000000
11.295887 -3.577531 1.221941 0.100000
20.104258 -10.282331 1.850016 0.000000
11.194746 3.935746 0.189596 0.060000
11.694471 2.650090 0.186121 0.060000
10.985672 1.271143 0.214145 0.130000
8.491920 0.122759 0.318368 0.020000
11.454576 -1.010133 0.166888 0.020000
10.880573 -2.111321 0.161296 0.050000
10.170075 -3.135090 0.150636 0.050000
9.495064 -4.183167 0.134978 0.050000
5.039650 1.282636 0.098666 0.090000
5.187575 0.870396 0.097519 0.030000
5.245314 0.466412 0.101168 0.040000
5.317787 0.077750 0.094913 0.020000
5.245453 -0.323725 0.098231 0.180000
5.168051 -0.720259 0.091555 0.040000
5.020662 -1.118134 0.084691 0.070000
4.843483 -1.526562 0.072711 0.130000
29.668615 11.911903 2.737494 0.030000
30.332258 7.829295 2.614048 0.150000
11.047954 1.273670 1.214327 0.960000
8.075127 0.117283 0.997266 0.210000
13.000375 -1.194686 1.295249 0.450000
13.420428 -2.761992 1.310519 0.000000
11.285898 -3.572575 1.181933 0.090000
13.668530 -6.583135 1.356963 0.000000
10.703793 3.721343 0.177517 0.060000
11.201998 2.515689 0.169335 0.050000
10.995762 1.271465 0.179172 0.110000
8.431983 0.121684 0.298207 0.020000
11.008632 -0.963629 0.155897 0.020000
10.443477 -2.004636 0.150552 0.050000
9.797201 -2.987169 0.140212 0.040000
9.120931 -3.970276 0.129792 0.050000
4.975141 1.256396 0.098400 0.090000
5.127874 0.854250 0.097303 0.020000
5.175518 0.455073 0.100944 0.030000
5.267809 0.076811 0.089779 0.020000
5.175275 -0.315067 0.098080 0.090000
5.112774 -0.706315 0.091463 0.050000
4.980299 -1.098885 0.079658 0.060000
4.782824 -1.492718 0.072678 0.110000
16.314508 6.143927 1.646183 0.020000
11.043034 1.273685 1.184314 1.020000
8.080177 0.117453 0.977280 0.260000
13.020475 -1.194154 1.255303 0.580000
13.450527 -2.761268 1.270600 0.010000
11.280799 -3.562542 1.146956 0.080000
13.668469 -6.572951 1.307000 0.020000
10.262159 3.542890 0.165701 0.060000
10.669506 2.380486 0.162443 0.050000
8.396851 0.131087 0.278150 0.040000
10.577493 -0.906839 0.144982 0.020000
10.091640 -1.911340 0.144980 0.050000
9.454416 -2.843672 0.129851 0.050000
8.802170 -3.776328 0.124681 0.050000
4.920535 1.235346 0.098179 0.090000
5.053175 0.837816 0.097047 0.020000
5.110626 0.448830 0.100751 0.040000
5.187716 0.080259 0.094582 0.010000
5.130105 -0.305912 0.092997 0.050000
5.042308 -0.682660 0.091367 0.040000
4.934925 -1.079751 0.079610 0.080000
4.727067 -1.453779 0.072677 0.100000
16.259567 6.148077 1.591055 0.010000
13.118423 3.083331 1.311460 0.010000
11.022732 1.293410 1.154334 0.760000
8.079943 0.132524 0.957335 0.170000
13.015076 -1.169143 1.225381 0.670000
13.374784 -2.717565 1.230564 0.010000
11.234941 -3.513283 1.112020 0.100000
13.622350 -6.508658 1.262118 0.020000
9.850111 3.384970 0.164038 0.060000
10.320926 2.303815 0.156248 0.060000
10.256320 -0.847961 0.139363 0.020000
9.804790 -1.816798 0.139583 0.050000
9.166787 -2.709157 0.129600 0.040000
8.518486 -3.586727 0.124646 0.060000
4.880555 1.234599 0.093072 0.090000
4.988271 0.831554 0.101855 0.010000
5.080536 0.453254 0.100689 0.030000
5.137533 0.089300 0.094485 0.010000
5.059817 -0.292274 0.097864 0.040000
5.001932 -0.663430 0.091333 0.050000
4.889358 -1.050618 0.079600 0.080000
4.701689 -1.434262 0.072684 0.110000
16.134611 6.150849 1.545738 0.030000
13.122734 3.123530 1.281620 0.040000
8.094679 0.147846 0.947430 0.440000
12.994378 -1.129441 1.200475 0.680000
13.353894 -2.667864 1.205694 0.020000
11.259496 -3.487754 1.097178 0.060000
13.606090 -6.438848 1.232335 0.010000
9.576695 3.299719 0.163007 0.060000
10.066645 2.263938 0.155436 0.050000
10.266551 1.227601 0.147105 0.020000
8.391259 0.166096 0.248265 0.010000
10.090393 -0.801131 0.139104 0.020000
9.673677 -1.759281 0.134454 0.050000
9.075462 -2.640893 0.129615 0.050000
8.401591 -3.488949 0.124704 0.060000
4.835742 1.223720 0.097914 0.090000
4.968178 0.836170 0.101819 0.010000
5.040352 0.462486 0.100619 0.040000
5.127344 0.099106 0.094495 0.010000
5.044533 -0.277565 0.097879 0.040000
4.986648 -0.648720 0.091348 0.060000
4.889166 -1.040620 0.079636 0.070000
4.691212 -1.409458 0.072748 0.110000
13.094084 4.873126 1.333050 0.010000
13.121885 3.168540 1.276785 0.040000
11.106331 1.370098 1.134837 0.500000
8.074216 0.172477 0.942469 0.440000
13.033617 -1.088664 1.195729 0.570000
13.368042 -2.622567 1.200899 0.010000
13.584574 -6.359227 1.227575 0.020000
9.541224 3.324044 0.163005 0.070000
10.011176 2.287879 0.155380 0.060000
10.221081 1.251735 0.147076 0.020000
10.265442 0.242424 0.138440 0.010000
10.069726 -0.766520 0.139179 0.020000
9.678006 -1.724192 0.134596 0.050000
9.094897 -2.610497 0.124779 0.050000
8.431203 -3.468378 0.124858 0.060000
4.835454 1.238717 0.097969 0.090000
4.987804 0.856568 0.096946 0.010000
5.055075 0.477789 0.095714 0.040000
5.127165 0.109123 0.089532 0.010000
5.064351 -0.267165 0.092969 0.040000
4.991455 -0.638627 0.091398 0.050000
4.888783 -1.020624 0.079710 0.110000
