# This PCD file was generated using the MATLAB® pcwrite function
# from Computer Vision Toolbox®.
# .PCD v.7 - Point Cloud Data file format
VERSION .7
FIELDS x y z intensity
SIZE 4 4 4 4
TYPE F F F F
COUNT 1 1 1 1
WIDTH 1284
HEIGHT 1
VIEWPOINT 0 0 0 1 0 0 0
POINTS 1284
DATA ascii
11.192855 1.147958 2.159248 0.220000
7.955921 -0.007167 1.581499 0.770000
43.243141 -5.563683 7.473013 0.020000
13.020094 6.381884 1.363465 0.010000
13.092716 4.428167 1.291392 0.020000
30.420059 7.217317 2.216999 0.040000
11.156135 1.126174 1.089060 0.060000
7.697758 -0.009600 0.895809 0.490000
10.646383 -3.584311 1.040218 0.090000
8.814860 3.910237 0.163288 0.090000
9.219825 2.872827 0.155489 0.050000
9.468969 1.877460 0.142439 0.080000
9.711856 0.946965 0.134614 0.030000
9.635364 -0.019671 0.130821 0.030000
8.746115 -0.857032 0.175387 0.030000
9.160716 -1.869088 0.122707 0.020000
8.662387 -2.743786 0.118155 0.060000
46.195213 25.921360 9.522780 0.020000
42.252678 16.304489 8.021725 0.030000
11.248472 1.119091 2.139286 0.100000
7.946467 -0.032261 1.556380 0.360000
43.266693 -5.732840 7.357445 0.030000
39.378246 -10.221397 6.865604 0.010000
11.375984 -3.984791 2.235646 0.190000
13.031345 6.322235 1.323273 0.020000
13.083864 4.373116 1.256163 0.020000
13.169641 2.774660 1.200445 0.010000
11.087089 1.079953 1.058708 0.100000
7.713178 -0.029254 0.880776 0.470000
13.431633 -3.061188 1.134434 0.010000
10.617028 -3.614787 1.015028 0.230000
8.553454 3.720196 0.161899 0.100000
8.952476 2.732701 0.149270 0.050000
9.195841 1.777211 0.141353 0.080000
9.393065 0.880848 0.133536 0.030000
9.350909 -0.050105 0.124965 0.030000
8.751645 -0.881858 0.155309 0.030000
8.889821 -1.824249 0.117167 0.020000
8.365526 -2.649455 0.117730 0.060000
45.266670 25.104771 9.152317 0.020000
42.261902 16.105181 7.871006 0.060000
7.971968 -0.056740 1.546356 0.220000
39.846622 -5.405807 6.674726 0.010000
39.361645 -10.381286 6.739965 0.020000
13.032696 6.257396 1.283035 0.040000
13.100006 4.318544 1.221002 0.010000
30.465202 6.973780 2.041209 0.030000
11.122818 1.045723 1.033673 0.070000
7.708696 -0.054289 0.865671 0.480000
13.307808 -1.553165 1.104717 0.040000
13.412603 -3.106414 1.094216 0.010000
10.592795 -3.650129 0.979833 0.310000
8.272353 3.514795 0.155402 0.100000
8.670307 2.582270 0.147974 0.050000
8.892814 1.671389 0.140169 0.090000
9.084273 0.814923 0.132485 0.030000
9.041350 -0.076038 0.124061 0.030000
8.596796 -0.889788 0.144876 0.030000
8.598918 -1.779813 0.116572 0.030000
8.103946 -2.569450 0.117345 0.060000
46.795681 25.678787 9.258444 0.030000
42.182449 15.839253 7.694809 0.050000
7.942518 -0.082217 1.521184 0.230000
39.910301 -5.579141 6.544247 0.010000
39.566669 -10.627017 6.634586 0.030000
11.438607 -4.113412 2.180331 0.250000
13.044166 6.187787 1.232805 0.010000
15.081582 5.031456 1.273826 0.030000
13.166863 2.669882 1.120047 0.010000
11.113678 1.005669 0.998500 0.080000
7.709145 -0.074192 0.840598 0.510000
32.198048 -4.354393 1.828620 0.130000
15.867249 -3.854719 1.147842 0.060000
10.583751 -3.695182 0.944642 0.350000
8.035573 3.345249 0.149154 0.100000
8.392863 2.446951 0.141747 0.050000
8.624602 1.576254 0.134115 0.090000
8.785479 0.749189 0.131461 0.030000
8.791794 -0.100804 0.118317 0.030000
8.396847 -0.893600 0.139339 0.040000
8.317916 -1.730186 0.116023 0.020000
6.172543 -1.751827 0.260344 0.040000
44.868881 24.268728 8.678166 0.020000
42.316338 15.657299 7.554481 0.070000
7.823889 0.630710 1.503524 0.040000
7.953047 -0.106947 1.501119 0.220000
39.016518 -5.615330 6.286777 0.020000
39.404572 -10.759613 6.488668 0.030000
11.369025 -4.129583 2.135089 0.250000
13.040721 6.112873 1.187517 0.010000
14.993741 4.924938 1.223200 0.060000
30.530626 6.720758 1.830437 0.030000
11.114427 0.970788 0.968372 0.100000
7.729660 -0.098749 0.825560 0.380000
12.748270 -1.568517 1.003198 0.030000
10.564599 -3.735446 0.914442 0.230000
7.808777 3.175875 0.147932 0.100000
8.145305 2.317187 0.140618 0.050000
8.356377 1.481100 0.133061 0.090000
8.521500 0.694142 0.125567 0.030000
8.467129 -0.122044 0.122391 0.030000
8.246914 -0.896417 0.123937 0.050000
8.062018 -1.685060 0.110523 0.030000
6.167966 -1.771863 0.245258 0.120000
45.874088 24.533154 8.646772 0.040000
42.564159 15.532555 7.409662 0.090000
7.804451 0.605443 1.473379 0.160000
7.928596 -0.132328 1.475961 0.540000
39.666824 -5.877702 6.227498 0.020000
39.011261 -10.821368 6.272410 0.030000
11.279377 -4.141100 2.079812 0.460000
13.071899 6.058643 1.137397 0.020000
14.925814 4.823821 1.167646 0.120000
11.155277 0.931691 0.933333 0.090000
7.720192 -0.123861 0.805441 0.380000
12.664061 -1.604990 0.962842 0.080000
15.679201 -3.942933 1.037022 0.140000
10.575743 -3.790114 0.879267 0.240000
7.611510 3.032090 0.141883 0.100000
7.887845 2.182232 0.139445 0.050000
8.113065 1.391443 0.127093 0.080000
8.232608 0.633598 0.124588 0.030000
8.202478 -0.142098 0.116625 0.040000
7.826296 -1.649568 0.110040 0.030000
6.148296 -1.787187 0.230149 0.150000
45.831104 24.198097 8.420413 0.050000
44.896717 16.176626 7.613147 0.050000
43.226807 9.455657 6.983798 0.010000
7.770193 0.569873 1.448157 0.300000
7.954123 -0.156770 1.455936 0.870000
40.297394 -6.155491 6.178111 0.010000
38.839321 -10.959063 6.101448 0.030000
11.275523 -4.196055 2.044597 0.180000
13.210139 2.516124 0.999587 0.000000
11.186129 0.892404 0.898267 0.040000
11.616852 -1.489768 0.890536 0.080000
15.655499 -4.003196 0.981736 0.160000
10.566793 -3.840166 0.844058 0.200000
7.394439 2.877924 0.135743 0.100000
7.699727 2.083649 0.128587 0.050000
7.859645 1.306574 0.126116 0.090000
8.003526 0.584220 0.118806 0.030000
7.937816 -0.162170 0.115860 0.040000
7.826731 -0.889426 0.112867 0.020000
7.635783 -1.623176 0.099640 0.040000
6.123641 -1.802589 0.210027 0.110000
48.954247 25.587055 8.733731 0.040000
44.773376 15.860051 7.381646 0.070000
43.256489 9.236847 6.803060 0.020000
7.745742 0.544491 1.422999 0.370000
7.929672 -0.182151 1.430778 0.780000
39.970455 -6.291061 5.981751 0.020000
39.100105 -11.243733 5.996069 0.020000
13.129533 5.935074 1.042087 0.030000
15.003373 4.705670 1.062408 0.040000
15.287812 2.915930 1.021497 0.010000
11.657990 -1.543862 0.855442 0.230000
15.415605 -4.002570 0.921111 0.050000
10.588140 -3.904621 0.803873 0.160000
7.177354 2.723739 0.134603 0.110000
7.486875 1.969552 0.127607 0.050000
7.680841 1.243157 0.120413 0.090000
7.774431 0.534824 0.118024 0.030000
7.743248 -0.185882 0.110264 0.040000
7.651681 -0.887760 0.107416 0.020000
7.394966 -1.582781 0.099162 0.040000
49.224045 25.367935 8.528619 0.040000
44.088951 15.342934 7.082934 0.070000
43.086819 8.984267 6.606676 0.010000
7.736384 0.514399 1.397862 0.500000
11.671439 -1.612540 1.925233 0.010000
37.882351 -11.065832 5.668549 0.020000
14.990162 4.620622 1.002057 0.140000
12.611373 -0.405365 0.852163 0.160000
11.573781 -1.580334 0.815086 0.270000
15.412377 -4.087445 0.865787 0.130000
10.589381 -3.964480 0.768654 0.140000
6.975075 2.579840 0.133540 0.120000
7.298743 1.870950 0.121750 0.060000
7.452417 1.158767 0.119503 0.100000
7.585246 0.491212 0.112368 0.030000
7.538587 -0.204787 0.104659 0.040000
7.416438 -0.877263 0.106841 0.030000
7.159051 -1.537291 0.098715 0.030000
6.846772 -2.203371 0.090424 0.090000
49.409363 25.122229 8.313188 0.050000
44.054367 15.087959 6.881894 0.060000
57.131073 11.777223 8.428737 0.060000
7.741914 0.489573 1.377784 0.530000
7.925857 -0.237050 1.380563 0.350000
11.702579 -1.666824 1.890112 0.020000
38.022343 -11.307735 5.543013 0.030000
13.083361 5.749542 0.936276 0.060000
14.942039 4.529886 0.946593 0.130000
15.136386 2.743403 0.910459 0.020000
12.627433 -0.454920 0.812020 0.600000
11.579746 -1.625081 0.774935 0.320000
15.408863 -4.157323 0.810517 0.420000
6.797421 2.456434 0.127618 0.120000
7.100601 1.772138 0.120865 0.050000
7.273614 1.095350 0.113801 0.090000
7.366054 0.447006 0.111632 0.040000
7.318820 -0.218998 0.104033 0.040000
7.206203 -0.866269 0.101333 0.020000
6.958323 -1.501129 0.098326 0.040000
6.660657 -2.146925 0.090148 0.090000
43.349190 21.584831 7.114206 0.040000
44.278385 14.902803 6.721788 0.050000
57.172234 11.488822 8.192769 0.170000
7.732556 0.459481 1.352648 0.440000
7.941481 -0.266683 1.360494 0.710000
11.613301 -1.698357 1.839761 0.030000
38.926643 -11.780390 5.513617 0.010000
14.983325 4.470868 0.891481 0.260000
13.222102 0.876815 0.788523 0.010000
11.545624 -1.665595 0.734695 0.310000
6.639559 2.343391 0.126785 0.120000
6.927262 1.683803 0.120084 0.060000
7.064886 1.026322 0.117999 0.110000
7.181759 0.408470 0.111008 0.030000
7.104039 -0.233132 0.108420 0.040000
7.026044 -0.859718 0.100887 0.030000
6.792778 -1.474294 0.097993 0.040000
6.484540 -2.090288 0.089899 0.120000
42.087814 20.656977 6.707460 0.060000
44.303310 14.673974 6.521001 0.110000
40.570915 7.824051 5.730787 0.050000
7.743098 0.434770 1.327583 0.540000
11.624267 -1.743008 1.799623 0.100000
39.031712 -12.022871 5.362988 0.020000
46.721485 -22.037153 6.650847 0.050000
13.091413 5.605055 0.830758 0.030000
13.096918 3.754907 0.803895 0.090000
15.014487 2.596464 0.794594 0.040000
11.566766 -1.720072 0.699547 0.290000
6.481709 2.230366 0.120953 0.120000
6.744021 1.590277 0.119258 0.050000
6.900983 0.968191 0.112355 0.110000
6.982467 0.369646 0.110343 0.040000
6.929276 -0.246463 0.102914 0.040000
6.835793 -0.848360 0.100432 0.030000
6.592050 -1.438132 0.097604 0.040000
6.338717 -2.048055 0.084675 0.100000
41.138470 19.879942 6.352090 0.080000
44.651634 14.526205 6.361359 0.050000
40.490509 7.608114 5.554772 0.070000
7.723742 0.404485 1.302420 0.540000
11.570065 -1.778887 1.754348 0.090000
39.740372 -12.459138 5.298215 0.010000
44.370255 -21.140137 6.133039 0.040000
15.130418 4.379091 0.776523 0.170000
14.931276 2.510056 0.739055 0.010000
13.219446 0.767074 0.698107 0.000000
14.783476 -0.733237 0.696612 0.140000
11.758368 -1.796269 0.659764 0.220000
13.425492 -3.714588 0.631984 0.050000
11.174655 -4.472774 0.608290 0.030000
6.333653 2.127512 0.120184 0.110000
6.585406 1.517244 0.113573 0.060000
6.726974 0.914849 0.111703 0.110000
6.833083 0.336798 0.104831 0.040000
6.769498 -0.259526 0.102448 0.040000
6.665633 -0.841618 0.100013 0.040000
6.421411 -1.406395 0.097276 0.040000
6.172599 -1.991226 0.084453 0.090000
41.283009 19.668297 6.181679 0.100000
46.395454 14.859514 6.407151 0.030000
42.437267 7.785154 5.635513 0.080000
7.739271 0.379852 1.282369 0.490000
11.546036 -1.824209 1.714117 0.080000
41.561249 -13.279648 5.364919 0.010000
44.966328 -21.698452 6.032518 0.080000
13.124076 5.481044 0.725382 0.030000
15.186605 4.325359 0.721469 0.140000
11.290146 1.760411 0.666763 0.030000
31.126993 1.850334 0.718878 0.010000
11.744349 -1.841380 0.614559 0.300000
13.549364 -5.732316 0.554806 0.030000
6.205307 2.040039 0.119524 0.110000
6.426873 1.439194 0.112869 0.050000
6.572961 0.861890 0.111104 0.120000
6.648679 0.303242 0.109225 0.030000
6.594626 -0.267876 0.101961 0.040000
6.495377 -0.829876 0.099613 0.030000
6.255758 -1.374580 0.101962 0.050000
6.031763 -1.948916 0.084242 0.090000
47.478760 22.470158 6.833274 0.050000
44.791103 14.085155 5.990080 0.050000
42.441486 7.590879 5.449800 0.090000
12.008692 -0.655178 1.729670 0.250000
11.546989 -1.869070 1.678952 0.050000
40.539036 -13.133136 5.072792 0.020000
44.871109 -21.919546 5.821446 0.120000
13.130548 3.586053 0.658353 0.060000
11.186502 1.693542 0.631244 0.070000
30.730146 1.698129 0.602275 0.020000
12.121922 -0.663849 0.594922 0.090000
11.685123 -1.877393 0.579270 0.360000
11.822294 -3.289905 0.544377 0.060000
6.052156 1.942088 0.118760 0.120000
6.258329 1.360934 0.117138 0.040000
6.403951 0.808644 0.110465 0.110000
6.514196 0.275680 0.103771 0.030000
6.434739 -0.275958 0.106513 0.040000
6.325013 -0.813154 0.104230 0.030000
6.110114 -1.342363 0.101702 0.050000
5.840240 -1.872607 0.094026 0.100000
47.266926 22.076948 6.581257 0.050000
45.208305 13.993643 5.850827 0.090000
50.720505 8.916846 6.246347 0.040000
7.735347 0.329933 1.237172 0.080000
11.934507 -0.691422 1.679341 0.400000
40.251144 -13.217931 4.871723 0.010000
44.795670 -22.130295 5.620463 0.040000
13.102202 5.330947 0.629766 0.030000
11.212273 1.659176 0.591183 0.160000
13.202567 0.622202 0.567523 0.000000
12.122780 -0.703712 0.559775 0.090000
11.711085 -1.921757 0.539173 0.330000
11.647048 -3.273112 0.503982 0.130000
13.547335 -5.871976 0.444281 0.020000
5.923809 1.854615 0.118100 0.110000
6.114505 1.298169 0.116529 0.040000
6.264744 0.765970 0.109943 0.100000
6.304689 0.246625 0.113117 0.030000
6.284863 -0.283830 0.106093 0.040000
6.164755 -0.801221 0.103856 0.040000
5.979660 -1.319858 0.101445 0.050000
5.729602 -1.839702 0.088860 0.110000
57.015396 26.545807 7.613326 0.130000
44.676029 13.619263 5.608044 0.080000
42.743305 7.277649 5.164420 0.050000
7.720894 0.304743 1.212041 0.130000
11.935378 -0.731266 1.639195 0.670000
45.396725 -22.683405 5.489975 0.140000
14.931999 6.151392 0.567591 0.070000
13.122906 3.476236 0.562924 0.070000
11.158249 1.613280 0.550871 0.160000
27.128120 1.274766 0.401297 0.010000
12.148754 -0.748057 0.514678 0.040000
11.622923 -3.313434 0.463768 1.000000
13.523428 -5.922259 0.394031 0.060000
5.785451 1.766931 0.122413 0.100000
5.970765 1.230386 0.120902 0.040000
6.105527 0.722895 0.114367 0.090000
6.190106 0.224445 0.107735 0.030000
6.119881 -0.287008 0.110651 0.040000
6.059679 -0.798233 0.103593 0.030000
5.859216 -1.297142 0.096215 0.050000
5.598573 -1.787202 0.088713 0.110000
50.056892 22.906004 6.461620 0.040000
44.735085 13.436094 5.407515 0.080000
42.801750 7.124420 4.979002 0.130000
7.756323 0.285492 1.192061 0.290000
11.876081 -0.762242 1.593925 0.750000
45.134113 -22.777588 5.253937 0.110000
14.859086 6.050198 0.507024 0.060000
16.111662 4.363944 0.489025 0.040000
11.193909 1.584086 0.515855 0.110000
8.127868 0.300012 0.538078 0.000000
13.291559 -0.875992 0.462185 0.040000
11.533237 -3.325007 0.423491 0.290000
5.676813 1.694838 0.121861 0.090000
5.861648 1.183288 0.120442 0.040000
5.991219 0.685700 0.113931 0.090000
6.065513 0.202055 0.107327 0.030000
6.025007 -0.293808 0.105378 0.050000
5.914323 -0.781014 0.103278 0.040000
5.753757 -1.274158 0.096025 0.050000
5.497921 -1.754124 0.088573 0.100000
46.505314 20.954933 5.820090 0.090000
46.126011 13.667939 5.367007 0.080000
54.027763 8.871260 5.959808 0.050000
11.901935 -0.801625 1.558845 0.780000
52.403191 -10.941888 5.481911 0.040000
45.053101 -22.958439 5.053051 0.040000
15.118332 6.100392 0.447887 0.030000
16.550613 4.432619 0.420425 0.030000
11.169785 1.543764 0.475642 0.130000
8.198400 0.276450 0.513175 0.010000
11.940043 -0.806790 0.438914 0.060000
13.340863 -2.395059 0.386666 0.090000
11.498922 -3.355523 0.383287 0.260000
11.297785 -4.859531 0.347171 0.050000
5.607714 1.648543 0.111509 0.120000
5.737725 1.125904 0.119905 0.040000
5.871816 0.653407 0.113499 0.090000
5.965819 0.185143 0.107004 0.030000
5.880021 -0.296604 0.109989 0.060000
5.839350 -0.782432 0.098077 0.040000
5.633204 -1.246462 0.095813 0.060000
5.392270 -1.721142 0.088420 0.090000
51.495106 23.054674 6.165924 0.030000
46.358727 13.553018 5.192185 0.130000
57.380978 9.240104 6.089933 0.080000
7.722227 0.245015 1.141822 0.070000
11.902710 -0.836470 1.518717 0.830000
52.502609 -11.144304 5.286416 0.030000
45.537472 -15.826619 4.730824 0.010000
44.572613 -22.906824 4.831986 0.030000
13.082232 5.096256 0.428839 0.070000
13.120942 3.336668 0.427399 0.050000
11.195433 1.514360 0.445599 0.120000
8.163841 0.255858 0.493008 1.000000
11.930712 -0.836845 0.403778 0.090000
11.414138 -3.362001 0.343042 0.170000
11.273469 -4.889855 0.306995 0.060000
5.503966 1.581526 0.115989 0.090000
5.663423 1.089493 0.114576 0.030000
5.782421 0.621708 0.108148 0.090000
5.841130 0.167752 0.106613 0.030000
5.800145 -0.303116 0.104756 0.060000
5.713977 -0.764848 0.102815 0.040000
5.537839 -1.228285 0.095632 0.060000
5.316722 -1.692565 0.083329 0.110000
46.975613 20.735275 5.445497 0.080000
46.392353 13.389292 5.011663 0.040000
11.193045 1.495553 1.470533 0.000000
7.732660 0.225285 1.121775 0.070000
11.953558 -0.875375 1.483705 0.670000
52.481529 -11.318951 5.070709 0.030000
45.465893 -15.977264 4.525074 0.020000
44.536453 -23.076740 4.611258 0.060000
19.178627 5.108747 0.244797 0.020000
11.156202 1.478731 0.410364 0.070000
8.174191 0.241145 0.467980 0.030000
11.931391 -0.866691 0.363668 0.090000
16.230728 -3.119200 0.216516 0.040000
11.329246 -3.363499 0.307814 0.260000
11.264341 -4.929891 0.266822 0.280000
5.419940 1.529908 0.115578 0.090000
5.574110 1.052776 0.114206 0.040000
5.687918 0.594893 0.107801 0.090000
5.766445 0.151337 0.101357 0.030000
5.710162 -0.304840 0.104515 0.050000
5.633909 -0.761363 0.097619 0.050000
5.452485 -1.209898 0.090478 0.060000
5.221069 -1.659391 0.083203 0.110000
47.153362 20.619337 5.260528 0.080000
48.717449 13.923806 5.049719 0.050000
11.233608 1.471453 1.435549 0.010000
7.723002 0.210170 1.101694 0.070000
11.944143 -0.900413 1.443587 0.700000
45.338840 -9.832641 4.282582 0.010000
45.428822 -16.107393 4.359492 0.030000
47.794544 -25.050114 4.727428 0.100000
15.231067 5.983172 0.272743 0.040000
11.037166 1.431553 0.379877 0.100000
8.204635 0.221816 0.442987 0.030000
11.967159 -0.900865 0.323634 0.100000
14.790082 -2.836704 0.203805 0.030000
11.299821 -3.388939 0.272642 0.340000
11.280401 -4.979445 0.226679 0.090000
5.350733 1.488593 0.110243 0.100000
5.504711 1.021460 0.108909 0.030000
5.608316 0.573365 0.107513 0.080000
5.666642 0.139405 0.106053 0.030000
5.635285 -0.311257 0.099295 0.050000
5.558745 -0.752782 0.092454 0.040000
5.372116 -1.191434 0.090336 0.060000
5.150507 -1.630737 0.083125 0.120000
47.201736 20.470953 5.065101 0.040000
30.231546 8.310434 3.165580 0.030000
11.214277 1.441206 1.400386 0.070000
7.723354 0.195266 1.076639 0.070000
45.341763 -9.962003 4.117107 0.020000
45.376591 -16.227772 4.183907 0.030000
50.143005 -26.515451 4.743111 0.040000
14.205688 5.473499 0.253172 0.060000
15.137654 3.816110 0.234443 0.040000
11.027738 1.406496 0.344759 0.100000
8.244980 0.207678 0.418040 0.020000
13.293916 -2.530340 0.211039 0.030000
11.310595 -3.423592 0.232541 0.410000
5.291523 1.447470 0.104936 0.100000
5.430300 0.990029 0.108598 0.030000
5.533713 0.551932 0.107239 0.070000
5.631866 0.128774 0.095922 0.030000
5.545301 -0.312980 0.099054 0.060000
5.493661 -0.749028 0.092298 0.040000
5.296747 -1.172874 0.090209 0.060000
5.064853 -1.597372 0.083025 0.140000
29.648098 12.394872 3.209240 0.020000
30.273346 8.231606 3.060395 0.020000
11.184854 1.415767 1.365214 0.190000
7.738678 0.180612 1.061624 0.210000
13.097517 -1.068427 1.465973 0.500000
18.379255 -3.774199 1.864706 0.000000
46.205715 -16.681589 4.079383 0.010000
50.162167 -26.704384 4.542457 0.030000
13.175216 4.968729 0.233606 0.050000
13.915000 3.422661 0.219789 0.050000
10.978400 1.375656 0.314515 0.100000
11.998390 -0.955020 0.253513 0.020000
12.952991 -2.481769 0.185329 0.050000
11.326354 -3.458168 0.197454 0.200000
10.907848 -4.841336 0.166219 0.050000
5.212292 1.405927 0.109575 0.100000
5.365791 0.963789 0.108332 0.030000
5.469026 0.535709 0.102010 0.070000
5.532063 0.116842 0.100617 0.030000
5.495324 -0.313919 0.093920 0.050000
5.418483 -0.740466 0.092134 0.040000
5.236471 -1.159026 0.090103 0.060000
5.024586 -1.583122 0.077973 0.120000
29.674873 12.315720 3.114015 0.010000
30.314709 8.172700 2.975283 0.020000
11.170414 1.390596 1.335083 0.520000
7.729020 0.165498 1.041543 0.070000
13.098087 -1.093292 1.430882 0.740000
18.048637 -3.735268 1.793987 0.000000
11.358942 -3.486600 1.302444 0.000000
51.171417 -27.424816 4.442412 0.060000
12.511403 4.640996 0.220654 0.060000
13.070045 3.151431 0.216575 0.050000
10.963864 1.355484 0.284402 0.150000
11.968870 -0.975461 0.218360 0.050000
12.159785 -2.321932 0.183853 0.040000
10.423174 -4.600539 0.155849 0.050000
5.152987 1.369804 0.104286 0.110000
5.311294 0.937759 0.103093 0.030000
5.384412 0.514066 0.106709 0.070000
5.487181 0.111000 0.095478 0.030000
5.380224 -0.311160 0.103630 0.060000
5.333308 -0.732096 0.091943 0.040000
5.181207 -1.145064 0.085010 0.060000
4.964118 -1.559276 0.077904 0.160000
29.661804 12.230876 2.998664 0.020000
30.296547 8.092759 2.859937 0.070000
11.150988 1.365347 1.299938 0.500000
7.734262 0.155670 1.021520 0.060000
13.038490 -1.109289 1.390667 0.440000
17.883646 -3.728188 1.728582 0.000000
11.394780 -3.525811 1.272392 0.010000
51.093914 -27.530659 4.261815 0.030000
11.931808 4.354881 0.208078 0.060000
12.508543 2.965700 0.199419 0.060000
10.974311 1.335772 0.259356 0.150000
12.675200 0.273471 0.174846 0.010000
11.964333 -0.995441 0.188274 0.030000
11.632802 -2.221971 0.172849 0.040000
10.130489 -4.461064 0.140603 0.060000
5.103571 1.338852 0.104041 0.100000
5.266685 0.916901 0.102899 0.030000
5.354622 0.503512 0.101592 0.050000
5.412386 0.099565 0.095241 0.020000
5.360349 -0.316505 0.093558 0.220000
5.278126 -0.723151 0.091832 0.040000
5.110932 -1.131407 0.084878 0.070000
4.908745 -1.540333 0.077830 0.120000
29.668734 12.146415 2.883367 0.080000
30.283260 8.017877 2.754623 0.040000
11.171350 1.350845 1.269937 0.410000
7.699513 0.145076 1.001389 0.080000
12.993986 -1.129999 1.350473 0.480000
11.299602 -3.512503 1.237193 0.020000
34.492260 -18.276985 2.892864 0.010000
11.317397 4.058080 0.200371 0.070000
11.917117 2.774357 0.192164 0.050000
10.994673 1.321269 0.229355 0.120000
12.025814 0.236046 0.168012 0.010000
11.739236 -0.989678 0.167707 0.020000
11.115707 -2.116837 0.166890 0.050000
10.375612 -3.161159 0.151075 0.040000
9.711268 -4.244037 0.135316 0.050000
5.064070 1.313109 0.098843 0.090000
5.202177 0.890661 0.102633 0.030000
5.284923 0.487174 0.101349 0.050000
5.352493 0.093417 0.095061 0.020000
5.295266 -0.312751 0.093402 0.280000
5.197854 -0.709686 0.091672 0.050000
5.065653 -1.117272 0.084812 0.100000
4.858384 -1.521276 0.072769 0.130000
29.675335 12.076896 2.783125 0.170000
18.846655 4.726529 1.822526 0.010000
11.186809 1.331247 1.239904 0.630000
7.689855 0.129961 0.981308 0.070000
12.999460 -1.149769 1.315413 0.500000
13.434511 -2.716787 1.330724 0.000000
11.340356 -3.546600 1.202172 0.050000
10.896336 3.850016 0.188498 0.060000
11.395211 2.609370 0.180188 0.050000
11.104839 1.318507 0.194632 0.130000
11.566309 0.207277 0.156705 0.010000
11.233480 -0.954339 0.161518 0.020000
10.673983 -2.030263 0.161058 0.050000
10.013202 -3.038059 0.145587 0.040000
9.367896 -4.070564 0.130064 0.050000
4.989742 1.276661 0.103513 0.100000
5.147583 0.869630 0.097412 0.020000
5.220222 0.470932 0.101120 0.040000
5.297612 0.087383 0.089896 0.020000
5.230278 -0.313995 0.093228 0.140000
5.147768 -0.705645 0.091557 0.050000
5.010389 -1.103309 0.079720 0.090000
4.807915 -1.497238 0.072727 0.110000
29.661953 12.007012 2.677829 0.130000
19.086140 4.761268 1.783279 0.000000
11.047514 1.298721 1.199419 0.720000
7.704987 0.125305 0.966330 0.060000
13.024943 -1.169138 1.275408 0.470000
13.485168 -2.745694 1.295748 0.000000
11.275269 -3.537717 1.167035 0.050000
13.652640 -6.533339 1.332106 0.010000
10.475177 3.646951 0.176644 0.070000
10.972808 2.471292 0.168572 0.050000
11.010402 1.291785 0.169286 0.060000
11.121693 0.183776 0.150457 0.010000
10.812901 -0.927371 0.155521 0.020000
10.307545 -1.957231 0.150373 0.040000
9.665897 -2.919653 0.135120 0.040000
8.994146 -3.877669 0.124806 0.050000
4.960144 1.256109 0.098359 0.080000
5.087977 0.848485 0.097178 0.020000
5.160521 0.454786 0.100904 0.040000
5.227708 0.081025 0.094690 0.010000
5.150184 -0.310547 0.098032 0.090000
5.087587 -0.696796 0.091432 0.040000
4.939910 -1.079673 0.084624 0.100000
4.772634 -1.482911 0.072688 0.110000
13.148557 3.073833 1.331503 0.000000
11.047880 1.283835 1.169364 1.240000
7.710229 0.115477 0.946307 0.060000
13.015324 -1.184196 1.240326 0.670000
13.390207 -2.742347 1.250513 0.020000
11.250556 -3.548064 1.131931 0.080000
13.638144 -6.553455 1.286993 0.020000
10.078727 3.459362 0.164911 0.080000
10.490498 2.327048 0.161777 0.060000
8.261971 0.123502 0.277770 0.010000
10.432233 -0.894619 0.144649 0.020000
10.001287 -1.893049 0.139812 0.060000
9.343671 -2.805786 0.129703 0.050000
8.696149 -3.723331 0.119601 0.060000
4.890828 1.219775 0.098043 0.090000
5.023373 0.827244 0.096930 0.010000
5.095725 0.443543 0.100693 0.040000
5.167828 0.074896 0.089511 0.010000
5.075102 -0.306984 0.097849 0.060000
5.022312 -0.683043 0.091313 0.040000
4.889632 -1.065634 0.084545 0.110000
4.707071 -1.454162 0.072624 0.110000
13.071745 4.732636 1.342469 0.010000
13.183751 3.069653 1.291579 0.010000
11.033248 1.268662 1.139269 1.345000
7.740359 0.111108 0.931369 0.180000
13.025701 -1.198872 1.205298 0.680000
13.380506 -2.752388 1.210450 0.010000
11.245840 -3.558028 1.096882 0.070000
13.638562 -6.568266 1.236939 0.020000
10.082695 2.209235 0.155274 0.050000
10.332606 1.173875 0.142078 0.020000
8.312123 0.119554 0.252886 0.020000
10.076546 -0.861407 0.138844 0.020000
9.639738 -1.814941 0.134159 0.060000
9.026060 -2.671827 0.124371 0.050000
8.381939 -3.509384 0.139577 0.050000
4.850822 1.218990 0.102936 0.090000
4.983272 0.831458 0.101841 0.010000
5.065526 0.452948 0.105649 0.030000
5.107622 0.083708 0.099386 0.010000
5.064804 -0.292197 0.102877 0.050000
5.012013 -0.668256 0.096341 0.050000
4.899439 -1.055444 0.084608 0.100000
4.711782 -1.439069 0.072692 0.110000
16.164555 6.151349 1.565818 0.020000
13.112971 3.108267 1.301538 0.010000
7.684890 0.135050 0.931313 0.060000
12.984519 -1.139705 1.220411 0.770000
13.354212 -2.687953 1.230621 0.020000
11.254732 -3.502921 1.117110 0.070000
13.596396 -6.459146 1.262234 0.030000
9.948943 3.446874 0.164526 0.070000
10.435042 2.351008 0.156721 0.050000
10.635907 1.264682 0.148207 0.020000
10.416469 -0.854914 0.144755 0.020000
9.995521 -1.853152 0.139945 0.060000
9.383184 -2.780025 0.129902 0.050000
8.745442 -3.687417 0.129864 0.070000
4.910153 1.255151 0.098225 0.090000
5.017964 0.847107 0.106990 0.020000
5.120241 0.469017 0.100852 0.040000
5.187428 0.095256 0.094637 0.010000
5.129805 -0.290934 0.098051 0.050000
5.062113 -0.672279 0.091457 0.060000
4.954633 -1.064370 0.079719 0.120000
4.762156 -1.458108 0.072753 0.120000
29.683746 12.187810 2.583557 0.020000
11.121498 1.355221 1.179822 0.430000
7.684550 0.149973 0.951368 0.070000
13.008862 -1.109344 1.250588 0.660000
11.309356 -3.486982 1.147312 0.030000
13.580050 -6.394595 1.302432 0.020000
10.270612 3.623047 0.171021 0.070000
10.757751 2.472174 0.168014 0.060000
10.914583 1.334995 0.159196 0.030000
8.325975 0.174700 0.288127 0.020000
10.756680 -0.863418 0.150612 0.020000
10.306395 -1.897243 0.150593 0.060000
9.694933 -2.869088 0.135384 0.040000
9.038167 -3.826836 0.130110 0.060000
4.944668 1.280817 0.098411 0.090000
5.087389 0.878460 0.102288 0.020000
5.164945 0.484876 0.101027 0.040000
5.237227 0.106212 0.094808 0.020000
5.179699 -0.284977 0.098204 0.050000
5.127196 -0.676033 0.091613 0.080000
4.984710 -1.068813 0.084781 0.140000
4.817434 -1.472052 0.072845 0.110000
29.701197 12.307817 2.679050 0.020000
11.155839 1.385774 1.210025 0.450000
7.694222 0.165106 0.966449 0.070000
13.013194 -1.079384 1.285711 0.510000
10.631986 3.814984 0.177678 0.070000
11.189892 2.625477 0.169712 0.060000
10.968837 1.370948 0.184472 0.080000
8.285643 0.188857 0.308075 0.030000
11.177067 -0.880388 0.156646 0.020000
10.662560 -1.955450 0.156307 0.050000
10.021775 -2.962863 0.140889 0.050000
9.426831 -4.014425 0.130427 0.060000
4.989180 1.306674 0.098623 0.090000
5.136997 0.899414 0.102495 0.020000
5.224647 0.501022 0.101243 0.040000
5.292026 0.117263 0.094992 0.020000
5.259697 -0.283427 0.093418 0.070000
5.172284 -0.680171 0.091715 0.080000
5.049985 -1.082566 0.084900 0.150000
4.852619 -1.481379 0.072902 0.120000
29.694071 12.407405 2.759402 0.020000
11.160197 1.415771 1.235149 0.340000
7.703798 0.185238 0.981550 0.060000
12.947375 -1.040729 1.310683 0.400000
18.138258 -3.692976 1.639377 0.000000
33.347542 -11.741782 2.649168 0.040000
11.047774 4.037968 0.184592 0.070000
11.043087 1.407285 0.209801 0.080000
8.260212 0.208300 0.328081 0.040000
11.637351 -0.891593 0.162806 0.020000
11.073812 -2.017603 0.162149 0.050000
10.378804 -3.066062 0.146437 0.050000
9.729445 -4.148672 0.135718 0.050000
5.033597 1.337530 0.098854 0.080000
5.176606 0.920176 0.102676 0.030000
5.279349 0.517073 0.101445 0.040000
5.361821 0.128602 0.095217 0.010000
5.344790 -0.286779 0.088628 0.140000
5.227369 -0.684116 0.091844 0.070000
5.110275 -1.096395 0.080006 0.170000
4.902979 -1.500437 0.077963 0.100000
29.662035 12.501496 2.844669 0.020000
7.743451 0.200927 1.001711 0.250000
12.986810 -1.015079 1.340881 0.300000
18.488707 -3.721489 1.700186 0.000000
33.380409 -11.641428 2.729627 0.020000
11.478369 4.271237 0.191583 0.070000
12.073842 2.947408 0.188216 0.060000
10.977651 1.425943 0.234700 0.100000
8.259789 0.228240 0.343154 0.040000
11.927366 -0.891076 0.173565 0.060000
11.505169 -2.084354 0.163027 0.050000
10.766018 -3.178685 0.152029 0.040000
10.123013 -4.331166 0.136067 0.060000
5.087916 1.373576 0.099130 0.080000
5.231117 0.946225 0.102915 0.030000
5.328956 0.538027 0.101653 0.040000
5.411620 0.139558 0.095387 0.020000
5.379675 -0.281128 0.093740 0.390000
5.297452 -0.687775 0.092014 0.070000
5.140256 -1.095839 0.085087 0.160000
4.968460 -1.524168 0.073046 0.130000
29.570257 12.579386 2.944721 0.060000
7.728127 0.215581 1.016726 0.300000
11.969313 -0.889415 1.303692 0.360000
18.884274 -3.759232 1.786079 0.000000
33.181545 -11.455570 2.829800 0.010000
17.532244 -8.360883 1.750444 0.000000
11.963448 4.530518 0.208813 0.080000
12.600172 3.142486 0.200315 0.050000
11.051901 1.462280 0.260029 0.130000
12.016868 -2.169606 0.174046 0.050000
11.208606 -3.310250 0.157696 0.050000
10.450800 -4.474951 0.146388 0.060000
5.127225 1.409317 0.104365 0.100000
5.285532 0.977273 0.103172 0.030000
5.373661 0.553886 0.101828 0.080000
5.486427 0.151011 0.090625 0.030000
5.414464 -0.270479 0.098871 0.280000
5.362549 -0.691511 0.087170 0.070000
5.200437 -1.104688 0.085211 0.180000
5.003440 -1.523517 0.078139 0.150000
29.602430 12.714696 3.035308 0.020000
17.472670 4.655056 1.858674 0.010000
7.692711 0.234851 1.031705 0.370000
11.983562 -0.854246 1.333860 0.660000
19.154137 -3.759320 1.856784 0.000000
33.173820 -11.326026 2.920262 0.010000
17.722614 -8.387480 1.815842 0.000000
13.191011 3.363804 0.212680 0.050000
11.111058 1.503329 0.285336 0.130000
11.900970 -0.826790 0.233736 0.040000
12.633847 -2.267825 0.180291 0.040000
11.464655 -3.365429 0.178159 0.090000
10.864338 -4.657100 0.156790 0.070000
5.171641 1.440173 0.104596 0.090000
5.335031 1.003207 0.108398 0.030000
5.453166 0.580413 0.102135 0.070000
5.526215 0.161756 0.095769 0.030000
5.524469 -0.268335 0.089166 0.160000
5.427619 -0.695283 0.092326 0.080000
5.280709 -1.118153 0.085370 0.150000
5.084000 -1.551979 0.078244 0.130000
29.564959 12.828613 3.140635 0.020000
17.282410 4.661266 1.898201 0.020000
7.682386 0.249601 1.046733 0.370000
11.957817 -0.819843 1.363921 0.630000
32.533783 -6.632436 2.931039 0.010000
39.459526 -13.473168 3.513694 0.000000
17.847313 -8.380347 1.886195 0.000000
13.250327 5.225232 0.229755 0.070000
11.035598 1.521759 0.320208 0.120000
13.366272 -2.388856 0.191753 0.040000
11.534359 -3.354221 0.213383 0.190000
11.474768 -4.935477 0.162349 0.050000
5.240766 1.486505 0.104948 0.100000
5.404442 1.034542 0.108696 0.030000
5.512759 0.601540 0.107369 0.080000
5.620910 0.178573 0.096079 0.030000
5.564244 -0.257608 0.099309 0.120000
5.522710 -0.698444 0.087562 0.060000
5.366076 -1.136522 0.085525 0.140000
5.134265 -1.566037 0.083323 0.110000
29.537159 12.957664 3.261044 0.020000
30.791166 4.955889 3.064569 0.060000
7.696852 0.274809 1.066865 0.480000
11.901887 -0.776017 1.393939 0.700000
32.571259 -6.517138 3.051567 0.000000
39.581593 -13.341394 3.674504 0.010000
45.368778 -22.884594 4.294142 0.120000
15.128057 4.055968 0.235310 0.050000
11.039752 1.561735 0.350368 0.130000
15.498391 0.652533 0.203625 0.010000
12.199990 -0.781275 0.294686 0.040000
11.788461 -2.009355 0.284046 0.080000
11.548498 -3.314071 0.248570 0.240000
11.256311 -4.764832 0.217414 0.090000
5.299880 1.532627 0.110274 0.090000
5.478662 1.075971 0.109043 0.030000
5.597264 0.628163 0.107688 0.090000
5.680502 0.199700 0.101313 0.030000
5.649132 -0.250981 0.099556 0.090000
5.567580 -0.692621 0.097701 0.050000
5.436255 -1.145179 0.085676 0.100000
5.209730 -1.589596 0.083432 0.120000
51.897354 23.799490 5.629737 0.040000
46.301926 13.973745 4.718596 0.050000
42.683155 7.154903 4.228797 0.100000
7.701416 0.294827 1.086952 0.320000
11.896126 -0.741249 1.429053 0.820000
40.066319 -13.347773 3.855748 0.020000
45.434669 -22.693939 4.470024 0.140000
15.428391 6.387059 0.264760 0.060000
11.153598 1.618816 0.380877 0.170000
12.144033 -0.737486 0.334703 0.040000
11.792603 -1.969397 0.319206 0.180000
11.592824 -3.283345 0.283800 0.350000
11.250167 -4.710068 0.252602 0.240000
5.364005 1.578864 0.110614 0.090000
5.538063 1.107095 0.114314 0.030000
5.671771 0.654594 0.107981 0.100000
5.775197 0.216516 0.101623 0.040000
5.719023 -0.244641 0.099762 0.090000
5.672765 -0.700589 0.092946 0.060000
5.501421 -1.153951 0.090813 0.110000
5.295193 -1.612963 0.083569 0.110000
45.272911 20.898703 5.166657 0.030000
44.572922 13.640463 4.742845 0.040000
42.639294 7.333508 4.389349 0.120000
7.690874 0.319538 1.112016 0.390000
11.905252 -0.701214 1.469226 0.930000
11.643940 -1.936345 1.438952 0.000000
39.850967 -13.087291 3.976155 0.030000
45.015251 -22.227440 4.620665 0.080000
17.646702 7.539747 0.274835 0.050000
13.122239 3.536912 0.378146 0.010000
11.162751 1.658888 0.411050 0.170000
13.217935 0.633287 0.352602 0.010000
12.133069 -0.692834 0.374841 0.090000
11.736454 -1.915610 0.359260 0.200000
11.611949 -3.243119 0.324000 0.340000
11.233903 -4.650534 0.297781 0.260000
5.438020 1.630272 0.115998 0.090000
5.637195 1.154020 0.109747 0.030000
5.756180 0.686217 0.108319 0.100000
5.854799 0.238044 0.101910 0.040000
5.823908 -0.237631 0.100061 0.100000
5.757832 -0.703979 0.098155 0.050000
5.596691 -1.167129 0.091013 0.110000
5.390750 -1.641138 0.083713 0.120000
45.312233 21.168808 5.357766 0.070000
44.290283 13.754520 4.892532 0.060000
42.505970 7.485450 4.534567 0.140000
7.710434 0.339842 1.132143 0.570000
11.939388 -0.660681 1.504466 0.780000
11.587805 -1.882539 1.474006 0.030000
39.615566 -12.827266 4.116509 0.030000
45.075626 -22.011942 4.811626 0.140000
13.081701 5.386334 0.419916 0.080000
13.145967 3.597212 0.423433 0.060000
11.166880 1.698827 0.451210 0.210000
21.789236 1.188071 0.232037 0.000000
12.137115 -0.647877 0.410019 0.040000
11.780588 -1.874886 0.394527 0.230000
11.222568 -4.585868 0.332992 0.300000
5.536673 1.702192 0.111523 0.100000
5.711306 1.200430 0.115113 0.040000
5.860490 0.723221 0.108729 0.100000
5.959396 0.260052 0.102265 0.030000
5.908688 -0.226024 0.105326 0.090000
5.867907 -0.706872 0.098432 0.060000
5.686962 -1.180402 0.091199 0.090000
5.476213 -1.664506 0.083850 0.150000
45.415302 21.500015 5.584269 0.040000
44.275505 13.978617 5.073328 0.140000
42.531605 7.690372 4.700397 0.050000
7.694906 0.364476 1.152194 0.550000
11.968499 -0.620282 1.549693 0.810000
39.701958 -12.661187 4.282353 0.020000
45.150585 -21.776197 5.012700 0.050000
13.100034 5.466516 0.470262 0.030000
11.205823 1.749454 0.486500 0.140000
13.220796 0.733048 0.437981 0.000000
5.615496 1.763694 0.116957 0.090000
5.810329 1.252335 0.115565 0.040000
5.969703 0.765320 0.109170 0.100000
6.053982 0.281848 0.107593 0.030000
6.043580 -0.218421 0.100706 0.080000
5.972983 -0.709860 0.098695 0.050000
5.802310 -1.198215 0.096434 0.080000
5.581769 -1.692489 0.084021 0.120000
44.280407 14.218057 5.264234 0.090000
43.508724 8.073163 4.974373 0.050000
12.022700 -0.584402 1.594968 0.570000
11.470549 -1.775004 1.539101 0.080000
41.010925 -12.897242 4.579895 0.010000
47.714085 -22.784023 5.490650 0.030000
13.138517 3.711741 0.518840 0.060000
25.611073 1.635977 0.343679 0.010000
13.241642 -0.621958 0.477999 0.050000
13.334549 -2.075380 0.457838 0.060000
11.225033 -4.466130 0.423445 0.180000
5.719039 1.840691 0.117514 0.090000
5.919254 1.309431 0.116061 0.040000
6.084011 0.802516 0.109607 0.090000
6.188478 0.309429 0.108047 0.030000
6.153354 -0.206335 0.106038 0.060000
6.108054 -0.712273 0.099039 0.030000
5.922671 -1.215913 0.096683 0.060000
5.687406 -1.725490 0.089174 0.120000
47.210194 22.997271 6.244526 0.040000
44.414249 14.509865 5.485670 0.110000
41.252998 7.835086 4.922600 0.070000
7.668835 0.413821 1.197310 0.070000
11.449408 -1.720528 1.574248 0.080000
39.617733 -12.223860 4.593762 0.020000
99.149162 -47.920033 11.431532 0.130000
17.856350 8.042824 0.557255 0.070000
15.015247 4.417698 0.556363 0.100000
27.835957 1.913362 0.425518 0.000000
11.571864 -1.699292 0.514636 0.210000
11.254061 -4.420712 0.463690 0.350000
5.832580 1.917879 0.118097 0.090000
6.057983 1.377100 0.116675 0.040000
6.228025 0.855283 0.110179 0.100000
6.337888 0.342315 0.103559 0.030000
6.303148 -0.193445 0.101477 0.050000
6.233126 -0.714878 0.099356 0.030000
6.058125 -1.238322 0.096953 0.050000
5.802959 -1.753282 0.089372 0.110000
42.638924 20.980614 5.885094 0.050000
44.448452 14.784835 5.686783 0.070000
42.782257 8.363238 5.263558 0.100000
7.703188 0.444392 1.222514 0.070000
11.418267 -1.666243 1.609369 0.160000
39.361622 -11.924151 4.714209 0.020000
17.651028 8.048655 0.621742 0.070000
15.033580 4.497880 0.606710 0.140000
11.459775 0.748774 0.583444 0.000000
12.959161 -0.507677 0.567687 0.030000
11.520702 -1.645427 0.559703 0.270000
15.485821 -4.214705 0.495502 0.010000
11.192121 -4.327065 0.513876 0.160000
5.995455 2.031037 0.113943 0.110000
6.211530 1.455073 0.112366 0.040000
6.387051 0.908356 0.105791 0.110000
6.522292 0.375871 0.099165 0.040000
6.472924 -0.180191 0.101969 0.060000
6.403395 -0.726601 0.094756 0.040000
6.193483 -1.255733 0.097241 0.060000
5.974091 -1.809996 0.084608 0.120000
42.736431 21.341740 6.106693 0.030000
44.576950 15.096600 5.893280 0.030000
42.782623 8.582698 5.424377 0.030000
7.717546 0.474581 1.247664 0.210000
7.946371 -0.246201 1.255582 0.160000
11.467484 -1.630440 1.649631 0.080000
39.115974 -11.649266 4.839591 0.020000
13.059153 5.745049 0.671193 0.050000
13.129512 3.901089 0.659522 0.050000
15.211489 2.775818 0.645773 0.130000
11.279142 0.775191 0.618071 0.010000
12.672659 -0.438317 0.612198 0.050000
11.549730 -1.600010 0.599948 0.310000
15.403667 -4.111480 0.555672 0.030000
10.660970 -4.017348 0.558642 0.080000
6.103888 2.113110 0.119531 0.110000
6.374966 1.538218 0.113101 0.050000
6.531053 0.961105 0.111363 0.120000
6.661582 0.413527 0.104669 0.030000
6.647713 -0.166823 0.097475 0.060000
6.568460 -0.728440 0.095180 0.040000
6.343934 -1.277856 0.097552 0.060000
6.150220 -1.866615 0.079858 0.110000
42.290001 21.392685 6.245718 0.050000
45.743496 15.762830 6.233805 0.070000
57.255997 11.928473 7.384614 0.080000
7.712002 0.499387 1.272742 0.080000
7.935733 -0.216491 1.280665 0.510000
39.015965 -11.411744 5.005215 0.020000
11.303075 0.825511 0.658321 0.040000
12.661489 -0.383686 0.657372 0.050000
15.417193 -4.041391 0.605968 0.010000
10.604260 -3.933548 0.593806 0.160000
6.261764 2.226171 0.115363 0.110000
6.523501 1.616076 0.113779 0.050000
6.689982 1.019178 0.106994 0.130000
6.825989 0.446699 0.100221 0.040000
6.802396 -0.148858 0.097946 0.070000
6.743619 -0.735087 0.095613 0.050000
6.504478 -1.304786 0.097871 0.050000
6.104206 -1.817579 0.104920 0.120000
42.155300 21.609428 6.441175 0.070000
45.608604 15.989572 6.429297 0.100000
57.264675 12.222757 7.640733 0.080000
7.701377 0.529116 1.292825 0.070000
7.925203 -0.191762 1.300729 1.000000
38.317795 -11.000263 5.064922 0.030000
13.065907 5.899821 0.776787 0.060000
14.884797 4.669420 0.781961 0.130000
11.192238 0.863267 0.693173 0.070000
12.520873 -1.661715 0.682255 0.100000
13.403723 -3.365035 0.658227 0.010000
10.608101 -3.878611 0.634020 0.160000
6.385003 2.318530 0.121028 0.110000
6.701852 1.704526 0.109573 0.060000
6.848885 1.077213 0.112625 0.140000
7.005285 0.485140 0.100832 0.030000
6.982171 -0.135412 0.098465 0.070000
6.898781 -0.742117 0.095992 0.040000
6.715315 -1.345737 0.093269 0.050000
6.108769 -1.797561 0.125006 0.160000
42.050404 21.836744 6.636748 0.030000
45.404613 16.170019 6.614438 0.060000
57.223621 12.506177 7.871682 0.080000
7.705832 0.554114 1.317930 0.060000
38.273304 -10.786609 5.210602 0.030000
11.331445 -4.214217 1.834673 0.010000
14.828610 4.723151 0.837015 0.080000
13.190621 2.521557 0.779554 0.010000
11.166481 0.897651 0.728234 0.090000
13.254911 -0.307620 0.744205 0.020000
12.810797 -1.661328 0.728013 0.090000
15.695691 -3.976468 0.721937 0.060000
10.581756 -3.814251 0.674191 0.180000
6.532867 2.431381 0.121834 0.110000
6.860180 1.792555 0.115313 0.050000
7.037617 1.145858 0.108373 0.140000
7.184472 0.528561 0.106461 0.040000
7.121845 -0.117752 0.103895 0.060000
7.103935 -0.748189 0.096505 0.040000
6.865753 -1.367878 0.098579 0.050000
6.118332 -1.777448 0.145106 0.210000
49.246429 26.105566 7.966413 0.040000
43.935379 15.856861 6.599439 0.040000
57.193142 12.759795 8.102548 0.100000
7.700302 0.578939 1.338008 0.070000
7.894038 -0.137514 1.345850 0.260000
39.373688 -5.860232 5.386789 0.020000
38.400261 -10.649758 5.376444 0.020000
11.335382 -4.164280 1.874870 0.080000
13.067758 6.049498 0.882349 0.030000
14.812223 4.787647 0.892212 0.270000
11.145627 0.937131 0.763326 0.100000
14.899804 -0.296372 0.818541 0.010000
10.585692 -3.764313 0.714388 0.190000
6.685717 2.544310 0.127653 0.100000
7.028520 1.880795 0.116081 0.060000
7.226432 1.209485 0.109102 0.120000
7.368766 0.567097 0.107085 0.040000
7.361512 -0.098159 0.104594 0.060000
7.263988 -0.750142 0.101915 0.040000
7.046294 -1.394425 0.098952 0.060000
6.143001 -1.762028 0.160228 0.210000
48.947308 26.289118 8.171317 0.040000
43.885376 16.090231 6.795177 0.070000
57.127338 13.027684 8.348374 0.140000
7.729643 0.609396 1.368198 0.230000
7.943471 -0.111673 1.376076 0.720000
39.259689 -5.672915 5.532189 0.040000
38.521988 -10.503061 5.557309 0.020000
13.051372 6.113994 0.937547 0.060000
14.795837 4.852143 0.947410 0.140000
13.228163 2.636948 0.875082 0.020000
11.139757 0.976879 0.803459 0.090000
14.963594 -0.240342 0.873916 0.010000
13.325165 -1.636821 0.824448 0.130000
15.546956 -3.799725 0.842207 0.030000
10.579631 -3.714567 0.754557 0.260000
6.883093 2.683115 0.128684 0.090000
7.206653 1.979206 0.121912 0.060000
7.400140 1.277806 0.114809 0.130000
7.597765 0.621493 0.107885 0.030000
7.581184 -0.078949 0.105238 0.050000
7.484138 -0.755927 0.102468 0.040000
7.307216 -1.439417 0.094466 0.040000
6.152468 -1.736915 0.180347 0.150000
44.954815 24.348742 7.763679 0.020000
44.044079 16.387461 7.031699 0.070000
7.699213 0.628744 1.388190 0.240000
7.897948 -0.087614 1.396046 0.910000
39.301281 -5.517695 5.697877 0.020000
38.528217 -10.328498 5.717976 0.010000
11.403683 -4.088306 1.970331 0.190000
13.059693 6.193965 0.992866 0.020000
13.187190 2.681006 0.920140 0.020000
11.098907 1.015975 0.838498 0.100000
13.334087 -1.586806 0.869658 0.150000
10.603864 -3.679225 0.789752 0.340000
7.050666 2.811347 0.129598 0.100000
7.409698 2.083112 0.122828 0.060000
7.618662 1.357005 0.115674 0.110000
7.766954 0.664722 0.113488 0.030000
7.775764 -0.055218 0.105834 0.050000
7.709383 -0.766615 0.103017 0.030000
7.568234 -1.489409 0.089961 0.040000
45.443195 24.917078 8.072069 0.030000
44.311913 16.731808 7.263680 0.080000
7.912401 -0.062424 1.421178 0.890000
39.292660 -5.348344 5.838485 0.030000
39.710552 -10.481999 6.025495 0.030000
13.068124 6.268957 1.043168 0.080000
13.156229 2.725275 0.960224 0.020000
11.103047 1.055933 0.873658 0.110000
8.193924 -0.049683 0.781954 0.000000
13.332999 -1.537001 0.919841 0.170000
13.462898 -3.094752 0.904389 0.030000
10.607800 -3.629288 0.829948 0.250000
7.257740 2.965322 0.135711 0.100000
7.612635 2.192000 0.128763 0.050000
7.837171 1.436185 0.121539 0.120000
8.006034 0.714292 0.119296 0.030000
7.980425 -0.036313 0.111439 0.040000
7.909429 -0.767802 0.108534 0.030000
7.728562 -1.506378 0.100317 0.030000
7.387329 -2.228041 0.096743 0.100000
45.293701 25.123554 8.262448 0.030000
44.034176 16.850960 7.413400 0.090000
7.906871 -0.037599 1.441256 0.800000
39.259342 -5.194450 5.973972 0.030000
39.586498 -10.289818 6.155887 0.030000
11.290673 -3.940665 2.030586 0.250000
14.836170 5.072331 1.118335 0.120000
11.127185 1.096274 0.908871 0.050000
8.118393 -0.026217 0.806844 0.000000
15.432712 -1.777198 1.024430 0.270000
10.662316 -3.608369 0.865169 0.220000
7.474824 3.119506 0.136851 0.090000
7.840388 2.311383 0.129801 0.050000
8.055679 1.515365 0.127404 0.100000
8.235033 0.768687 0.120096 0.030000
8.265084 -0.015858 0.112258 0.040000
8.114473 -0.768894 0.114066 0.030000
7.934085 -1.532465 0.105756 0.030000
7.583333 -2.279315 0.102064 0.090000
46.518337 26.135555 8.714412 0.020000
43.924976 17.043224 7.598832 0.050000
11.223568 1.134148 1.994275 0.180000
7.916420 -0.017504 1.466356 0.550000
39.286045 -5.044498 6.134601 0.010000
39.517395 -10.096639 6.301425 0.010000
13.040485 6.393101 1.138558 0.020000
14.874499 5.152896 1.168735 0.070000
30.436022 7.234385 1.737099 0.050000
11.191315 1.137381 0.944192 0.050000
8.122874 -0.001182 0.821949 0.020000
15.441525 -1.722202 1.074658 0.160000
13.410399 -2.976030 0.984694 0.020000
10.681550 -3.573122 0.900350 0.170000
7.696703 3.283766 0.143041 0.100000
8.053227 2.425461 0.135781 0.060000
8.318906 1.610423 0.128444 0.110000
8.529019 0.824327 0.121070 0.030000
8.384793 -0.783738 0.119716 0.030000
8.174890 -1.572879 0.111235 0.030000
7.789527 -2.340395 0.107376 0.080000
46.151455 26.207954 8.873725 0.040000
11.187839 1.168378 2.019309 0.210000
7.910890 0.007321 1.486434 0.940000
51.566254 -6.521834 8.141184 0.020000
11.203041 -3.812541 2.090834 0.200000
30.383636 7.342998 1.847367 0.020000
11.150657 1.166479 0.979194 0.060000
7.707351 0.020827 0.830946 0.030000
12.974234 -1.359244 1.029566 0.170000
13.419500 -2.936032 1.034867 0.010000
10.751241 -3.561932 0.940574 0.100000
7.918678 3.443027 0.149212 0.090000
8.340490 2.570988 0.137071 0.060000
8.577229 1.700387 0.129453 0.100000
8.787904 0.884277 0.126969 0.030000
8.154003 0.031821 0.167146 0.020000
8.665028 -0.793372 0.120412 0.030000
8.005719 -2.401283 0.112714 0.070000
44.564747 25.512793 8.771998 0.020000
45.731136 18.210564 8.277893 0.040000
11.182077 1.203146 2.054424 0.230000
7.925439 0.027512 1.511547 0.790000
48.335224 -5.932454 7.819938 0.020000
11.187090 -3.767967 2.125958 0.140000
13.042829 6.517801 1.239029 0.020000
13.157144 2.914702 1.130932 0.000000
11.095122 1.190328 1.004138 0.220000
7.741909 0.041419 0.851113 0.090000
12.988373 -1.319095 1.064752 0.200000
10.820945 -3.550724 0.975798 0.100000
8.155363 3.617573 0.155479 0.100000
8.592938 2.705828 0.143232 0.050000
8.845345 1.800521 0.135525 0.110000
9.076700 0.949820 0.127967 0.030000
8.193561 0.052509 0.187326 0.010000
9.000444 -0.811952 0.121218 0.020000
8.761984 -1.676653 0.112381 0.020000
8.257205 -2.476480 0.113091 0.060000
47.632835 27.619045 9.572845 0.030000
41.636196 16.678848 7.721504 0.030000
11.076771 1.216076 2.069197 0.180000
7.915019 0.047261 1.526594 0.950000
51.233181 -6.144209 8.431722 0.020000
11.186341 -3.733085 2.156086 0.260000
13.099928 4.583590 1.221987 0.010000
19.160851 4.558782 1.477719 0.000000
11.059476 1.219541 1.034154 0.280000
7.721573 0.055959 0.871114 0.210000
13.012689 -1.288770 1.104929 0.270000
13.402583 -2.846615 1.110156 0.010000
10.885746 -3.544610 1.010991 0.080000
8.441572 3.818089 0.156971 0.090000
8.855385 2.840860 0.149419 0.050000
9.138469 1.901152 0.136664 0.090000
9.385589 1.010746 0.128999 0.030000
8.193138 0.072450 0.202400 0.010000
9.225581 -0.817660 0.126785 0.030000
9.083169 -1.735512 0.113001 0.020000
8.508678 -2.551696 0.118467 0.050000
47.454865 27.750072 9.732868 0.030000
41.652256 16.863640 7.872234 0.030000
11.031248 1.240135 2.089168 0.290000
7.919678 0.062279 1.546662 0.900000
50.909054 -5.945749 8.531614 0.020000
11.210684 -3.702723 2.186263 0.160000
13.020694 6.617083 1.324341 0.020000
13.108863 4.633623 1.262197 0.010000
13.150512 2.989313 1.206193 0.000000
11.038922 1.244041 1.064192 0.720000
7.681158 0.075133 0.886080 0.270000
13.006928 -1.254003 1.140044 0.250000
13.416805 -2.811483 1.150324 0.010000
11.152029 -3.614669 1.051426 0.100000
8.697979 4.008034 0.158347 0.110000
9.127651 2.986100 0.150669 0.060000
9.426581 2.001670 0.142790 0.080000
9.714281 1.082054 0.130122 0.030000
8.192799 0.087373 0.222454 0.010000
9.359063 -1.780255 0.118555 0.020000
