# This PCD file was generated using the MATLAB® pcwrite function
# from Computer Vision Toolbox®.
# .PCD v.7 - Point Cloud Data file format
VERSION .7
FIELDS x y z intensity
SIZE 4 4 4 4
TYPE F F F F
COUNT 1 1 1 1
WIDTH 1285
HEIGHT 1
VIEWPOINT 0 0 0 1 0 0 0
POINTS 1285
DATA ascii
13.272676 0.119079 0.395834 0.010000
13.169565 -1.283088 0.375352 0.160000
11.028292 -3.584485 0.356208 0.130000
5.336715 1.958390 0.116953 0.040000
5.551257 1.462411 0.115669 0.030000
5.690513 0.979974 0.119240 0.120000
5.854133 0.533065 0.108005 0.030000
5.853332 0.052965 0.106219 0.050000
5.822358 -0.417693 0.099388 0.040000
5.756596 -0.899001 0.087427 0.030000
5.520264 -1.353607 0.085120 0.110000
52.003304 30.175041 6.363721 0.040000
43.782383 17.545225 4.970299 0.050000
57.279560 14.799309 6.065334 0.070000
7.273434 0.706685 1.092366 0.300000
7.366078 0.048361 1.085160 1.150000
13.052099 -1.324782 1.584903 0.020000
40.266792 -9.743993 4.059669 0.010000
13.138543 2.947120 0.375996 0.000000
11.011404 1.205909 0.408972 1.000000
13.238458 0.083564 0.355612 0.010000
13.175353 -1.317818 0.330238 0.210000
16.345449 -3.622000 0.189946 0.010000
10.913116 -3.571560 0.320955 0.110000
5.247977 1.891678 0.116474 0.050000
5.467135 1.415792 0.115277 0.030000
5.621114 0.948658 0.113942 0.110000
5.754630 0.506155 0.107646 0.030000
5.748543 0.040956 0.105900 0.050000
5.737374 -0.419321 0.099160 0.040000
5.666420 -0.890726 0.087222 0.030000
5.439991 -1.340142 0.084961 0.130000
56.996262 32.900158 6.656887 0.030000
43.344936 17.177589 4.747788 0.050000
57.304058 14.595549 5.844638 0.080000
7.253777 0.691379 1.072257 0.460000
7.386414 0.033821 1.065159 1.120000
13.012786 -1.355394 1.544686 0.090000
39.269882 -9.622238 3.832518 0.010000
11.198367 -3.735141 1.416102 0.320000
14.662195 7.482487 0.291832 0.040000
13.176319 -1.362661 0.290073 0.160000
14.522141 -3.206882 0.196730 0.030000
10.813310 -3.578363 0.290669 0.110000
5.179044 1.835348 0.116084 0.050000
5.403009 1.369555 0.114937 0.040000
5.541800 0.912132 0.113599 0.120000
5.685040 0.484837 0.102385 0.020000
5.663846 0.024331 0.105617 0.050000
5.647391 -0.421044 0.098919 0.040000
5.586257 -0.882242 0.082045 0.030000
5.349529 -1.316870 0.084811 0.120000
57.111961 32.638226 6.411213 0.040000
43.418667 17.009649 4.562354 0.030000
30.399721 7.363488 3.162498 0.020000
7.274209 0.671840 1.052238 0.610000
7.391849 0.013995 1.045099 0.980000
13.023764 -1.400026 1.499549 0.040000
17.398451 -4.003042 1.866295 0.000000
11.194239 -3.775081 1.375943 0.230000
13.758737 6.875168 0.262216 0.050000
14.905759 5.216898 0.244045 0.040000
15.250587 3.403200 0.233203 0.010000
10.883105 1.123639 0.353330 0.070000
15.440846 0.001297 0.206054 0.010000
13.568116 -3.005100 0.189989 0.030000
10.748605 -3.589476 0.255458 0.120000
5.115110 1.779114 0.115708 0.040000
5.318888 1.322936 0.114544 0.020000
5.482303 0.886007 0.108347 0.100000
5.595535 0.458118 0.102052 0.030000
5.589065 0.012915 0.100380 0.050000
5.572514 -0.427461 0.093699 0.040000
5.491083 -0.874063 0.081827 0.030000
5.279268 -1.303195 0.079679 0.130000
29.076963 15.824100 3.340498 0.010000
29.819839 11.268127 3.160500 0.020000
30.427238 7.244306 3.077127 0.030000
7.279630 0.651995 1.037178 0.590000
11.190276 -3.825056 1.345746 0.230000
12.879756 6.293269 0.247758 0.050000
13.725862 4.679224 0.233967 0.050000
14.231470 3.088681 0.214374 0.010000
11.003666 1.101091 0.313561 0.110000
14.436635 -0.047907 0.193249 0.010000
12.820133 -2.854343 0.173597 0.030000
10.689091 -3.610491 0.220224 0.200000
5.056092 1.727993 0.110364 0.050000
5.259678 1.281813 0.109237 0.030000
5.407987 0.849577 0.108017 0.100000
5.530931 0.436877 0.101804 0.020000
5.524269 0.001672 0.100169 0.050000
5.502527 -0.428802 0.093512 0.040000
5.431095 -0.875212 0.081666 0.040000
5.198996 -1.289730 0.079519 0.150000
29.105339 15.665055 3.219980 0.030000
16.783848 5.886953 1.896456 0.010000
30.459805 7.125293 2.971768 0.090000
7.265164 0.626787 1.017046 0.170000
7.362712 -0.026442 1.009873 0.520000
11.332423 -3.932261 1.320719 0.210000
12.228253 5.845767 0.229394 0.050000
12.957740 4.314486 0.220606 1.000000
13.411332 2.827947 0.206264 0.010000
10.994404 1.065999 0.288406 0.100000
13.652369 -0.092916 0.186035 0.010000
12.983642 -1.470985 0.184166 0.040000
12.072015 -2.698643 0.172223 0.030000
10.674925 -3.650678 0.195038 0.240000
5.016962 1.682235 0.110092 0.040000
5.210359 1.245862 0.108975 0.030000
5.338575 0.818242 0.107720 0.080000
5.456328 0.415444 0.101530 0.030000
5.449570 -0.014761 0.099913 0.050000
5.432636 -0.435141 0.093306 0.050000
5.371023 -0.871343 0.076523 0.040000
5.158920 -1.285479 0.074430 0.140000
29.158381 15.521431 3.114583 0.010000
16.636631 5.749348 1.830559 0.020000
30.472651 6.990882 2.871301 0.170000
7.255589 0.606655 1.001946 0.130000
7.373241 -0.051171 0.989808 1.100000
12.705791 -1.490655 1.368380 0.010000
19.584522 -4.821320 1.868960 0.000000
11.348648 -3.991850 1.290539 0.280000
11.660681 5.454883 0.211459 0.060000
12.378144 4.028372 0.208029 0.060000
12.715500 2.604599 0.198617 0.010000
11.070151 1.032572 0.253479 0.100000
12.813019 -0.133980 0.178691 0.010000
11.625572 -1.327061 0.206157 0.050000
11.540128 -2.603776 0.161187 0.040000
10.645776 -3.691133 0.164811 0.170000
4.982652 1.646590 0.104870 0.040000
5.161038 1.209911 0.108712 0.020000
5.313976 0.797786 0.102579 0.330000
5.411720 0.394586 0.101336 0.030000
5.394772 -0.025812 0.099729 0.050000
5.367743 -0.441385 0.093113 0.040000
5.311034 -0.872492 0.076362 0.040000
5.083634 -1.271936 0.079284 0.150000
29.172089 15.342029 3.013951 0.040000
30.475542 6.851206 2.790788 0.050000
7.261106 0.581811 0.986868 0.100000
7.363749 -0.076321 0.979690 0.860000
12.686723 -1.535937 1.343162 0.040000
19.561274 -4.906615 1.823581 0.000000
11.117682 5.084418 0.208665 0.060000
11.882850 3.778860 0.200809 0.060000
12.213769 2.429978 0.191658 0.010000
11.125877 0.998725 0.228498 0.100000
12.253520 -0.164683 0.172116 0.020000
11.591411 -1.367631 0.180916 0.060000
11.103594 -2.527105 0.155333 0.040000
4.943426 1.605832 0.104616 0.040000
5.111718 1.173960 0.108450 0.020000
5.269464 0.771929 0.102367 0.150000
5.352114 0.373441 0.101101 0.020000
5.345069 -0.041767 0.099540 0.040000
5.307850 -0.447533 0.092934 0.040000
5.240938 -0.868853 0.081193 0.040000
5.043654 -1.272684 0.074177 0.140000
29.190649 15.167646 2.933351 0.120000
30.463436 6.711243 2.710236 0.070000
7.271526 0.562063 0.971822 0.200000
12.577518 -1.572888 1.302739 0.060000
19.537941 -4.986893 1.773222 0.000000
10.713137 4.796638 0.201539 0.070000
11.461966 3.560779 0.193899 0.060000
11.766658 2.276424 0.179920 0.010000
11.191601 0.965070 0.203544 0.100000
11.799180 -0.203391 0.170787 0.020000
11.371587 -1.376787 0.165308 0.050000
10.712230 -2.459588 0.154562 0.040000
10.102972 -3.546412 0.138932 0.070000
4.924018 1.575473 0.099452 0.040000
5.082216 1.148409 0.103278 0.020000
5.317517 0.352793 0.095934 0.010000
5.280272 -0.053010 0.099329 0.030000
5.268050 -0.458297 0.092790 0.050000
5.175951 -0.870097 0.081019 0.050000
4.993568 -1.268642 0.074061 0.170000
29.234434 14.983801 2.837781 0.120000
30.560997 6.588346 2.640033 0.030000
7.302026 0.537679 0.961811 0.390000
12.558450 -1.618170 1.277521 0.110000
19.554863 -5.081439 1.732914 0.000000
10.387714 4.555381 0.194792 0.080000
11.110412 3.379051 0.182306 0.060000
11.429033 2.149954 0.173569 0.010000
11.157522 0.919482 0.183286 0.110000
11.459845 -0.239859 0.159765 0.020000
11.006285 -1.363763 0.159403 0.050000
10.416353 -2.415210 0.143955 0.050000
9.826504 -3.471675 0.133488 0.070000
4.879780 1.534600 0.104185 0.040000
5.052796 1.117840 0.103087 0.020000
5.170440 0.720023 0.101916 0.060000
5.277812 0.337030 0.095772 0.010000
5.260577 -0.068372 0.094220 0.040000
5.203157 -0.464541 0.092598 0.050000
5.146065 -0.875652 0.075920 0.040000
4.953575 -1.269408 0.073954 0.160000
29.262882 14.814590 2.762225 0.120000
30.554070 6.438462 2.564457 0.060000
7.282547 0.512357 0.946666 0.650000
12.603471 -0.312022 1.267493 0.840000
11.646626 -1.520322 1.195503 0.090000
13.461823 -3.356304 1.308418 0.000000
10.131417 4.360457 0.188399 0.080000
10.818450 3.218450 0.175947 0.070000
11.131210 2.034249 0.167361 0.010000
11.183349 0.880061 0.158206 0.050000
11.115388 -0.271462 0.158749 0.020000
10.701163 -1.359587 0.153622 0.050000
10.185834 -2.389602 0.138448 0.040000
9.544927 -3.392053 0.133049 0.080000
4.860371 1.504242 0.099021 0.040000
5.003463 1.081871 0.107825 0.020000
5.165838 0.699950 0.096829 0.040000
5.228204 0.316076 0.095565 0.010000
5.205862 -0.084441 0.099018 0.030000
5.183353 -0.474922 0.092507 0.050000
5.085968 -0.871821 0.080778 0.060000
4.918678 -1.275078 0.073842 0.150000
29.291700 14.625365 2.691596 0.130000
30.596983 6.294460 2.509033 0.190000
12.599482 -0.362033 1.247297 0.820000
11.562268 -1.551870 1.175166 0.140000
13.463025 -3.416218 1.288198 0.000000
13.523896 -5.290457 1.301390 0.020000
9.914728 4.186295 0.182186 0.070000
10.585984 3.083974 0.174840 0.070000
10.868176 1.929192 0.166284 0.020000
10.891018 -0.305747 0.153035 0.020000
10.411026 -1.355143 0.152881 0.060000
9.975503 -2.373609 0.132958 0.050000
9.344115 -3.350874 0.127678 0.070000
4.831048 1.468674 0.098813 0.040000
5.008763 1.066988 0.102783 0.020000
5.111314 0.673882 0.101590 0.030000
5.208591 0.295697 0.095438 0.010000
5.186166 -0.099802 0.093909 0.040000
5.128459 -0.480975 0.092341 0.060000
5.086364 -0.891799 0.075704 0.050000
4.878589 -1.270845 0.073753 0.160000
29.300293 14.445701 2.635950 0.120000
30.584908 6.149405 2.453461 0.180000
7.283558 0.462440 0.926482 0.120000
12.570498 -0.412524 1.227033 0.780000
11.558184 -1.596882 1.154988 0.190000
13.414058 -3.467073 1.262881 0.010000
13.525373 -5.365387 1.286115 0.060000
9.782066 4.063750 0.176384 0.090000
10.378432 2.954994 0.168819 0.060000
10.664856 1.840301 0.160423 0.020000
10.651638 -0.340337 0.152282 0.020000
10.266354 -1.372899 0.147438 0.060000
9.765160 -2.357635 0.132469 0.050000
9.163383 -3.314328 0.127342 0.070000
4.836430 1.448773 0.098753 0.040000
4.974344 1.036323 0.102580 0.020000
5.106711 0.653809 0.096503 0.040000
5.178885 0.280125 0.095302 0.010000
5.161362 -0.110279 0.093805 0.030000
5.113749 -0.496259 0.092246 0.080000
5.026266 -0.887967 0.080562 0.070000
4.873986 -1.290918 0.068666 0.160000
29.333879 14.266514 2.580371 0.120000
13.157348 3.919132 1.339669 0.000000
30.602800 6.004887 2.407970 0.150000
7.259055 0.436985 0.921324 0.110000
12.586588 -0.467171 1.211872 0.730000
11.524092 -1.642488 1.139729 0.240000
9.619780 3.920617 0.175428 0.090000
10.255193 2.862636 0.163154 0.070000
10.486423 1.756869 0.159647 0.020000
10.656732 0.699981 0.146162 0.010000
10.507253 -0.373090 0.146783 0.020000
10.106575 -1.385961 0.146972 0.060000
9.635088 -2.355125 0.132139 0.050000
8.992648 -3.277592 0.127032 0.080000
4.812009 1.418300 0.098576 0.050000
4.969633 1.021230 0.102511 0.020000
5.072088 0.633124 0.101336 0.030000
5.179185 0.265147 0.090247 0.010000
5.116645 -0.126157 0.098630 0.030000
5.088945 -0.506736 0.092143 0.080000
5.011569 -0.903233 0.075466 0.070000
4.833994 -1.291684 0.068559 0.140000
29.372427 14.087367 2.539805 0.140000
13.138841 3.843837 1.319340 0.000000
13.158991 2.274038 1.288557 0.040000
7.319536 0.413157 0.916393 0.330000
12.572588 -0.517393 1.196649 0.730000
11.540073 -1.692155 1.129586 0.230000
16.118376 -4.465879 1.381228 0.010000
13.508342 -5.515611 1.250512 0.020000
9.561433 3.834503 0.169956 0.080000
10.102139 2.759687 0.162371 0.070000
10.387604 1.694984 0.154159 0.020000
10.472724 0.646447 0.145483 0.010000
10.387946 -0.410381 0.146333 0.020000
10.027178 -1.417469 0.141648 0.060000
9.490019 -2.352903 0.131768 0.050000
8.902774 -3.284296 0.121773 0.060000
4.802490 1.393113 0.098457 0.050000
4.960031 1.001061 0.097411 0.020000
5.082386 0.618337 0.096308 0.030000
5.149560 0.244557 0.095094 0.010000
5.131942 -0.140848 0.093615 0.030000
5.059143 -0.517309 0.092025 0.070000
4.991765 -0.913614 0.075376 0.070000
4.824201 -1.301855 0.063495 0.130000
29.396168 13.897935 2.499163 0.140000
13.160263 2.209087 1.278319 0.090000
7.290142 0.382626 0.906203 0.420000
12.613647 -0.571598 1.191554 0.620000
11.525964 -1.737396 1.119381 0.220000
13.468273 -3.680926 1.222227 0.000000
13.520090 -5.605365 1.240209 0.020000
9.483171 3.742988 0.169411 0.090000
10.033397 2.693358 0.161945 0.070000
10.293772 1.633176 0.153684 0.020000
10.433607 0.600708 0.140211 0.010000
10.278542 -0.442482 0.145928 0.020000
9.942577 -1.439093 0.141346 0.060000
9.400241 -2.364606 0.126490 0.050000
8.797505 -3.271310 0.121546 0.060000
4.817596 1.388420 0.093479 0.050000
4.945404 0.980759 0.102297 0.020000
5.057775 0.597862 0.096167 0.030000
5.154764 0.234674 0.090070 0.010000
5.097140 -0.151516 0.093484 0.030000
5.079535 -0.536903 0.087006 0.060000
4.956854 -0.919302 0.080264 0.060000
4.799288 -1.307352 0.068410 0.140000
29.449265 13.738978 2.483710 0.130000
13.166233 2.159211 1.273149 0.100000
7.295525 0.362725 0.906143 0.550000
12.629519 -0.616283 1.186430 0.570000
11.577022 -1.791409 1.114313 0.200000
15.910121 -4.554773 1.350354 0.000000
9.434536 3.672062 0.164020 0.090000
9.969654 2.627126 0.161533 0.070000
10.254750 1.582438 0.148393 0.020000
10.364482 0.554376 0.139858 0.010000
10.234329 -0.483318 0.140661 0.020000
9.868083 -1.465506 0.136054 0.060000
9.320543 -2.381135 0.126221 0.050000
8.722712 -3.282744 0.121309 0.070000
4.793259 1.352930 0.098284 0.060000
4.960701 0.966068 0.097283 0.020000
5.053062 0.582769 0.096099 0.030000
5.135056 0.219294 0.089962 0.010000
5.102427 -0.166418 0.093443 0.030000
5.034626 -0.542783 0.091867 0.080000
4.957154 -0.934281 0.075209 0.070000
4.779387 -1.312734 0.068338 0.150000
29.467653 13.564355 2.468109 0.130000
13.162301 2.104145 1.267934 0.100000
7.325998 0.338305 0.906132 1.120000
11.603167 -1.850919 1.114160 0.170000
13.455601 -3.801153 1.211747 0.000000
13.517799 -5.745398 1.229682 0.020000
9.440397 3.627167 0.163869 0.100000
9.960519 2.581943 0.161341 0.070000
10.220606 1.536758 0.153135 0.020000
7.717339 0.358058 0.292220 0.020000
10.189913 -0.514174 0.140430 0.020000
9.843663 -1.495979 0.135877 0.060000
9.301122 -2.411513 0.126057 0.050000
8.673008 -3.298699 0.121120 0.070000
4.818363 1.348428 0.093332 0.060000
4.955990 0.950975 0.097214 0.020000
5.063252 0.572963 0.096089 0.030000
5.155339 0.204679 0.089960 0.010000
5.087717 -0.181702 0.093348 0.030000
5.044925 -0.557570 0.086839 0.080000
4.937241 -0.939681 0.080137 0.080000
4.779771 -1.332730 0.068265 0.150000
29.486017 13.389694 2.462508 0.110000
13.173595 3.599552 1.293522 0.010000
13.203252 2.054920 1.267858 0.060000
7.306480 0.312926 0.905986 1.100000
11.975609 -0.673670 1.144509 0.240000
11.659197 -1.904874 1.119106 0.110000
13.446753 -3.861333 1.211500 0.000000
13.554613 -5.839709 1.229428 0.020000
9.436356 3.577080 0.163672 0.090000
9.986197 2.547447 0.156280 0.070000
10.231288 1.501974 0.148033 0.020000
7.627917 0.326321 0.296869 0.030000
10.200582 -0.548976 0.140329 0.020000
9.824242 -1.526356 0.135713 0.060000
9.286795 -2.446793 0.125889 0.050000
8.653586 -3.329076 0.120956 0.070000
4.803736 1.328126 0.098219 0.060000
4.966179 0.941168 0.097204 0.020000
5.053542 0.557774 0.096007 0.030000
5.135630 0.189299 0.089852 0.010000
5.092908 -0.191605 0.093324 0.030000
5.035106 -0.567778 0.091775 0.080000
4.942527 -0.954583 0.080095 0.100000
4.749763 -1.333323 0.073184 0.160000
29.503805 13.245028 2.457016 0.150000
13.164651 3.544371 1.293294 0.050000
13.194211 2.004738 1.267648 0.090000
7.301878 0.292853 0.900900 0.830000
11.906305 -0.709985 1.139193 0.560000
13.457900 -3.921130 1.211307 0.000000
13.525673 -5.895273 1.229146 0.020000
9.526435 3.573805 0.163895 0.090000
10.016863 2.513028 0.156232 0.060000
10.276855 1.472842 0.148044 0.020000
7.918107 0.321952 0.277610 0.040000
10.211346 -0.588777 0.140209 0.020000
9.850099 -1.570869 0.135615 0.060000
9.282467 -2.481883 0.125747 0.050000
8.664447 -3.373876 0.120818 0.060000
4.823936 1.318529 0.093236 0.060000
4.961564 0.921077 0.097118 0.020000
5.083728 0.548350 0.096051 0.040000
5.135918 0.174302 0.089797 0.010000
5.098195 -0.206506 0.093283 0.030000
5.035393 -0.582775 0.091720 0.090000
4.932817 -0.969771 0.080014 0.100000
4.780454 -1.367705 0.063136 0.130000
29.526772 13.090440 2.456501 0.150000
13.190184 1.954670 1.262451 0.140000
11.882077 -0.750457 1.138979 0.600000
13.453942 -3.976234 1.216092 0.000000
13.537000 -5.965087 1.233916 0.020000
9.581725 3.559880 0.158988 0.090000
10.102038 2.504658 0.156423 0.070000
10.347320 1.449187 0.148140 0.020000
7.998571 0.298488 0.277733 0.020000
10.262020 -0.622794 0.135215 0.020000
9.890871 -1.610077 0.130576 0.060000
9.358615 -2.540416 0.120728 0.050000
8.700603 -3.433176 0.115692 0.070000
4.844029 1.313913 0.093271 0.070000
4.986655 0.916556 0.097166 0.020000
5.084015 0.533353 0.095996 0.040000
5.171116 0.164993 0.084854 0.010000
5.098386 -0.216504 0.093246 0.030000
5.045691 -0.597562 0.086692 0.100000
4.948210 -0.989462 0.074981 0.100000
4.770635 -1.377913 0.068073 0.140000
29.569286 12.956139 2.481114 0.160000
13.111948 3.423321 1.297707 0.040000
13.201017 1.909833 1.272313 0.070000
7.317724 0.248130 0.905775 0.100000
11.837743 -0.786330 1.143730 0.760000
13.378881 -2.407377 1.216728 0.010000
13.475158 -4.040876 1.225907 0.000000
13.558585 -6.049743 1.248657 0.030000
9.706401 3.577252 0.164378 0.080000
10.222112 2.501957 0.156726 0.060000
10.467585 1.436488 0.148406 0.020000
10.352853 -0.666080 0.140291 0.020000
9.976896 -1.663457 0.135602 0.060000
9.409647 -2.594467 0.125660 0.050000
8.777122 -3.511724 0.115599 0.070000
4.869120 1.309393 0.093320 0.070000
5.006747 0.911940 0.097202 0.020000
5.114105 0.528929 0.096058 0.030000
5.166296 0.154880 0.089804 0.010000
5.123669 -0.231022 0.093258 0.030000
5.060976 -0.612272 0.086677 0.140000
4.953484 -1.004382 0.079939 0.100000
4.791123 -1.402507 0.063035 0.120000
7.308001 0.232923 0.910693 0.110000
11.833375 -0.821475 1.158588 0.840000
13.359612 -2.447808 1.231527 0.010000
13.460984 -4.086211 1.240702 0.010000
13.549602 -6.104980 1.263429 0.030000
9.885601 3.620692 0.165007 0.080000
10.396791 2.520306 0.157251 0.060000
10.602834 1.424058 0.153713 0.020000
10.468680 -0.708888 0.145434 0.020000
10.072919 -1.716645 0.140655 0.050000
9.526158 -2.672249 0.125675 0.050000
8.868721 -3.595003 0.120529 0.070000
4.879296 1.299568 0.098310 0.060000
5.021936 0.902229 0.097205 0.020000
5.134293 0.519314 0.096075 0.030000
5.186579 0.140266 0.089802 0.010000
5.143952 -0.245637 0.093257 0.030000
5.096353 -0.631598 0.086698 0.110000
4.973863 -1.023995 0.079919 0.110000
4.786303 -1.412619 0.067985 0.130000
29.564674 12.665761 2.545023 0.060000
7.328354 0.213273 0.920673 0.100000
11.844018 -0.856314 1.168487 0.740000
13.350327 -2.488066 1.251354 0.010000
13.472079 -4.146082 1.260508 0.010000
13.540701 -6.165235 1.283182 0.030000
10.104506 3.679895 0.165798 0.090000
10.601357 2.544209 0.162874 0.060000
10.832791 1.428463 0.154330 0.030000
10.893778 0.334456 0.145422 0.010000
10.659603 -0.755240 0.145760 0.020000
10.229218 -1.783682 0.145814 0.060000
9.662748 -2.754666 0.130726 0.050000
9.010994 -3.712299 0.120464 0.070000
4.924109 1.310446 0.093467 0.070000
5.071927 0.903187 0.097339 0.030000
5.144470 0.509488 0.101065 0.040000
5.226763 0.131034 0.089873 0.010000
5.174234 -0.260059 0.093282 0.040000
5.106638 -0.646404 0.086669 0.120000
4.994243 -1.043608 0.079899 0.100000
4.801766 -1.437346 0.072933 0.130000
29.641502 12.561975 2.609838 0.030000
7.316230 0.843078 0.942983 0.010000
7.318713 0.193048 0.930573 0.120000
11.829639 -0.891669 1.188318 0.730000
13.467781 -4.186263 1.285348 0.010000
13.567055 -6.239853 1.312973 0.020000
10.358008 3.759745 0.171757 0.080000
10.865432 2.594257 0.168749 0.060000
11.012840 1.426893 0.159794 0.020000
11.144211 0.314249 0.146001 0.010000
10.905598 -0.805556 0.151215 0.020000
10.420607 -1.855048 0.151048 0.050000
9.854820 -2.861006 0.130832 0.040000
9.228924 -3.863152 0.120472 0.060000
4.949188 1.305907 0.098516 0.090000
5.097004 0.898648 0.102388 0.020000
5.204567 0.505657 0.096208 0.040000
5.256936 0.121592 0.094917 0.010000
5.224512 -0.274099 0.093361 0.040000
5.126909 -0.661036 0.091668 0.120000
5.009623 -1.063317 0.079866 0.090000
4.852536 -1.476362 0.067921 0.120000
29.628826 12.431471 2.674321 0.020000
7.311588 0.822949 0.952896 0.060000
7.358953 0.178761 0.945625 0.360000
11.860252 -0.926162 1.208270 0.550000
33.387810 -11.740625 2.544276 0.020000
11.209313 2.655854 0.169876 0.050000
11.182865 1.425094 0.175231 0.100000
11.484517 0.300745 0.151839 0.010000
11.206774 -0.864817 0.156781 0.020000
10.722563 -1.954282 0.151467 0.050000
10.056769 -2.962193 0.140983 0.050000
9.446937 -4.019022 0.125462 0.050000
4.994083 1.311768 0.098655 0.080000
5.141900 0.904509 0.102527 0.020000
5.234645 0.501214 0.101270 0.040000
5.317130 0.112762 0.090041 0.020000
5.279802 -0.288024 0.088454 0.060000
5.182378 -0.684978 0.091724 0.110000
5.044987 -1.082662 0.084887 0.090000
4.857810 -1.491282 0.072879 0.130000
29.680128 12.352128 2.759161 0.020000
18.212492 4.684578 1.765714 0.000000
7.321835 0.808088 0.967868 1.000000
7.339219 0.163344 0.955516 0.550000
17.953236 -3.691464 1.623899 0.000000
11.328716 -3.461827 1.207457 0.000000
11.038543 3.997784 0.184418 0.070000
10.998766 1.371430 0.209552 0.090000
11.874910 0.283201 0.157793 0.010000
11.608027 -0.927161 0.162597 0.020000
11.069592 -2.057673 0.156989 0.060000
10.329292 -3.092015 0.146212 0.050000
9.690123 -4.184431 0.135482 0.060000
5.043882 1.322724 0.098826 0.090000
5.201806 0.910676 0.097706 0.030000
5.279636 0.502076 0.101390 0.040000
5.352206 0.108414 0.095116 0.020000
5.350173 -0.306680 0.088568 0.160000
5.242858 -0.708806 0.086793 0.110000
5.080459 -1.106986 0.084889 0.100000
4.903471 -1.525413 0.072871 0.120000
29.666813 12.251525 2.848753 0.020000
18.481874 4.709485 1.836510 0.010000
7.272188 0.787078 0.982660 1.000000
7.344453 0.148368 0.975474 1.100000
12.973332 -1.095370 1.345548 0.310000
17.868614 -3.718254 1.668579 0.000000
11.414855 -3.525316 1.242446 0.010000
34.439262 -18.123028 2.908299 0.010000
21.314648 8.537077 -0.231888 0.070000
12.185163 2.879528 0.188254 0.060000
10.959366 1.335559 0.239316 0.140000
12.365272 0.267552 0.169015 0.010000
11.944280 -0.990769 0.173238 0.050000
11.497074 -2.184545 0.167633 0.050000
10.752937 -3.278953 0.151623 0.040000
10.100029 -4.436625 0.135615 0.060000
5.108487 1.343965 0.099073 0.100000
5.246689 0.916518 0.102845 0.030000
5.349623 0.503416 0.101578 0.040000
5.432300 0.104966 0.090313 0.020000
5.310141 -0.307501 0.103461 0.310000
5.298218 -0.727767 0.091867 0.060000
5.125916 -1.131138 0.089918 0.110000
4.939027 -1.554756 0.077855 0.110000
29.648293 12.160807 2.943368 0.050000
30.357309 8.059064 2.819970 0.060000
7.252357 0.776660 0.992570 0.770000
7.344605 0.138314 0.990438 1.110000
13.058883 -1.128884 1.385647 0.520000
11.324601 -3.517154 1.272241 0.020000
55.852554 -30.336357 4.628810 0.030000
12.095819 4.408032 0.208703 0.070000
12.702932 2.999428 0.200052 0.050000
10.969586 1.320660 0.264287 0.160000
12.950532 0.258741 0.175510 0.010000
12.004936 -2.329863 0.173419 0.050000
11.191771 -3.475602 0.157037 0.030000
10.393767 -4.631089 0.150659 0.060000
5.153274 1.354806 0.104231 0.100000
5.321484 0.927952 0.103083 0.030000
5.399614 0.504374 0.101712 0.070000
5.497466 0.096194 0.095450 0.030000
5.405519 -0.325660 0.098642 0.230000
5.358591 -0.746614 0.091955 0.070000
5.201682 -1.169676 0.084972 0.130000
4.989688 -1.588792 0.077861 0.120000
29.659275 12.095638 3.043155 0.050000
30.298594 7.977558 2.919515 0.110000
7.237595 0.761301 1.012474 0.550000
7.359755 0.128547 1.005441 1.307000
13.039179 -1.149393 1.420520 0.650000
11.350080 -3.546799 1.307197 0.050000
55.688023 -30.390251 4.828182 0.110000
10.959880 1.300343 0.299187 0.140000
13.790649 0.259813 0.182707 0.010000
13.057373 -1.144552 0.195572 0.020000
11.232246 -3.504960 0.192034 0.150000
10.859225 -4.912243 0.155829 0.050000
5.203060 1.365744 0.109401 0.110000
5.381268 0.939081 0.108280 0.030000
5.479503 0.510905 0.101945 0.070000
5.567549 0.092536 0.095620 0.030000
5.500802 -0.338819 0.093842 0.180000
5.449162 -0.774866 0.087086 0.070000
5.242045 -1.188925 0.090006 0.100000
5.045444 -1.627731 0.077862 0.120000
29.680038 12.040623 3.153006 0.020000
7.242747 0.751343 1.027451 0.240000
13.034472 -1.169615 1.455433 0.690000
17.493332 -3.725938 1.802572 0.000000
11.315104 -3.552580 1.337085 0.060000
55.609268 -30.487602 5.052617 0.080000
13.589455 5.011652 0.239846 0.060000
14.574015 3.480293 0.221724 0.050000
10.989988 1.290807 0.329230 0.190000
13.092646 -1.164027 0.235593 0.020000
13.166074 -2.642772 0.200287 0.040000
11.061203 -3.458393 0.236761 0.190000
5.312190 1.412860 0.104861 0.090000
5.451063 0.950420 0.108505 0.030000
5.554393 0.517341 0.102164 0.080000
5.647630 0.089069 0.095816 0.030000
5.561065 -0.352685 0.098948 0.110000
5.539720 -0.803137 0.087217 0.050000
5.312702 -1.222577 0.090066 0.090000
5.101187 -1.666688 0.082862 0.110000
43.499119 18.026260 4.596344 0.040000
30.259899 7.881067 3.119057 0.030000
7.267690 0.751748 1.047518 0.180000
7.339942 0.113019 1.045332 0.330000
13.044557 -1.179571 1.495422 0.680000
17.589006 -3.769351 1.867661 0.000000
11.315300 -3.567707 1.372030 0.090000
55.509647 -30.540361 5.282164 0.050000
11.034997 1.286559 0.359332 0.350000
15.895874 0.265059 0.208222 0.010000
13.117824 -1.178694 0.275604 0.010000
14.502724 -2.977232 0.202533 0.040000
11.061316 -3.468502 0.266724 0.240000
11.324936 -5.213579 0.210925 0.070000
5.361880 1.428796 0.110050 0.110000
5.540663 0.972140 0.108819 0.030000
5.644280 0.524063 0.102424 0.070000
5.707701 0.085200 0.100958 0.030000
5.671345 -0.365557 0.094188 0.090000
5.595079 -0.822099 0.092291 0.040000
5.403452 -1.260846 0.090160 0.100000
5.187238 -1.720031 0.077889 0.110000
43.638584 18.028215 4.791717 0.060000
50.023693 13.343574 5.090972 0.110000
7.247833 0.741292 1.067427 0.190000
7.354982 0.108232 1.065354 0.400000
13.054725 -1.194544 1.540394 0.680000
17.664589 -3.808149 1.932715 0.000000
11.325481 -3.582662 1.412001 0.090000
17.042088 6.473052 0.249291 0.010000
18.489622 4.530505 0.225848 0.020000
11.045095 1.276622 0.394322 0.530000
18.600843 0.296997 0.180401 0.000000
13.118007 -1.193840 0.315549 0.030000
11.081592 -3.488264 0.306704 0.270000
11.325023 -5.223725 0.250887 0.170000
5.471189 1.465896 0.110473 0.110000
5.625360 0.988765 0.109102 0.030000
5.724157 0.530576 0.107657 0.090000
5.827692 0.087517 0.096280 0.030000
5.746605 -0.379137 0.099334 0.080000
5.685542 -0.845370 0.092441 0.040000
5.469015 -1.289596 0.090224 0.110000
5.247981 -1.758893 0.082903 0.090000
43.639072 17.977556 4.971531 0.070000
57.195419 15.288114 5.976930 0.050000
7.252876 0.736315 1.087422 0.220000
7.370023 0.103446 1.085375 0.620000
13.059894 -1.209612 1.585351 0.560000
40.321236 -9.447751 4.020913 0.010000
11.325665 -3.597807 1.451946 0.090000
13.074129 4.741167 0.392497 0.030000
13.136671 3.042028 0.396344 0.040000
11.020213 1.266034 0.424218 0.760000
13.306229 0.199865 0.361221 0.010000
13.213268 -1.212165 0.355730 0.030000
17.507755 -3.734851 0.217560 0.030000
11.076501 -3.488490 0.341690 0.290000
11.299814 -5.219372 0.295838 0.180000
5.550504 1.502422 0.110816 0.120000
5.719850 1.015561 0.114448 0.040000
5.828946 0.542585 0.107975 0.080000
5.897761 0.083840 0.101449 0.040000
5.836863 -0.392429 0.104520 0.070000
5.745805 -0.859237 0.097547 0.040000
5.544658 -1.323171 0.095297 0.100000
5.339018 -1.812159 0.082943 0.100000
57.185272 15.262034 6.216809 0.070000
7.257810 0.736317 1.112435 0.220000
7.375066 0.098469 1.105370 1.220000
13.140036 -1.223263 1.635510 0.310000
40.306217 -9.468611 4.175797 0.030000
11.325656 -3.602955 1.491927 0.070000
13.069274 4.725870 0.447428 0.020000
11.010194 1.260676 0.469173 0.770000
13.183156 -1.212907 0.400649 0.040000
13.387409 -2.734173 0.370527 0.050000
11.086682 -3.503444 0.381662 0.260000
11.299806 -5.224520 0.335820 0.220000
5.644802 1.539216 0.116199 0.110000
5.824351 1.042567 0.114822 0.030000
5.933734 0.554594 0.108293 0.090000
6.007741 0.085947 0.101744 0.030000
5.922039 -0.400799 0.104711 0.080000
5.841362 -0.887412 0.097692 0.030000
5.660595 -1.370959 0.095422 0.080000
5.414853 -1.855733 0.087979 0.080000
46.504696 19.180120 5.673489 0.050000
57.175194 15.236049 6.431689 0.070000
7.277753 0.736626 1.132489 0.220000
7.380013 0.098490 1.125383 1.120000
40.230633 -9.460625 4.330631 0.010000
11.330647 -3.608007 1.531922 0.060000
14.676246 5.416657 0.484191 0.120000
13.136601 3.031658 0.496307 0.010000
11.030099 1.260929 0.504226 0.770000
18.450802 0.268348 0.389905 0.000000
13.178123 -1.218188 0.450617 0.060000
5.749016 1.581219 0.116627 0.110000
5.963667 1.080260 0.110325 0.030000
6.053424 0.571889 0.108670 0.090000
6.122802 0.083131 0.107034 0.030000
6.057397 -0.418210 0.105000 0.070000
5.946904 -0.915414 0.102863 0.030000
5.761438 -1.414035 0.095525 0.070000
5.505890 -1.908999 0.088018 0.090000
46.360542 19.106613 5.872842 0.040000
57.184704 15.225276 6.691676 0.070000
7.287686 0.736725 1.157515 0.640000
7.394945 0.098684 1.150423 0.810000
39.386654 -9.272049 4.409130 0.010000
11.340815 -3.622980 1.576893 0.060000
14.691113 5.416759 0.534231 0.070000
13.131690 3.021415 0.536256 0.010000
11.010107 1.255417 0.539154 0.780000
13.153009 -1.218834 0.495549 0.070000
13.417430 -2.748967 0.470551 0.010000
11.288065 -3.584895 0.461885 0.090000
5.907753 1.649290 0.112295 0.110000
6.078154 1.107439 0.115725 0.030000
6.193111 0.589567 0.109100 0.100000
6.272787 0.086023 0.102436 0.040000
6.172663 -0.431005 0.105253 0.060000
6.092561 -0.947612 0.098123 0.030000
5.872184 -1.451921 0.095673 0.070000
5.607021 -1.967072 0.088066 0.090000
57.020130 23.716095 7.412817 0.040000
57.149277 15.213716 6.931543 0.070000
7.267651 0.736286 1.172461 0.520000
39.250687 -9.245234 4.568877 0.020000
11.330616 -3.618321 1.616884 0.070000
18.320274 4.445963 0.575096 0.030000
11.025012 1.255574 0.574193 0.760000
13.137813 -1.214271 0.535527 0.050000
16.884401 -3.602738 0.481427 0.040000
11.293068 -3.589929 0.496880 0.260000
6.051577 1.712055 0.112903 0.110000
6.217457 1.145113 0.116229 0.040000
6.352698 0.612628 0.109603 0.080000
6.402750 0.088494 0.107785 0.040000
6.358120 -0.452438 0.100657 0.050000
6.198103 -0.975614 0.103295 0.030000
5.993120 -1.499614 0.095812 0.050000
5.723245 -2.029857 0.088136 0.080000
56.989628 23.709665 7.642716 0.050000
57.168385 15.228240 7.161649 0.070000
7.277584 0.736384 1.197488 0.460000
7.349849 0.097674 1.190302 0.100000
40.591858 -4.369567 4.830504 0.150000
39.315666 -9.264544 4.718976 0.020000
11.345688 -3.628199 1.661887 0.070000
13.141331 3.026234 0.636300 0.020000
11.004911 1.255042 0.614139 0.910000
16.955547 0.238955 0.590895 0.000000
13.017417 -1.201758 0.585259 0.040000
16.693199 -3.551647 0.551119 0.020000
11.247480 -3.565963 0.541851 0.200000
13.640590 -6.570515 0.496928 0.020000
6.235118 1.790602 0.108674 0.130000
6.416391 1.203970 0.106967 0.030000
6.517297 0.635803 0.105118 0.100000
6.617736 0.092649 0.098361 0.030000
6.498382 -0.464754 0.100978 0.050000
6.353745 -1.007638 0.103582 0.030000
6.129148 -1.552018 0.095972 0.050000
5.864751 -2.107161 0.088218 0.090000
46.110184 19.039625 6.466945 0.050000
57.122330 15.246408 7.421599 0.070000
7.287421 0.741482 1.222533 0.390000
7.364781 0.097868 1.215342 0.090000
57.445889 -6.274658 6.922438 0.210000
39.470715 -9.292275 4.909279 0.030000
11.335393 -3.618541 1.701897 0.070000
84.441490 -47.600147 10.984325 0.030000
14.675658 5.415821 0.709189 0.040000
13.126121 3.030779 0.681278 0.020000
11.034623 1.265485 0.649256 0.790000
13.285610 0.193460 0.636147 0.000000
12.992126 -1.192387 0.625229 0.050000
16.672771 -3.537238 0.606120 0.020000
11.151531 -3.522939 0.581760 0.130000
13.650361 -6.565510 0.546972 0.030000
6.378942 1.853368 0.109283 0.140000
6.585497 1.252218 0.107588 0.040000
6.671885 0.658767 0.105607 0.100000
6.747602 0.100119 0.103728 0.040000
6.678744 -0.481284 0.096387 0.060000
6.479296 -1.035239 0.103807 0.030000
6.300471 -1.618730 0.091171 0.050000
6.006271 -2.184446 0.083300 0.090000
46.862183 19.423014 6.765337 0.030000
57.125607 15.305675 7.641830 0.070000
7.272385 0.741139 1.237492 0.480000
7.374631 0.102984 1.235387 0.090000
52.354076 -5.655745 6.551444 0.210000
38.977386 -9.137063 5.008570 0.030000
11.355272 -3.618326 1.746950 0.060000
14.709908 5.446244 0.774392 0.070000
13.130894 3.035688 0.731309 0.030000
11.024438 1.270162 0.684247 0.770000
13.280397 0.198196 0.681151 0.000000
12.976819 -1.182844 0.670225 0.050000
16.697515 -3.531983 0.666204 0.020000
11.221797 -3.541744 0.621874 0.430000
15.687752 -7.721879 0.597993 0.140000
6.542569 1.926515 0.109982 0.150000
6.729691 1.294968 0.113123 0.040000
6.826364 0.686712 0.111114 0.100000
6.897574 0.102991 0.104130 0.040000
6.813993 -0.493715 0.101694 0.050000
6.660138 -1.076764 0.099125 0.030000
6.446485 -1.670961 0.096358 0.050000
6.152777 -2.261654 0.083396 0.090000
46.870594 19.477432 6.970563 0.040000
57.128937 15.359886 7.877043 0.060000
7.267238 0.745968 1.257497 0.360000
7.384481 0.108101 1.255432 0.100000
52.282555 -5.602783 6.736456 0.190000
38.921181 -9.093627 5.143586 0.040000
11.370165 -3.618187 1.786989 0.050000
14.674784 5.445388 0.824298 0.080000
18.025282 4.404298 0.849174 0.050000
11.024155 1.280030 0.719284 0.620000
13.305084 0.208506 0.726254 0.000000
13.061686 -1.181383 0.715452 0.090000
11.130764 -3.493607 0.656816 0.230000
15.702291 -7.706836 0.663087 0.370000
6.691187 1.999355 0.115641 0.130000
6.913602 1.353501 0.113821 0.050000
7.030763 0.720651 0.106774 0.120000
7.092442 0.111725 0.104671 0.040000
6.979345 -0.510551 0.102063 0.060000
6.830859 -1.113520 0.104434 0.040000
6.617602 -1.727694 0.096594 0.050000
6.294271 -2.338976 0.088478 0.090000
44.355114 18.454590 6.820193 0.080000
57.111946 15.428657 8.127257 0.070000
7.424299 0.113754 1.285557 0.320000
41.073929 -4.307836 5.516999 0.060000
39.552925 -9.212429 5.384796 0.030000
11.344682 -3.598819 1.826995 0.080000
13.062464 4.764279 0.847557 0.060000
17.900328 4.391665 0.913801 0.050000
13.249689 0.222282 0.771161 0.000000
13.096370 -1.170882 0.760582 0.100000
13.385652 -2.695593 0.750669 0.010000
11.155655 -3.493277 0.696883 0.250000
15.721927 -7.696696 0.728177 2.254000
6.894424 2.093264 0.116521 0.140000
7.102513 1.412129 0.114532 0.040000
7.205142 0.753978 0.112353 0.120000
7.282215 0.125362 0.105217 0.040000
7.159586 -0.522119 0.107490 0.070000
6.976394 -1.140756 0.109713 0.040000
6.814016 -1.798927 0.091842 0.050000
6.445776 -2.416088 0.088587 0.100000
46.846478 19.630384 7.411073 0.030000
57.074768 15.507042 8.377454 0.080000
7.281817 0.761066 1.307592 0.210000
7.384172 0.117931 1.300468 0.350000
40.877136 -4.237143 5.666750 0.100000
39.636894 -9.181438 5.555132 0.030000
11.359383 -3.588682 1.867072 0.060000
13.086754 4.794566 0.897734 0.080000
17.755486 4.373667 0.973357 0.060000
7.263456 0.757878 0.717526 0.250000
13.085884 -1.151226 0.800628 0.110000
13.455534 -2.694401 0.790857 0.020000
11.205542 -3.492468 0.737016 0.280000
15.655440 -7.628178 0.788258 0.870000
7.033044 2.165914 0.122153 0.150000
7.251610 1.459975 0.120099 0.050000
7.404531 0.787803 0.112999 0.120000
7.477083 0.134095 0.105759 0.040000
7.344839 -0.533574 0.107931 0.060000
7.197324 -1.186514 0.105119 0.040000
6.975123 -1.855870 0.097051 0.050000
6.627562 -2.507623 0.088721 0.080000
44.722424 18.794996 7.282422 0.030000
50.270359 13.689118 7.612927 0.080000
7.326456 0.776833 1.332767 0.120000
7.373930 0.127664 1.320478 0.400000
40.910477 -4.172060 5.822081 0.040000
41.719578 -9.623206 5.988931 0.020000
11.368989 -3.573642 1.907153 0.030000
43.141399 -23.386360 6.746488 0.020000
13.086240 4.814377 0.947807 0.100000
17.650335 4.371415 1.038075 0.040000
7.208415 0.756750 0.737378 0.320000
30.948807 0.634727 1.253899 0.000000
13.085480 -1.136396 0.845683 0.110000
13.374652 -2.656126 0.840788 0.030000
11.240335 -3.486947 0.777128 0.250000
7.495140 1.539671 0.116031 0.040000
7.608821 0.826722 0.113677 0.100000
7.706848 0.148498 0.106412 0.030000
7.600188 -0.548668 0.103542 0.050000
7.398053 -1.222676 0.105509 0.040000
7.166333 -1.917218 0.097322 0.050000
6.778958 -2.579754 0.093848 0.090000
45.368950 19.201351 7.585623 0.070000
50.247887 13.787917 7.828238 0.130000
7.321213 0.786660 1.352790 0.150000
7.393670 0.137952 1.345568 0.550000
46.434143 -4.699704 6.744547 0.120000
41.727818 -9.553623 6.149212 0.020000
11.383691 -3.563505 1.947230 0.030000
43.088554 -23.262991 6.921810 0.040000
13.095450 4.849394 0.992962 0.070000
13.118584 3.124643 0.956610 0.040000
7.272967 0.777917 0.757626 0.210000
31.472328 0.699306 1.380507 0.020000
13.074898 -1.111741 0.885747 0.070000
16.388079 -3.343939 0.956099 0.050000
11.325501 -3.500465 0.817300 0.310000
7.439218 2.368710 0.128967 0.100000
7.678943 1.603184 0.121747 0.040000
7.833013 0.871024 0.114427 0.100000
7.911510 0.167403 0.112016 0.030000
7.790426 -0.560045 0.108996 0.040000
7.633967 -1.268166 0.105955 0.040000
7.357434 -1.973587 0.102611 0.040000
7.011228 -2.695308 0.089025 0.070000
44.493530 18.944283 7.652383 0.060000
50.230164 13.901865 8.028617 0.140000
7.375741 0.807599 1.383011 0.500000
7.388426 0.147780 1.365591 1.080000
40.636387 -3.998251 6.087014 0.100000
41.770874 -9.473352 6.304625 0.000000
11.342854 -3.524390 1.977269 0.030000
17.315386 4.349575 1.152120 0.070000
7.252727 0.787457 0.777609 0.150000
13.247700 0.301617 0.946453 0.010000
11.901916 -0.969235 0.898215 0.060000
13.353379 -2.601836 0.925935 0.030000
11.355104 -3.485042 0.857436 0.230000
7.657165 2.477903 0.129942 0.120000
7.907449 1.682556 0.127638 0.040000
8.037099 0.919923 0.120142 0.100000
8.151177 0.186996 0.112715 0.030000
8.015563 -0.565752 0.114563 0.040000
7.804497 -1.294923 0.111301 0.040000
7.563737 -2.039647 0.102904 0.040000
7.192810 -2.776863 0.094195 0.070000
50.923199 21.978374 8.930458 0.100000
50.261967 14.041783 8.224222 0.070000
7.365499 0.817331 1.403021 0.690000
40.589294 -3.909669 6.232222 0.110000
44.405167 -10.009995 6.854512 0.020000
11.327177 -3.494832 2.017338 0.030000
47.948994 -25.749563 8.075266 0.010000
14.873780 5.713000 1.165816 0.100000
17.170269 4.346593 1.206731 0.070000
11.836262 -0.940616 0.933151 0.090000
7.904709 2.607649 0.136070 0.100000
8.150775 1.772232 0.128607 0.040000
8.316089 0.975276 0.121076 0.080000
8.410841 0.206973 0.113467 0.030000
8.260900 -0.581056 0.115146 0.040000
8.020114 -1.325818 0.116749 0.030000
7.779929 -2.100536 0.108242 0.040000
7.404782 -2.877821 0.094373 0.080000
43.372173 18.717072 7.838614 0.060000
45.382351 12.750175 7.641678 0.110000
7.320385 0.821431 1.412918 0.610000
7.377858 0.172454 1.400656 0.270000
48.270039 -4.577382 7.529802 0.110000
44.342285 -9.881745 7.009826 0.020000
11.391952 -3.488755 2.062530 0.030000
47.738152 -25.469137 8.235760 0.050000
14.971976 5.799675 1.226395 0.050000
13.151404 3.219793 1.092051 0.020000
7.339323 0.178898 0.805573 0.000000
11.835705 -0.915732 0.963242 0.100000
13.407286 -2.556107 1.011247 0.060000
8.181988 2.753003 0.132334 0.120000
8.409084 1.862177 0.134615 0.040000
8.560072 1.029940 0.126916 0.090000
8.690406 0.232331 0.114291 0.030000
8.511045 -0.586267 0.115780 0.040000
8.275928 -1.365925 0.117268 0.030000
7.971030 -2.156904 0.113532 0.040000
7.591268 -2.954282 0.099576 0.060000
42.877716 18.672281 7.922157 0.060000
7.329948 0.841544 1.433018 0.570000
7.382517 0.187472 1.420724 0.440000
43.744797 -4.012022 6.995086 0.100000
44.349579 -9.762153 7.165291 0.010000
11.325845 -3.435104 2.087558 0.040000
47.769695 -25.314184 8.421420 0.040000
13.102091 4.998869 1.178536 0.030000
16.939463 4.371792 1.311223 0.040000
11.150238 1.446447 1.000234 0.050000
11.825040 -0.886060 0.998325 0.100000
13.562134 -6.209025 1.063073 0.020000
8.414536 2.882461 0.138422 0.110000
8.682117 1.967424 0.135719 0.040000
8.858866 1.095674 0.127940 0.090000
8.984859 0.262958 0.120173 0.030000
8.841271 -0.594944 0.116610 0.040000
8.546824 -1.410764 0.122808 0.030000
8.207328 -2.222391 0.113905 0.040000
7.787942 -3.040549 0.104769 0.070000
40.976425 17.961330 7.754550 0.090000
7.309708 0.851085 1.453001 0.620000
7.392176 0.202586 1.440805 0.580000
43.116035 -3.829233 7.049125 0.120000
44.361584 -9.627467 7.320825 0.000000
11.350366 -3.414759 2.122697 0.050000
44.931442 -23.562096 8.110521 0.060000
16.426096 4.276815 1.344531 0.160000
7.393646 0.209816 0.840830 0.010000
11.814376 -0.856387 1.033408 0.100000
13.566057 -6.159106 1.108269 0.010000
8.686597 3.037681 0.144710 0.100000
8.945151 2.072480 0.136797 0.040000
9.142568 1.166119 0.128943 0.070000
9.309236 0.299195 0.116155 0.030000
9.101414 -0.599962 0.117270 0.040000
8.842644 -1.450087 0.118434 0.030000
8.483809 -2.297109 0.114349 0.030000
7.974332 -3.112010 0.109990 0.070000
41.417992 18.374035 7.982239 0.090000
7.324174 0.876293 1.473132 0.590000
7.396739 0.222604 1.460892 1.050000
47.389198 -4.065352 7.854410 0.080000
11.304159 -3.355725 2.147797 0.040000
44.952145 -23.357176 8.251338 0.080000
13.085052 5.093248 1.263844 0.020000
16.365250 4.315528 1.379516 0.110000
7.393307 0.224739 0.860885 0.040000
11.838718 -0.826025 1.063584 0.070000
13.369596 -2.432229 1.126610 0.030000
13.446396 -4.091051 1.120644 0.020000
13.559804 -6.099362 1.148475 0.010000
8.909146 3.166948 0.150771 0.110000
9.262888 2.193587 0.138076 0.040000
9.451168 1.242043 0.130030 0.080000
9.613591 0.335012 0.122082 0.030000
9.446541 -0.603353 0.118158 0.030000
9.118345 -1.484831 0.124025 0.030000
8.745184 -2.367134 0.119771 0.030000
8.206097 -3.202606 0.115258 0.070000
41.111805 18.417774 8.091603 0.100000
7.288867 0.890583 1.483094 0.590000
7.401316 0.242640 1.475978 0.910000
42.584011 -3.489949 7.208999 0.100000
11.313408 -3.320652 2.177951 0.030000
44.902176 -23.118622 8.397096 0.060000
13.098795 5.153375 1.304103 0.030000
16.368956 4.375408 1.434749 0.060000
13.221580 1.890480 1.202294 0.010000
7.302914 0.242974 0.870717 0.040000
11.852966 -0.790856 1.093753 0.100000
9.230637 3.353137 0.152303 0.120000
9.510803 2.303318 0.149131 0.040000
9.754674 1.322870 0.131123 0.080000
7.983844 0.288315 0.247656 0.010000
9.706479 -0.598392 0.123855 0.030000
9.388966 -1.514654 0.124620 0.030000
9.031569 -2.436661 0.120260 0.030000
8.463060 -3.302702 0.115557 0.060000
40.666458 18.424046 8.145465 0.070000
7.298443 0.910715 1.498194 0.740000
47.627621 -3.761832 8.156163 0.070000
45.038933 -22.966454 8.528020 0.100000
13.082762 5.202967 1.334246 0.030000
7.287508 0.262646 0.880750 0.040000
11.897223 -0.755094 1.119001 0.080000
15.714779 -4.793392 1.303957 0.000000
13.562322 -5.979549 1.218928 0.020000
9.522325 3.528755 0.153717 0.130000
9.833347 2.434518 0.150461 0.040000
10.003273 1.397626 0.137050 0.090000
8.023427 0.309040 0.257837 0.070000
9.951324 -0.588720 0.129530 0.030000
9.634373 -1.534994 0.135185 0.030000
9.343139 -2.515708 0.120779 0.030000
8.750389 -3.422239 0.120862 0.070000
42.029114 19.283772 8.567222 0.070000
47.679737 14.544503 9.014359 0.010000
7.390473 0.282330 1.506098 0.080000
42.412266 -3.168952 7.419746 0.060000
45.276203 -22.847567 8.714084 0.060000
29.530081 13.170298 2.516808 0.220000
13.110868 3.478274 1.307908 0.060000
13.184718 1.979589 1.257529 0.010000
7.361962 0.289003 0.901042 0.120000
11.931466 -0.719542 1.149223 0.080000
11.720118 -1.953753 1.129083 0.010000
15.960082 -4.813881 1.354521 0.020000
10.071195 2.549093 0.151508 0.040000
10.261774 1.477572 0.143022 0.070000
7.833014 0.325304 0.282400 0.040000
10.200991 -0.568935 0.130256 0.030000
9.889804 -1.555106 0.135777 0.030000
9.584052 -2.561102 0.121240 0.030000
8.986974 -3.502722 0.121181 0.070000
50.798557 23.830667 10.477035 0.080000
7.370068 0.301906 1.516118 0.230000
40.952026 -2.886263 7.251984 0.080000
43.938091 -21.892439 8.554139 0.090000
29.502125 13.314530 2.587272 0.220000
16.170952 4.516274 1.534757 0.040000
13.173793 2.024296 1.282667 0.010000
7.326560 0.308292 0.911022 0.180000
11.694113 -1.904315 1.149199 0.070000
16.356302 -4.881506 1.410305 0.010000
13.579753 -5.854432 1.284439 0.020000
10.016073 3.858232 0.166230 0.110000
10.304029 2.663555 0.157541 0.040000
10.485282 1.556849 0.148900 0.080000
7.657598 0.341856 0.307004 0.100000
10.405652 -0.550030 0.135860 0.030000
10.089849 -1.556293 0.141295 0.030000
9.819870 -2.601593 0.121705 0.030000
9.213369 -3.573399 0.121509 0.070000
50.623455 24.082010 10.572513 0.110000
47.892960 15.122681 9.292068 0.040000
7.384560 0.327151 1.526249 0.360000
47.335255 -3.158352 8.437646 0.080000
44.008995 -21.691393 8.650073 0.070000
29.488878 13.474049 2.657831 0.230000
7.301155 0.327772 0.921028 0.500000
12.675735 -0.685575 1.231293 0.040000
11.607843 -1.841011 1.164210 0.150000
13.505997 -3.830432 1.276770 0.020000
10.228254 4.007322 0.167339 0.100000
10.566586 2.793606 0.158710 0.040000
10.728703 1.641526 0.149850 0.080000
7.637097 0.366431 0.317042 0.060000
10.605218 -0.526222 0.141470 0.030000
10.274898 -1.557768 0.146773 0.030000
9.995291 -2.623274 0.132082 0.030000
9.434765 -3.644171 0.121824 0.080000
50.513504 24.324562 10.678128 0.060000
43.880436 14.003020 8.627424 0.050000
7.364154 0.346727 1.536269 0.440000
42.351315 -2.630886 7.656590 0.110000
44.957726 -21.914234 8.916723 0.070000
29.440678 13.632952 2.713296 0.240000
7.310661 0.352940 0.926146 0.340000
12.629746 -0.636502 1.246356 0.080000
11.556773 -1.787016 1.174277 0.210000
13.454543 -3.756441 1.286911 0.010000
10.380626 4.145247 0.173249 0.130000
10.774329 2.912587 0.164694 0.050000
10.932132 1.725436 0.150693 0.080000
10.829793 -0.501917 0.142146 0.030000
10.444757 -1.549531 0.152247 0.030000
10.190624 -2.639554 0.137531 0.030000
9.590298 -3.671216 0.127129 0.070000
52.402481 25.629101 11.197914 0.070000
43.656990 14.173588 8.677476 0.050000
7.388535 0.377144 1.551446 0.580000
41.811962 -2.406102 7.636017 0.070000
44.941673 -21.609781 8.997814 0.040000
29.436758 13.827655 2.784010 0.240000
16.612553 2.864257 1.579769 0.010000
7.305157 0.377802 0.936224 0.260000
12.588565 -0.577336 1.261468 0.110000
11.550764 -1.737196 1.194447 0.170000
10.572701 4.298934 0.179322 0.100000
10.962173 3.026186 0.170607 0.040000
11.130548 1.809233 0.156523 0.070000
11.034166 -0.468015 0.147806 0.030000
10.644624 -1.540702 0.152801 0.020000
10.355785 -2.646392 0.137937 0.030000
9.796205 -3.717299 0.132496 0.060000
51.998989 25.801237 11.242501 0.070000
42.300934 13.978188 8.508208 0.090000
7.378046 0.401929 1.556511 0.900000
41.828175 -2.215960 7.691767 0.120000
46.419460 -22.047749 9.325047 0.100000
29.383718 13.981556 2.814445 0.220000
19.090532 5.826266 1.862251 0.000000
30.661806 5.775427 2.557273 0.040000
7.309651 0.402856 0.946329 0.340000
12.592663 -0.532304 1.276646 0.110000
11.524797 -1.687703 1.199563 0.180000
10.705378 4.421496 0.180124 0.120000
11.100327 3.123850 0.171331 0.040000
11.254280 1.876614 0.157096 0.070000
11.396293 0.729131 0.153201 0.030000
11.163554 -0.435550 0.153264 0.020000
10.809497 -1.532543 0.153262 0.030000
10.510935 -2.653441 0.143316 0.020000
9.916456 -3.730016 0.137762 0.070000
51.893421 26.078953 11.328259 0.040000
42.226986 14.176622 8.558753 0.100000
42.279358 8.362919 8.177275 0.040000
7.377553 0.426906 1.561602 0.970000
41.378956 -1.994377 7.651418 0.160000
45.722244 -21.400564 9.210631 0.070000
29.379795 14.181388 2.850178 0.220000
18.845098 5.846569 1.861686 0.000000
30.658772 5.930305 2.582841 0.040000
7.279177 0.427277 0.946341 0.220000
12.586584 -0.477448 1.286835 0.130000
11.553890 -1.642193 1.214809 0.210000
10.813140 4.538563 0.185840 0.120000
11.198679 3.210748 0.171911 0.040000
11.392803 1.954263 0.162746 0.070000
11.320405 0.772631 0.168165 0.070000
11.287765 -0.393164 0.153746 0.030000
10.939076 -1.510076 0.158684 0.020000
10.625722 -2.641240 0.143661 0.020000
10.087012 -3.756736 0.133108 0.070000
53.004044 27.059315 11.629806 0.060000
42.192299 14.415873 8.594553 0.120000
40.273975 8.150722 7.831248 0.040000
7.372062 0.451787 1.566680 1.140000
41.495079 -1.797283 7.697454 0.170000
39.784264 -6.695034 7.434779 0.010000
45.787254 -21.144403 9.246754 0.060000
29.296787 14.334752 2.870531 0.170000
18.679255 5.888381 1.866408 0.000000
30.591049 6.068958 2.603180 0.040000
7.293683 0.452541 0.951472 0.420000
12.570616 -0.427763 1.291978 0.130000
11.568012 -1.596933 1.220014 0.200000
10.886306 4.634981 0.186390 0.100000
