# This PCD file was generated using the MATLAB® pcwrite function
# from Computer Vision Toolbox®.
# .PCD v.7 - Point Cloud Data file format
VERSION .7
FIELDS x y z intensity
SIZE 4 4 4 4
TYPE F F F F
COUNT 1 1 1 1
WIDTH 1284
HEIGHT 1
VIEWPOINT 0 0 0 1 0 0 0
POINTS 1284
DATA ascii
9.291903 -2.451678 0.120884 0.030000
8.749349 -3.367231 0.116064 0.070000
50.816875 23.941643 10.312493 0.120000
47.589302 14.832969 8.975195 0.060000
6.928834 0.893816 1.447165 0.110000
6.750784 0.275481 1.394402 0.380000
42.578030 -2.945719 7.416008 0.110000
44.022686 -21.850279 8.409515 0.100000
29.496307 13.369759 2.497461 0.190000
13.129344 3.558660 1.303255 0.020000
31.296316 1.678065 2.213695 0.040000
11.623629 -1.875550 1.119122 0.100000
13.456642 -3.856162 1.216545 0.020000
9.673929 3.706671 0.159774 0.120000
9.985636 2.577460 0.151390 0.040000
10.176120 1.510938 0.142922 0.080000
10.340363 0.508925 0.134626 0.030000
10.140043 -0.520094 0.130278 0.030000
9.863755 -1.500595 0.135912 0.030000
9.577999 -2.506208 0.121428 0.030000
8.960637 -3.433214 0.121370 0.070000
50.652061 24.173052 10.442924 0.060000
43.685123 13.790122 8.386121 0.050000
6.913332 0.918487 1.457217 0.110000
6.735378 0.295152 1.404435 0.600000
42.459122 -2.753238 7.491415 0.160000
44.093132 -21.629349 8.535522 0.040000
29.477953 13.534162 2.573025 0.220000
13.264248 0.700904 1.247983 0.020000
12.655421 -0.665869 1.206313 0.060000
11.577531 -1.821497 1.139203 0.180000
16.288958 -4.757719 1.395589 0.020000
13.567769 -5.749606 1.274797 0.020000
9.925624 3.881523 0.161081 0.130000
10.248274 2.702494 0.157540 0.040000
10.444440 1.601093 0.143958 0.080000
10.604342 0.563972 0.140520 0.030000
10.364701 -0.500806 0.135936 0.030000
10.068799 -1.501686 0.141443 0.030000
9.803711 -2.541910 0.126884 0.030000
9.237502 -3.527928 0.121741 0.070000
43.625740 14.003637 8.491761 0.060000
6.932810 0.943810 1.472362 0.110000
6.734969 0.315111 1.414508 1.160000
42.135269 -2.559516 7.521289 0.160000
45.036259 -21.822329 8.812269 0.090000
29.454311 13.713466 2.648630 0.210000
6.881011 0.334818 0.894957 0.010000
12.624321 -0.611529 1.226434 0.080000
11.551430 -1.767060 1.159337 0.220000
13.454116 -3.731371 1.267003 0.040000
10.127686 4.035383 0.172180 0.120000
10.515636 2.842639 0.158759 0.040000
10.667852 1.685368 0.149854 0.090000
10.828328 0.618253 0.146306 0.030000
10.624256 -0.475849 0.141707 0.030000
10.248753 -1.498258 0.146926 0.030000
10.034434 -2.577498 0.127354 0.030000
9.428520 -3.579279 0.122049 0.080000
52.390816 25.729242 11.103255 0.040000
42.488743 13.852257 8.373229 0.060000
6.977174 0.974591 1.492592 0.380000
6.764445 0.340625 1.429680 0.730000
42.036259 -2.361652 7.596767 0.110000
46.373268 -22.223040 9.154273 0.040000
29.430983 13.877810 2.714181 0.200000
19.181330 5.793200 1.807364 0.000000
6.895612 0.355083 0.900070 1.000000
12.583331 -0.562360 1.241510 0.110000
11.560622 -1.726932 1.174511 0.270000
13.437821 -3.666745 1.287201 0.020000
10.339675 4.194471 0.173325 0.120000
10.718491 2.956544 0.159712 0.050000
10.886169 1.774546 0.155756 0.070000
11.017239 0.676881 0.147017 0.030000
10.803648 -0.442407 0.142299 0.030000
10.443716 -1.494523 0.147449 0.020000
10.159385 -2.575141 0.137689 0.020000
9.604145 -3.610940 0.127389 0.060000
51.992405 25.896460 11.152837 0.070000
42.150948 13.990702 8.402863 0.100000
6.936786 0.993803 1.497558 0.370000
6.744052 0.360220 1.434699 0.440000
41.896870 -2.139429 7.637230 0.080000
46.513504 -21.985643 9.245522 0.060000
29.387495 14.051805 2.769715 0.220000
19.069944 5.860988 1.832326 0.000000
30.680758 5.835947 2.517547 0.050000
6.855210 0.374276 0.910036 0.130000
12.587319 -0.512348 1.261707 0.110000
11.544532 -1.672286 1.189672 0.220000
10.492046 4.332395 0.179236 0.120000
10.941040 3.085811 0.165774 0.040000
11.074601 1.858170 0.156559 0.070000
11.231132 0.735969 0.152796 0.030000
11.008021 -0.408506 0.147959 0.030000
10.633572 -1.485904 0.152976 0.020000
10.374824 -2.596019 0.138174 0.020000
9.789960 -3.652407 0.132720 0.060000
51.871361 26.198883 11.238647 0.030000
42.106544 14.209616 8.478560 0.120000
6.748559 0.385292 1.439804 0.160000
41.422821 -1.928360 7.606777 0.120000
39.792221 -6.839650 7.364261 0.010000
45.746136 -21.334894 9.155937 0.140000
29.378834 14.236507 2.815379 0.190000
18.834578 5.876446 1.841769 0.000000
30.623173 5.964720 2.557876 0.040000
6.844720 0.399061 0.915101 0.390000
12.566339 -0.462778 1.271836 0.120000
11.558628 -1.627063 1.204877 0.230000
10.659223 4.480605 0.185223 0.130000
11.064183 3.183168 0.171457 0.040000
11.247927 1.946487 0.162339 0.060000
11.330142 0.787857 0.158247 0.100000
11.177415 -0.375256 0.148524 0.030000
10.863433 -1.476500 0.153611 0.020000
10.514688 -2.588357 0.143568 0.030000
9.945314 -3.669434 0.133063 0.060000
53.165302 27.257475 11.620963 0.070000
42.136375 14.469976 8.549607 0.100000
6.960688 1.049216 1.512827 0.100000
6.733070 0.409982 1.444856 0.140000
41.553986 -1.736053 7.672835 0.140000
39.778206 -6.635011 7.399986 0.020000
45.840908 -21.068214 9.207177 0.040000
29.300608 14.399928 2.845783 0.190000
30.600332 6.109217 2.583354 0.050000
6.829327 0.418752 0.920134 0.430000
12.600335 -0.412173 1.287113 0.120000
11.562655 -1.576995 1.210074 0.190000
17.253693 -7.115503 1.619345 0.000000
10.752193 4.587404 0.185863 0.120000
11.177424 3.275335 0.177095 0.040000
11.361659 2.013677 0.162886 0.070000
11.274347 0.826740 0.173246 0.110000
11.296709 -0.337983 0.153974 0.030000
10.937831 -1.445088 0.158922 0.020000
10.654662 -2.585676 0.143943 0.020000
10.065470 -3.677153 0.138348 0.050000
52.895760 27.487225 11.656114 0.070000
43.292957 15.141200 8.840124 0.030000
6.940200 1.073809 1.517865 0.100000
6.782542 0.435879 1.460081 0.360000
41.800457 -1.561613 7.759128 0.140000
39.719425 -6.441175 7.420553 0.040000
48.029438 -21.818121 9.670107 0.080000
29.316666 14.600124 2.886569 0.200000
30.592381 6.258981 2.613890 0.040000
6.838833 0.443920 0.925253 0.300000
12.584367 -0.362488 1.292256 0.130000
11.657120 -1.550236 1.225420 0.200000
17.347582 -7.058750 1.634801 0.000000
10.835166 4.694012 0.186476 0.110000
11.240975 3.351565 0.177544 0.050000
11.450384 2.080369 0.168366 0.070000
11.208579 0.865469 0.178218 0.120000
11.400923 -0.295979 0.154403 0.030000
11.067424 -1.422602 0.159344 0.020000
10.190542 -3.679758 0.138664 0.070000
52.423473 27.608366 11.610331 0.050000
43.238205 15.385103 8.865889 0.050000
6.959608 1.104168 1.523028 0.110000
6.747179 0.455223 1.455061 0.570000
41.951672 -1.368848 7.805239 0.170000
39.946175 -6.277006 7.476756 0.050000
40.488426 -11.653762 7.783187 0.010000
11.295799 -4.262035 2.414408 0.010000
29.258394 14.769002 2.897045 0.210000
30.569389 6.413531 2.624405 0.010000
6.833354 0.468819 0.925331 0.280000
12.613378 -0.311960 1.302520 0.120000
12.554000 -1.648297 1.287397 0.260000
19.526472 -5.167035 1.742522 0.000000
10.848808 4.764267 0.191772 0.110000
11.274723 3.417223 0.177877 0.050000
11.484228 2.141028 0.168679 0.070000
11.480045 -0.249456 0.154782 0.030000
11.111649 -1.381748 0.159611 0.020000
10.773477 -2.523408 0.149485 0.020000
10.219770 -3.639191 0.138892 0.060000
41.774609 15.072952 8.605905 0.030000
6.929326 1.118591 1.523003 0.210000
6.776681 0.480774 1.460233 1.200000
47.874493 -1.349337 8.890783 0.080000
40.288437 -6.140683 7.548157 0.040000
40.534737 -11.462896 7.799018 0.030000
11.340095 -4.226217 2.424657 0.080000
29.249798 14.953796 2.917710 0.210000
30.601360 6.569098 2.645066 0.000000
6.842969 0.489007 0.925431 0.370000
12.572331 -0.257737 1.302614 0.090000
12.598007 -1.597482 1.297701 0.260000
19.524446 -5.062073 1.747907 0.000000
20.097448 -8.096984 1.833121 0.000000
10.842660 4.824160 0.191979 0.120000
11.258755 3.466908 0.183020 0.050000
11.483366 2.186020 0.168844 0.070000
7.098674 0.530910 0.381249 0.040000
11.509274 -0.208889 0.155009 0.030000
11.135973 -1.346276 0.159807 0.020000
10.807799 -2.487744 0.149707 0.020000
10.243986 -3.598738 0.144105 0.060000
41.705582 15.281649 8.611501 0.050000
6.983523 1.159599 1.533297 0.440000
48.745354 -1.148228 9.058805 0.060000
40.209560 -5.937103 7.533708 0.030000
40.520634 -11.248111 7.794779 0.030000
11.364227 -4.180747 2.424889 0.080000
29.191647 15.117711 2.918168 0.230000
30.479204 6.681815 2.635167 0.030000
12.586466 -0.212458 1.302820 0.100000
12.632234 -1.556819 1.297942 0.200000
19.643549 -5.014802 1.753393 0.000000
11.370691 -4.091262 1.240227 0.010000
10.777275 4.842893 0.196878 0.120000
11.227994 3.506325 0.183086 0.050000
11.427692 2.219941 0.173825 0.070000
7.103303 0.551021 0.376336 0.070000
11.408417 -0.165831 0.159906 0.030000
11.115005 -1.296687 0.164936 0.020000
10.781737 -2.433252 0.154841 0.020000
10.263216 -3.558363 0.144305 0.050000
53.094963 29.065512 11.882503 0.020000
41.721310 15.501916 8.632360 0.040000
6.938353 1.168754 1.528213 0.350000
6.775902 0.520748 1.465380 0.100000
45.131210 -0.875013 8.400381 0.110000
40.241283 -5.766483 7.539424 0.010000
40.562092 -11.062265 7.790578 0.020000
11.393347 -4.135200 2.430135 0.270000
29.153479 15.281991 2.923679 0.120000
30.501614 6.817268 2.635729 0.000000
6.852106 0.534190 0.925623 0.040000
19.752462 -4.957725 1.758890 0.000000
11.354557 -4.031542 1.235407 0.020000
10.711808 4.866643 0.196795 0.110000
11.132725 3.519503 0.182886 0.050000
11.367128 2.248786 0.173774 0.070000
7.062914 0.570232 0.381302 0.070000
10.967393 -0.119343 0.178928 0.040000
11.099242 -1.256982 0.165043 0.020000
10.715600 -2.374508 0.154887 0.020000
10.191792 -3.484718 0.144393 0.050000
52.915680 29.292248 11.847878 0.050000
42.619858 16.083586 8.811871 0.040000
6.775435 0.545762 1.460471 0.090000
44.887486 -0.674425 8.340489 0.290000
44.528778 -6.222202 8.298930 0.010000
41.211723 -11.050170 7.887320 0.010000
29.155067 15.462109 2.909352 0.060000
30.518774 6.967678 2.621332 0.030000
6.841724 0.553995 0.925669 0.040000
13.242042 -1.545248 1.329577 0.080000
13.472144 -3.116174 1.339338 0.000000
11.353529 -3.976516 1.225608 1.000000
10.537512 4.828299 0.196198 0.110000
11.007652 3.522108 0.182569 0.040000
11.221869 2.261007 0.173441 0.070000
7.257150 0.614015 0.366971 0.050000
10.901543 -0.075596 0.178919 0.040000
10.953024 -1.194771 0.164893 0.020000
10.659461 -2.315573 0.154960 0.020000
10.059696 -3.377247 0.149448 0.060000
52.538425 29.420412 11.747368 0.020000
43.771160 16.779987 9.027467 0.030000
6.795049 0.566141 1.460598 0.090000
44.864037 -0.489713 8.306114 0.220000
40.430168 -5.442736 7.521121 0.030000
41.393925 -10.901636 7.883348 0.000000
29.122086 15.621615 2.879859 0.070000
30.451649 7.081504 2.596580 0.050000
6.871253 0.579583 0.920842 0.030000
13.441039 -3.056704 1.324477 0.000000
11.266860 -3.888105 1.210711 0.070000
10.383129 4.795354 0.190672 0.100000
10.828082 3.498683 0.177014 0.040000
11.066814 2.263056 0.168043 0.070000
11.109025 1.103641 0.168844 0.090000
11.015999 -0.043325 0.159337 0.030000
10.827006 -1.142157 0.159759 0.020000
10.528061 -2.243058 0.149886 0.020000
9.932817 -3.279642 0.144479 0.050000
42.924744 24.078123 9.582393 0.030000
43.732368 16.984465 8.978125 0.030000
6.774682 0.585773 1.455618 0.080000
44.905586 -0.303738 8.266914 0.070000
40.401962 -5.268043 7.466696 0.020000
11.440733 -3.994157 2.400782 0.020000
29.059710 15.750590 2.840175 0.040000
17.255331 6.096588 1.743464 0.000000
30.419458 7.201056 2.556940 0.060000
6.890879 0.599981 0.915969 0.020000
12.984607 -1.415009 1.289388 0.140000
13.440024 -3.001659 1.309679 0.010000
11.200378 -3.809309 1.195830 0.210000
10.139899 4.700679 0.189686 0.100000
10.653594 3.470337 0.176453 0.050000
10.837145 2.243654 0.167372 0.080000
10.985264 -0.003870 0.149403 0.030000
10.665887 -1.085233 0.159550 0.020000
10.371461 -2.161043 0.149782 0.020000
9.801020 -3.187149 0.144479 0.050000
44.491474 25.267294 9.875906 0.020000
43.728416 17.199665 8.913914 0.050000
6.804307 0.606362 1.450772 0.080000
48.246536 -0.131575 8.781281 0.090000
41.696808 -5.268795 7.620075 0.030000
11.177707 -3.828909 2.330709 0.070000
29.120861 15.956925 2.806101 0.100000
30.427166 7.326372 2.517426 0.050000
6.905506 0.620283 0.911082 0.030000
13.013874 -1.374386 1.274616 0.080000
13.403934 -2.942266 1.289806 1.000000
11.184475 -3.759532 1.175973 0.210000
9.965890 4.647337 0.189033 0.100000
10.409597 3.415654 0.175613 0.050000
10.642277 2.234920 0.166831 0.070000
10.848142 1.148689 0.158330 0.030000
10.774537 0.032101 0.148987 0.030000
10.489783 -1.028577 0.154301 0.020000
10.194865 -2.079411 0.149625 0.020000
9.684330 -3.099350 0.139501 0.050000
44.264778 25.368355 9.770688 0.020000
43.987606 17.504665 8.920724 0.040000
6.823919 0.626742 1.450899 0.240000
40.425682 0.038899 7.336484 0.130000
41.889538 -5.144990 7.596038 0.030000
11.196976 -3.788477 2.315910 0.140000
29.078329 16.096338 2.751508 0.090000
30.395002 7.445961 2.467786 0.060000
6.925132 0.640681 0.906209 0.120000
13.266613 0.050706 1.280573 0.000000
13.018063 -1.329224 1.254794 0.200000
13.403123 -2.897200 1.269971 0.020000
11.208852 -3.723985 1.156169 0.170000
9.653645 4.501350 0.182675 0.100000
10.155904 3.345802 0.169691 0.050000
10.373012 2.194774 0.160979 0.070000
10.633099 1.149589 0.152772 0.030000
10.539006 0.057594 0.148467 0.030000
10.268592 -0.967784 0.148950 0.020000
10.028389 -2.002549 0.139476 0.020000
9.481985 -2.978186 0.134423 0.050000
47.634518 27.676044 10.403069 0.020000
43.805500 17.631695 8.785720 0.040000
6.808578 0.646506 1.435932 0.390000
40.358139 0.182942 7.251842 0.290000
42.172398 -5.024387 7.552224 0.030000
11.171005 -3.733855 2.286045 0.200000
16.199581 8.481992 1.694575 0.010000
13.124327 4.593491 1.377090 0.000000
13.165906 2.954217 1.311104 0.010000
6.884891 0.654968 0.891157 0.380000
13.285894 0.091156 1.260773 0.010000
13.042453 -1.293659 1.229990 0.230000
13.382152 -2.842482 1.240119 0.010000
11.293696 -3.712285 1.136433 0.240000
9.370901 4.380914 0.181490 0.100000
9.882309 3.270567 0.163697 0.050000
10.098746 2.154533 0.155113 0.080000
10.353165 1.144246 0.147021 0.030000
10.318390 0.088393 0.143006 0.030000
10.057577 -0.916816 0.148588 0.020000
9.841904 -1.926088 0.134273 0.020000
9.310019 -2.876443 0.129352 0.050000
47.556286 27.860001 10.288548 0.030000
43.683392 17.754744 8.685858 0.050000
6.818302 0.661714 1.431014 0.590000
40.281044 0.306891 7.142101 0.380000
42.009594 -4.862018 7.427402 0.040000
11.190478 -3.703403 2.266209 0.200000
15.980915 8.417994 1.638766 0.000000
13.158249 4.654261 1.347404 0.010000
13.140318 2.988843 1.281165 0.010000
6.889629 0.670098 0.881226 0.400000
13.021755 -1.253957 1.205083 0.250000
13.401543 -2.807013 1.215301 0.010000
11.323264 -3.686641 1.116606 0.170000
9.123069 4.266165 0.175416 0.080000
9.583994 3.179838 0.162581 0.050000
9.834467 2.114465 0.154274 0.070000
10.073313 1.133884 0.146252 0.030000
10.047878 0.113235 0.137392 0.030000
9.821497 -0.861291 0.138178 0.020000
9.590143 -1.835876 0.128951 0.020000
9.107865 -2.765276 0.124238 0.050000
47.384586 27.972391 10.108516 0.030000
43.541809 17.857618 8.530869 0.030000
6.823053 0.676862 1.416083 1.070000
39.959209 0.421316 6.986685 0.310000
42.057545 -4.740711 7.327977 0.030000
11.295581 -3.706354 2.256472 0.240000
13.019470 6.671831 1.389542 0.010000
13.097955 4.673219 1.317317 0.040000
6.904365 0.685419 0.871321 0.230000
16.354115 0.199588 1.364187 0.020000
13.006166 -1.219140 1.175172 0.250000
11.206736 -3.603748 1.086609 0.280000
8.811110 4.105181 0.169003 0.090000
9.290883 3.079225 0.156442 0.050000
9.550491 2.059035 0.148327 0.080000
9.818564 1.119021 0.140532 0.030000
9.772559 0.127983 0.131728 0.030000
9.535401 -0.806761 0.137634 0.020000
9.383662 -1.759799 0.123695 0.020000
8.840328 -2.635377 0.124022 0.050000
11.205911 5.642883 2.480994 0.000000
41.526592 17.135695 8.032920 0.060000
6.832789 0.692088 1.406164 1.110000
40.451992 0.545886 6.958434 0.180000
42.932236 -4.719029 7.350340 0.010000
11.330256 -3.685595 2.231639 0.500000
13.028520 6.727161 1.349771 0.010000
6.899117 0.700376 0.856363 0.400000
13.254219 0.190897 1.171061 0.010000
13.005670 -1.189034 1.145282 0.240000
13.380196 -2.727151 1.145542 0.010000
11.196145 -3.568835 1.056711 0.320000
8.523848 3.959654 0.167712 0.090000
8.982857 2.973307 0.155244 0.050000
9.256600 1.998395 0.147334 0.080000
9.504006 1.092992 0.139614 0.030000
9.507130 0.147903 0.131109 0.030000
9.309498 -0.761061 0.132214 0.020000
9.111988 -1.674986 0.123301 0.020000
8.562793 -2.505670 0.123780 0.050000
11.136125 5.636693 2.440789 0.020000
41.494637 17.255579 7.903280 0.070000
50.462646 13.632547 9.043233 0.010000
6.837540 0.707237 1.391233 1.240000
43.019001 0.683972 7.265651 0.160000
42.955421 -4.608144 7.235812 0.010000
11.314597 -3.645741 2.191746 0.350000
13.013052 6.757017 1.309841 0.020000
13.101713 4.748580 1.242606 0.020000
6.908867 0.715621 0.841445 0.320000
13.020279 -1.163621 1.110414 0.230000
13.404803 -2.701547 1.110701 0.030000
11.210646 -3.538441 1.026862 0.400000
8.271303 3.829812 0.161570 0.080000
8.679926 2.862485 0.154041 0.050000
8.952724 1.937583 0.141315 0.080000
9.149552 1.061198 0.138571 0.030000
9.196914 0.156982 0.125333 0.030000
9.053600 -0.715935 0.126714 0.020000
8.825234 -1.585444 0.117886 0.020000
8.300447 -2.385673 0.123541 0.050000
11.110946 5.651360 2.400777 0.040000
41.423607 17.329782 7.753369 0.060000
50.406101 13.737125 8.868472 0.050000
6.832389 0.717195 1.376256 0.970000
43.097397 0.785950 7.141233 0.260000
42.122395 -4.418019 6.949341 0.010000
11.349477 -3.634961 2.161877 0.400000
13.032194 6.807539 1.270078 0.010000
13.177967 3.130066 1.151787 0.000000
31.467793 0.602295 1.900140 0.020000
13.034985 -1.143208 1.075528 0.120000
13.374339 -2.671978 1.070731 0.040000
11.215448 -3.523218 0.991930 0.500000
7.994243 3.674497 0.155270 0.070000
8.406811 2.762255 0.147956 0.050000
8.634125 1.861468 0.140200 0.080000
8.865098 1.030763 0.132715 0.030000
8.901681 0.166329 0.124597 0.020000
8.752699 -0.671690 0.126093 0.020000
8.563749 -1.510439 0.117482 0.020000
8.053193 -2.270388 0.123324 0.050000
11.115366 5.686579 2.365919 0.060000
41.233715 17.346790 7.577935 0.040000
50.334846 13.826418 8.693617 0.070000
43.191257 0.863201 7.021764 0.160000
43.593964 -4.500217 7.052878 0.020000
11.374167 -3.614375 2.132018 0.260000
13.031641 6.842700 1.225207 0.010000
14.980142 5.629673 1.260784 0.030000
13.137888 3.139446 1.111717 0.000000
31.416817 0.666697 1.800245 0.070000
13.034610 -1.118064 1.035620 0.150000
13.399055 -2.651355 1.030872 0.020000
11.204980 -3.493267 0.952014 0.460000
7.717170 3.519163 0.153969 0.070000
8.113987 2.646645 0.141761 0.050000
8.345425 1.790927 0.139185 0.080000
8.575631 1.000214 0.131846 0.020000
8.586549 0.170295 0.123789 0.030000
8.436787 -0.627751 0.130432 0.020000
8.251987 -1.421394 0.116999 0.020000
7.846424 -2.179313 0.118123 0.060000
11.105281 5.696534 2.325929 0.060000
43.963451 18.648180 7.894901 0.050000
50.308838 13.906668 8.493845 0.070000
6.832193 0.732322 1.341312 0.120000
43.430210 0.938267 6.892666 0.070000
45.601616 -4.637250 7.182611 0.010000
13.021390 6.862690 1.175254 0.020000
14.895410 5.623270 1.200539 0.050000
17.414352 4.391129 1.247534 0.010000
6.938404 0.746357 0.796636 0.060000
31.411217 0.711965 1.700398 0.060000
13.368687 -2.626786 0.990883 0.040000
11.229958 -3.487678 0.922100 0.330000
7.479719 3.384610 0.147849 0.070000
7.850939 2.541571 0.145684 0.050000
8.086528 1.730958 0.138286 0.090000
8.296163 0.969856 0.131004 0.030000
8.316407 0.175122 0.123102 0.030000
8.196078 -0.592336 0.124935 0.020000
7.990599 -1.351387 0.116577 0.020000
7.644750 -2.093142 0.112917 0.060000
11.100111 5.711603 2.280972 0.080000
44.076740 18.760958 7.735615 0.050000
50.273300 13.961711 8.298955 0.050000
6.837039 0.742472 1.326362 0.190000
6.738840 0.130611 1.288831 0.010000
51.090813 -5.154543 7.830023 0.020000
44.435272 -10.029807 6.959518 0.000000
11.363612 -3.574277 2.052138 0.130000
13.021137 6.882872 1.125328 0.020000
14.815855 5.606945 1.145270 0.060000
17.294844 4.374094 1.177158 0.010000
6.998158 0.762578 0.776852 0.110000
13.252716 0.296602 0.976448 0.010000
11.936953 -0.973638 0.918291 0.080000
13.378528 -2.611411 0.940966 0.030000
11.259961 -3.481955 0.882199 0.290000
7.227545 3.234754 0.146634 0.060000
7.617638 2.452123 0.134743 0.050000
7.852638 1.671486 0.132454 0.080000
8.026801 0.934710 0.125170 0.030000
8.031365 0.174663 0.122356 0.030000
7.960464 -0.561825 0.119433 0.030000
7.809688 -1.304826 0.111278 0.020000
7.463168 -2.011587 0.107746 0.060000
11.090135 5.716578 2.235964 0.070000
44.373684 18.942171 7.602062 0.030000
50.233063 14.001681 8.098996 0.050000
6.837091 0.742546 1.306362 0.430000
6.743782 0.135762 1.273863 0.030000
40.591389 -4.004261 6.126874 0.020000
44.434772 -9.979166 6.784703 0.000000
13.011078 6.892864 1.075338 0.010000
13.095263 4.854263 1.027979 0.050000
17.249996 4.373436 1.122038 0.010000
6.963216 0.761982 0.756758 0.290000
13.237632 0.306461 0.936445 0.010000
11.941948 -0.968413 0.883323 0.110000
11.280062 -3.481424 0.842253 0.310000
7.019896 3.110774 0.140631 0.070000
7.374504 2.352449 0.133737 0.050000
7.628747 1.612206 0.126649 0.090000
7.817332 0.905711 0.119515 0.030000
7.816418 0.170564 0.116780 0.030000
7.780032 -0.540258 0.114043 0.030000
7.623694 -1.253342 0.100984 0.020000
7.266685 -1.935318 0.102517 0.070000
11.114742 5.742182 2.201123 0.060000
44.462673 19.019512 7.432580 0.040000
50.187939 14.036574 7.894006 0.040000
6.847033 0.747792 1.291407 0.650000
6.758832 0.136123 1.253903 1.000000
40.661263 -3.977404 5.987155 0.030000
44.489628 -9.947486 6.614962 0.000000
11.428796 -3.572753 1.977313 0.040000
13.025836 6.913352 1.020452 0.030000
13.080300 4.859161 0.977958 0.060000
17.225075 4.378198 1.056990 0.010000
6.943273 0.761673 0.736705 0.350000
13.247652 0.311819 0.891490 0.020000
11.941957 -0.963266 0.843341 0.120000
11.295163 -3.480988 0.802294 0.440000
6.807332 2.981680 0.139596 0.060000
7.171171 2.263540 0.132876 0.060000
7.424839 1.553291 0.125898 0.100000
7.597852 0.876503 0.118834 0.030000
7.621372 0.171847 0.111276 0.040000
7.539502 -0.514861 0.113509 0.030000
7.407681 -1.202470 0.100609 0.020000
7.085294 -1.863761 0.097309 0.070000
11.109970 5.737273 2.151091 0.030000
44.522583 19.051361 7.242853 0.040000
50.188511 14.037393 7.674008 0.030000
6.866986 0.753249 1.271480 1.270000
6.798754 0.141926 1.244029 0.460000
40.511185 -3.949614 5.806865 0.030000
44.565044 -9.945436 6.450165 0.000000
11.383538 -3.553451 1.932266 0.040000
13.010969 6.913251 0.970413 0.040000
13.085225 4.869422 0.933009 0.060000
17.185335 4.372656 0.996865 0.010000
6.978209 0.767398 0.721817 0.330000
13.232663 0.316680 0.851469 0.020000
11.941952 -0.958136 0.808360 0.090000
11.285078 -3.471032 0.762304 0.410000
6.639293 2.878462 0.133774 0.070000
6.987656 2.185030 0.127105 0.050000
7.205947 1.494106 0.120107 0.100000
7.408380 0.847887 0.113233 0.030000
7.386416 0.167347 0.110646 0.040000
7.334074 -0.493773 0.108051 0.030000
7.181560 -1.146809 0.105226 0.020000
6.903891 -1.792222 0.097102 0.080000
44.527981 19.057163 7.052886 0.050000
46.500317 12.964171 6.950384 0.040000
6.867025 0.753305 1.256480 1.020000
6.743830 0.140965 1.218882 0.970000
40.646622 -3.951507 5.667210 0.020000
39.739422 -8.799645 5.621819 0.020000
11.398640 -3.553015 1.892307 0.050000
13.016111 6.913551 0.915427 0.030000
13.090355 4.869704 0.883023 0.040000
17.215307 4.383471 0.931983 0.010000
13.252777 0.317230 0.806523 0.010000
13.129478 -1.075323 0.786024 0.090000
13.398706 -2.595362 0.761076 0.000000
11.285182 -3.470884 0.722304 0.450000
6.461434 2.765036 0.132888 0.070000
6.814126 2.106692 0.126361 0.050000
7.021940 1.440573 0.119427 0.110000
7.198994 0.813871 0.112560 0.030000
7.206545 0.158900 0.110145 0.040000
7.128634 -0.472704 0.107593 0.030000
6.995746 -1.105342 0.099895 0.030000
6.742784 -1.735280 0.091893 0.070000
44.434494 19.006115 6.847451 0.050000
46.545586 12.975700 6.770544 0.050000
6.876979 0.758569 1.236525 0.960000
6.723899 0.140675 1.193828 1.090000
40.827324 -3.967554 5.532621 0.020000
39.779900 -8.803321 5.471910 0.030000
11.368475 -3.538425 1.847282 0.130000
11.405595 5.892820 0.827428 0.070000
14.682091 5.580405 0.864819 0.090000
17.245293 4.394303 0.862101 0.010000
11.061700 1.405698 0.739849 0.100000
13.237910 0.317128 0.756483 0.020000
13.149605 -1.074754 0.736078 0.160000
13.428926 -2.599600 0.711139 0.000000
11.260099 -3.461216 0.682274 0.510000
6.298381 2.661895 0.132079 0.070000
6.615792 2.017878 0.125513 0.050000
6.837933 1.387039 0.118748 0.100000
7.024506 0.785525 0.111999 0.030000
7.001584 0.154974 0.109595 0.050000
6.973279 -0.455676 0.107251 0.030000
6.835022 -1.068395 0.094612 0.030000
6.566380 -1.663645 0.091698 0.080000
44.341141 18.950125 6.626997 0.050000
45.507336 12.662025 6.421664 0.050000
6.872141 0.753568 1.211494 1.060000
6.724047 0.135750 1.173810 0.790000
13.137093 -1.114474 1.955911 0.010000
40.076828 -8.882154 5.337390 0.010000
11.323327 -3.524104 1.797217 0.070000
11.420710 5.893275 0.782468 0.090000
14.667524 5.565325 0.809725 0.150000
17.315231 4.405847 0.807326 0.010000
11.056889 1.400733 0.704818 0.110000
13.248109 0.312470 0.716492 0.010000
13.149900 -1.084603 0.696042 0.170000
13.404036 -2.599930 0.671072 0.010000
11.275476 -3.475796 0.647260 0.550000
6.130424 2.553659 0.131238 0.070000
6.481980 1.955323 0.119931 0.050000
6.649022 1.328411 0.118037 0.110000
6.855030 0.757292 0.106451 0.030000
6.836710 0.146815 0.109134 0.040000
6.787931 -0.439223 0.106828 0.040000
6.699472 -1.040986 0.094361 0.020000
6.405260 -1.606721 0.091489 0.080000
43.675961 26.482725 6.923265 0.030000
44.208832 18.838358 6.411233 0.040000
46.691948 12.959912 6.385863 0.030000
6.882179 0.753815 1.196521 0.650000
6.749081 0.136285 1.158877 0.520000
13.157385 -1.123940 1.915928 0.020000
40.143082 -8.925324 5.182402 0.010000
11.283274 -3.514686 1.747147 0.110000
11.445726 5.898920 0.737554 0.130000
14.667969 5.550551 0.749670 0.090000
13.128193 3.180772 0.701841 0.010000
11.077085 1.396266 0.664853 0.100000
13.150210 -1.094434 0.651006 0.210000
13.444651 -2.623955 0.616088 0.020000
11.260692 -3.480915 0.602202 0.480000
5.992188 2.461013 0.125533 0.070000
6.298547 1.871795 0.119142 0.050000
6.499913 1.280547 0.117470 0.110000
6.685623 0.724024 0.110886 0.030000
6.676836 0.138752 0.108687 0.040000
6.642779 -0.431983 0.101476 0.030000
6.528738 -1.004250 0.094051 0.020000
6.239223 -1.554910 0.096249 0.080000
43.856194 26.496822 6.748785 0.030000
45.920952 19.521122 6.458241 0.030000
48.011292 13.270308 6.370461 0.040000
6.729329 0.125978 1.138787 0.450000
11.288651 -3.529458 1.712106 0.120000
11.470935 5.894567 0.692603 0.160000
13.148403 3.176323 0.656877 0.010000
11.037471 1.380633 0.629691 0.090000
30.928747 0.721558 0.654163 0.040000
13.155614 -1.109168 0.605965 0.120000
13.369782 -2.625224 0.570888 0.040000
11.220817 -3.481513 0.557095 0.340000
5.868840 2.373636 0.124886 0.060000
6.164818 1.804222 0.118542 0.040000
6.340900 1.227492 0.116857 0.100000
6.511230 0.690678 0.110306 0.030000
6.532068 0.125995 0.103262 0.040000
6.482618 -0.425049 0.101084 0.030000
6.363194 -0.977415 0.093719 0.020000
6.098305 -1.507582 0.091057 0.080000
43.774681 26.346077 6.518010 0.030000
44.014706 18.586063 6.009785 0.020000
49.992260 13.753149 6.427427 0.050000
6.847673 0.733297 1.156354 0.090000
6.734463 0.121131 1.123782 0.330000
13.123106 -1.149271 1.825743 0.060000
11.304245 -3.553998 1.667055 0.120000
11.506072 5.895442 0.637698 0.190000
13.124017 3.151035 0.606719 0.010000
11.037946 1.360767 0.594618 0.070000
30.855045 0.670596 0.528780 0.030000
13.395291 -2.644556 0.520882 0.020000
11.145648 -3.467804 0.516949 0.390000
5.735590 2.281067 0.124194 0.050000
6.001286 1.726076 0.117824 0.040000
6.176889 1.174342 0.116232 0.100000
6.371653 0.668019 0.104858 0.020000
6.317178 0.116842 0.112667 0.040000
6.327359 -0.413020 0.100724 0.030000
6.227644 -0.950007 0.093467 0.020000
5.957373 -1.460273 0.090865 0.080000
43.733356 26.186100 6.287305 0.030000
57.000851 24.200829 7.409569 0.030000
50.014606 13.664441 6.187153 0.080000
6.857928 0.723583 1.131344 0.090000
6.709629 0.115746 1.098697 0.300000
13.128618 -1.168986 1.775684 0.030000
11.349998 -3.588000 1.632047 0.300000
11.541183 5.896279 0.592792 0.210000
14.714362 5.502054 0.579609 0.020000
13.149513 3.131685 0.561713 0.010000
10.983443 1.339866 0.554398 0.060000
18.943628 0.372439 0.491579 0.000000
13.166626 -1.148616 0.510846 0.060000
13.360703 -2.660056 0.475733 0.050000
11.126043 -3.483035 0.476841 0.360000
5.592438 2.183308 0.123457 0.050000
5.867639 1.653485 0.122206 0.040000
6.042777 1.126765 0.115705 0.110000
6.197343 0.629656 0.109260 0.020000
6.202404 0.104660 0.107322 0.040000
6.177183 -0.405914 0.105358 0.030000
6.102284 -0.932404 0.093205 0.030000
5.866828 -1.431984 0.085734 0.090000
48.123341 28.789371 6.653445 0.030000
46.246071 19.339479 5.868409 0.020000
50.002350 13.549938 5.981693 0.080000
6.858159 0.713641 1.116308 0.100000
6.729856 0.106187 1.083714 0.410000
13.114121 -1.189102 1.730571 0.010000
11.285141 -3.589059 1.581874 0.680000
11.561763 5.871816 0.552754 0.200000
14.744979 5.477838 0.524599 0.080000
18.010017 4.470393 0.474376 0.010000
10.993917 1.320191 0.519352 0.050000
13.270321 0.228705 0.491236 0.000000
13.182207 -1.173175 0.470795 0.210000
13.386499 -2.694385 0.425673 0.030000
11.091346 -3.493555 0.436711 0.310000
5.508699 2.116693 0.122991 0.040000
5.738813 1.591007 0.121637 0.040000
5.913555 1.084264 0.120210 0.100000
6.082844 0.602458 0.108860 0.030000
6.047612 0.091675 0.111870 0.050000
6.062121 -0.403098 0.100068 0.040000
5.961736 -0.905091 0.092940 0.020000
5.726075 -1.394691 0.090505 0.100000
48.409233 28.775633 6.439138 0.040000
46.293995 19.216127 5.663073 0.040000
50.015362 13.420897 5.781245 0.100000
6.853404 0.703622 1.096258 0.100000
6.745179 0.091532 1.068700 1.070000
13.154889 -1.223180 1.690550 0.030000
11.351165 -3.637693 1.551865 0.290000
18.384090 4.532843 0.400584 0.000000
11.213775 1.334533 0.484979 0.300000
13.280915 0.204069 0.446172 0.010000
13.172901 -1.203194 0.425658 0.070000
13.367195 -2.724595 0.380510 0.040000
11.142399 -3.542439 0.396662 0.230000
5.400252 2.034601 0.122402 0.050000
5.649788 1.539293 0.121213 0.040000
5.804355 1.042184 0.114768 0.100000
5.953347 0.574973 0.108420 0.030000
5.962832 0.080067 0.106605 0.050000
5.937036 -0.400512 0.104751 0.040000
5.861467 -0.892009 0.092727 0.030000
5.625423 -1.361613 0.090365 0.100000
51.807972 30.675417 6.630074 0.050000
44.442894 18.266939 5.264709 0.020000
50.023647 13.276746 5.585729 0.110000
6.913527 0.699827 1.081401 0.360000
6.730439 0.081340 1.043623 1.120000
13.090333 -1.239218 1.635321 0.070000
40.370567 -9.442594 4.236063 0.010000
11.326766 -3.663000 1.506707 0.390000
13.075174 4.681029 0.432277 0.040000
13.126703 3.036744 0.421299 0.010000
11.049869 1.281531 0.444353 0.190000
18.511614 0.239856 0.294957 0.000000
13.228692 -1.236948 0.375678 0.080000
11.067614 -3.548726 0.356443 0.370000
5.331237 1.983289 0.117031 0.040000
5.540863 1.482197 0.120716 0.030000
5.700141 1.000180 0.114340 0.110000
5.878757 0.553559 0.103146 0.020000
5.848045 0.067867 0.106260 0.050000
5.847066 -0.402217 0.099510 0.040000
5.756212 -0.879004 0.087500 0.030000
5.529974 -1.338418 0.085202 0.110000
51.822933 30.451582 6.379278 0.040000
43.727551 17.794146 4.991081 0.060000
50.077072 13.128531 5.370315 0.070000
6.853987 0.678775 1.056167 0.400000
6.745763 0.066686 1.028609 1.080000
13.051020 -1.269830 1.595105 0.090000
142.051422 -35.092518 13.336223 0.030000
11.322447 -3.692941 1.466584 0.540000
13.137381 3.007090 0.381216 0.000000
11.005529 1.250786 0.414123 0.400000
13.247402 0.138745 0.355841 0.010000
13.169287 -1.262943 0.335426 0.080000
16.404181 -3.555882 0.195345 0.010000
11.083482 -3.588282 0.316337 0.300000
5.242499 1.916578 0.116552 0.040000
5.466752 1.435788 0.115350 0.030000
5.620730 0.968654 0.114015 0.100000
5.759246 0.526247 0.107732 0.030000
5.763253 0.056241 0.105996 0.050000
5.736990 -0.399324 0.099233 0.040000
5.696141 -0.875136 0.082358 0.040000
5.449606 -1.319954 0.085061 0.110000
51.966835 30.280113 6.159014 0.050000
43.627361 17.567865 4.804976 0.050000
57.258442 14.884634 5.870594 0.060000
6.859408 0.658930 1.041107 0.610000
13.021717 -1.300231 1.549915 0.130000
17.696804 -3.927663 1.962355 0.000000
11.313115 -3.722997 1.431447 0.320000
14.694890 7.603134 0.292366 0.040000
11.021194 1.221210 0.379054 0.990000
13.130070 -1.298554 0.295191 0.130000
14.696533 -3.173537 0.197309 0.030000
5.173662 1.855249 0.116144 0.040000
5.387629 1.389264 0.114970 0.030000
5.531418 0.931937 0.113646 0.110000
5.694654 0.505025 0.102485 0.030000
5.668462 0.044423 0.105704 0.050000
5.652007 -0.400952 0.099006 0.040000
5.616060 -0.871669 0.082162 0.030000
5.364239 -1.301586 0.084906 0.110000
52.175381 30.129942 5.923998 0.030000
43.403141 17.294312 4.588372 0.040000
30.351625 7.522540 3.177964 0.020000
6.869746 0.644199 1.021079 1.200000
13.017602 -1.340152 1.504755 0.140000
17.477055 -3.931579 1.881766 0.000000
11.213155 -3.719745 1.386198 0.270000
14.928824 5.317339 0.249479 0.030000
15.259052 3.483376 0.233523 0.010000
10.957050 1.180084 0.348733 0.440000
15.624579 0.069847 0.201788 0.010000
10.853298 -3.572468 0.255794 0.090000
5.109632 1.804013 0.115787 0.040000
5.308506 1.342741 0.114591 0.020000
5.481919 0.906003 0.108420 0.110000
5.600151 0.478210 0.102138 0.030000
5.608678 0.033295 0.100507 0.050000
5.582129 -0.407273 0.093800 0.040000
5.515791 -0.858587 0.081949 0.030000
5.304071 -1.292718 0.079782 0.130000
29.057547 16.053751 3.346302 0.010000
29.741596 11.436659 3.160922 0.020000
30.398876 7.418775 3.082701 0.030000
6.860087 0.629085 1.000997 1.130000
12.988382 -1.375571 1.464547 0.110000
11.193933 -3.754973 1.346016 0.320000
12.897753 6.398650 0.243197 0.030000
13.699416 4.753713 0.239175 0.040000
14.235019 3.163744 0.219662 0.010000
14.470287 0.022750 0.193600 0.010000
13.186993 -1.387186 0.215009 0.020000
12.934345 -2.812148 0.174052 0.030000
10.768488 -3.578983 0.225549 0.120000
5.060516 1.758083 0.110488 0.050000
5.269102 1.311999 0.109374 0.030000
5.387608 0.869190 0.108037 0.100000
5.545462 0.462178 0.096936 0.020000
5.523981 0.016670 0.100224 0.050000
5.502143 -0.408805 0.093585 0.040000
5.455815 -0.859717 0.076788 0.030000
5.203502 -1.264658 0.084624 0.140000
29.095701 15.904858 3.235847 0.020000
16.781822 5.991914 1.901840 0.010000
30.426445 7.299667 2.977329 0.080000
13.014332 -1.419954 1.429449 0.050000
19.414633 -4.574713 1.919433 0.000000
11.184780 -3.795045 1.315843 0.290000
12.196809 5.920160 0.234588 0.040000
12.956181 4.394433 0.230899 0.050000
13.434781 2.908392 0.211624 0.010000
7.291125 0.659454 0.427229 0.020000
13.641030 -0.023121 0.186265 0.010000
13.017486 -1.410327 0.184480 0.040000
12.141139 -2.652311 0.172576 0.030000
10.714055 -3.604920 0.195310 0.150000
5.011484 1.707135 0.110170 0.030000
5.209879 1.270857 0.109066 0.020000
5.353094 0.843525 0.107852 0.080000
5.455945 0.435441 0.101603 0.030000
5.474195 0.005733 0.095053 0.050000
5.442250 -0.414954 0.093406 0.040000
5.380638 -0.851156 0.076623 0.040000
5.168522 -1.265309 0.079530 0.130000
29.064444 15.724631 3.125094 0.030000
16.664204 5.874861 1.841098 0.020000
30.458891 7.185616 2.881989 0.210000
6.835937 0.588725 0.970784 0.120000
19.602303 -4.705977 1.874435 0.000000
11.276649 -3.888211 1.290736 0.360000
11.629236 5.529276 0.216654 1.000000
12.361710 4.103070 0.208264 0.060000
12.704161 2.674394 0.198847 0.010000
7.301558 0.639723 0.407183 0.050000
12.846671 -0.063323 0.179042 0.010000
12.331477 -1.363438 0.177864 0.040000
11.604157 -2.552541 0.161545 0.040000
10.669621 -3.630666 0.165098 0.170000
4.987077 1.676680 0.104993 0.040000
5.160559 1.234906 0.108804 0.020000
5.303595 0.817590 0.102626 0.320000
5.426347 0.414888 0.096449 0.020000
5.394389 -0.005816 0.099802 0.050000
5.377358 -0.421197 0.093213 0.040000
5.335742 -0.857017 0.076484 0.040000
5.088154 -1.246845 0.079389 0.150000
29.117666 15.570990 3.024661 0.040000
30.446798 7.045672 2.796436 0.190000
6.846357 0.568976 0.955738 0.100000
32.183300 -4.227825 2.694061 0.130000
19.674419 -4.809450 1.829238 0.000000
11.328047 -3.957147 1.265614 0.230000
11.101248 5.159117 0.208899 1.000000
11.861512 3.848464 0.201012 0.060000
12.217426 2.500060 0.191928 0.010000
7.062574 0.585155 0.401356 0.030000
12.282365 -0.104120 0.172417 0.020000
11.790729 -1.328770 0.171581 0.050000
11.117346 -2.461830 0.155611 0.040000
4.928046 1.625541 0.104649 0.040000
5.106240 1.198860 0.108528 0.020000
5.264081 0.791829 0.102427 0.130000
5.341733 0.393246 0.101148 0.010000
5.339686 -0.021867 0.099600 0.030000
5.317465 -0.427346 0.093034 0.040000
5.275753 -0.858166 0.076324 0.040000
5.053269 -1.252496 0.074277 0.140000
29.126253 15.396453 2.934033 0.040000
30.469494 6.916377 2.716014 0.130000
6.841877 0.543941 0.940633 0.080000
12.645253 -0.151395 1.323200 0.110000
12.651246 -1.506483 1.308178 0.050000
19.681177 -4.894152 1.778940 0.000000
11.344258 -4.016756 1.240435 0.290000
10.676802 4.865954 0.201702 0.060000
11.445532 3.635478 0.194134 0.060000
11.755401 2.341202 0.185132 0.010000
7.047987 0.564909 0.391243 0.050000
11.857936 -0.137236 0.166186 0.010000
11.405526 -1.321127 0.165604 0.050000
10.756181 -2.403718 0.149884 0.040000
10.137007 -3.495751 0.139209 0.080000
4.908624 1.595163 0.104485 0.030000
5.066918 1.163100 0.108293 0.020000
5.332035 0.378076 0.096066 0.010000
5.294887 -0.032727 0.099442 0.030000
5.262571 -0.433398 0.092868 0.040000
5.220668 -0.854220 0.076194 0.040000
4.998170 -1.248569 0.079148 0.150000
29.194515 15.238026 2.853622 0.110000
30.472576 6.766703 2.635465 0.050000
6.837287 0.523886 0.930546 0.180000
12.592102 -1.547513 1.277871 0.080000
19.622660 -4.965102 1.728523 0.000000
10.356379 4.624794 0.194969 0.070000
11.079159 3.443446 0.187464 0.060000
11.407792 2.214559 0.173753 0.010000
7.038494 0.539759 0.381125 0.050000
11.493689 -0.179201 0.160079 0.020000
11.050222 -1.307911 0.159726 0.050000
10.435295 -2.359837 0.144210 0.040000
9.875631 -3.425726 0.133787 0.060000
4.874315 1.559518 0.099263 0.040000
5.042415 1.137645 0.103134 0.020000
5.165058 0.739923 0.101976 0.050000
5.267430 0.356835 0.095819 0.010000
5.250182 -0.048586 0.099267 0.030000
5.217772 -0.444258 0.092711 0.040000
5.165678 -0.855273 0.076047 0.050000
4.973284 -1.254028 0.074063 0.140000
29.202993 15.068470 2.768013 0.120000
30.495247 6.637371 2.565042 0.090000
6.862691 0.504406 0.920540 0.380000
12.712178 -0.244964 1.278027 0.280000
12.583032 -1.592603 1.252680 0.130000
13.460003 -3.261322 1.308766 0.000000
10.080372 4.414489 0.188466 0.070000
10.787197 3.282844 0.181105 0.060000
11.100053 2.093644 0.172500 0.010000
11.149232 -0.210803 0.159062 0.020000
10.730091 -1.304042 0.158904 0.070000
10.199778 -2.334325 0.138690 0.050000
9.583961 -3.341297 0.133339 0.070000
4.854893 1.529141 0.099100 0.040000
5.027801 1.117361 0.103020 0.020000
5.145445 0.719544 0.101849 0.050000
5.237819 0.336264 0.095665 0.010000
5.205382 -0.059446 0.099109 0.030000
5.162878 -0.450310 0.092545 0.050000
5.125782 -0.861038 0.075921 0.040000
4.928197 -1.249891 0.073960 0.160000
29.246714 14.884532 2.697442 0.140000
18.350605 6.092564 1.746308 0.000000
30.572868 6.509037 2.509768 0.020000
6.863101 0.484447 0.910467 1.020000
12.559047 -1.642998 1.232430 0.070000
13.461301 -3.326235 1.288528 0.000000
9.873587 4.245517 0.182298 0.070000
10.534940 3.138006 0.174908 0.060000
10.842031 1.988702 0.166437 0.010000
10.864873 -0.246237 0.153188 0.020000
10.470057 -1.304003 0.153226 0.060000
9.979353 -2.313524 0.133192 0.050000
9.398352 -3.309809 0.122972 0.080000
4.830568 1.493669 0.098904 0.040000
4.978481 1.081411 0.102758 0.020000
5.110930 0.693879 0.101663 0.040000
5.203209 0.315597 0.095498 0.010000
5.175675 -0.075017 0.098974 0.030000
5.143073 -0.460691 0.092455 0.050000
5.060781 -0.862302 0.080747 0.040000
4.913404 -1.260158 0.068883 0.140000
29.260414 14.699982 2.636791 0.130000
30.570982 6.354175 2.454186 0.120000
6.828708 0.453819 0.900263 1.220000
12.649224 -0.346023 1.232486 0.640000
11.577030 -1.536511 1.155261 0.160000
13.427523 -3.386801 1.263214 0.020000
13.508280 -5.255676 1.281478 0.080000
9.691591 4.087004 0.181234 0.070000
10.362189 3.019695 0.169017 0.060000
10.648709 1.900002 0.160602 0.010000
10.670497 -0.279947 0.147556 0.020000
10.255206 -1.313101 0.147631 0.060000
9.804193 -2.306878 0.132759 0.050000
9.207525 -3.268457 0.122627 0.070000
4.801149 1.463100 0.098714 0.050000
4.983781 1.066528 0.097716 0.020000
5.086318 0.673404 0.101523 0.040000
5.188499 0.300313 0.095402 0.010000
5.145968 -0.090589 0.098838 0.030000
5.113270 -0.471264 0.092338 0.060000
5.050987 -0.872473 0.075684 0.040000
4.863317 -1.256116 0.068768 0.140000
29.318777 14.531235 2.591316 0.120000
13.120822 3.998446 1.339868 0.000000
30.588875 6.209657 2.408695 0.140000
6.859099 0.434416 0.895270 0.800000
12.575152 -0.392376 1.212120 0.570000
11.562935 -1.581734 1.140056 0.190000
13.509866 -5.335587 1.261185 0.050000
9.588731 3.975032 0.175549 0.070000
10.189330 2.906364 0.168144 0.070000
10.480274 1.816762 0.159853 0.020000
10.610686 0.754108 0.146243 0.010000
10.491201 -0.318388 0.146945 0.020000
10.120532 -1.330665 0.142214 0.060000
9.623844 -2.290329 0.132350 0.050000
9.036886 -3.236719 0.122300 0.080000
4.806531 1.443200 0.098654 0.040000
4.939351 1.035653 0.102486 0.020000
5.086619 0.658425 0.096468 0.040000
5.148794 0.284550 0.095240 0.010000
5.116166 -0.101162 0.098721 0.030000
5.088562 -0.486740 0.092216 0.050000
5.011077 -0.878256 0.080558 0.050000
4.858606 -1.271209 0.068699 0.140000
29.302744 14.331076 2.540529 0.100000
13.196613 3.959946 1.324923 0.010000
13.162444 2.354100 1.293864 0.050000
6.819612 0.408692 0.885071 1.230000
12.581149 -0.442215 1.196951 0.820000
11.528747 -1.622341 1.124816 0.210000
9.490583 3.878154 0.169933 0.080000
10.085799 2.829386 0.162588 0.070000
10.346558 1.749207 0.154253 0.020000
10.496583 0.706933 0.140770 0.010000
10.391809 -0.350279 0.141567 0.020000
10.010936 -1.352768 0.141846 0.060000
9.503975 -2.297608 0.127010 0.050000
8.906431 -3.214214 0.122043 0.070000
4.806928 1.423222 0.093581 0.060000
4.954648 1.020962 0.097471 0.020000
5.062007 0.637950 0.096327 0.040000
5.144083 0.269457 0.095172 0.010000
5.091458 -0.116637 0.098599 0.030000
5.063758 -0.497217 0.092112 0.060000
5.001379 -0.893427 0.075476 0.060000
4.823709 -1.276879 0.068587 0.140000
29.370985 14.167481 2.505099 0.130000
13.128390 3.868679 1.309405 0.040000
13.158634 2.294071 1.278630 0.080000
6.845003 0.389193 0.880065 0.720000
12.572135 -0.492360 1.186741 0.800000
11.539716 -1.672121 1.119659 0.250000
13.431268 -3.576616 1.222518 0.000000
13.522899 -5.490273 1.235644 0.020000
9.427224 3.791925 0.169447 0.080000
9.982448 2.742391 0.161995 0.070000
10.267722 1.687687 0.153819 0.020000
10.387548 0.654817 0.145292 0.010000
10.282499 -0.387379 0.141143 0.020000
9.951534 -1.383893 0.136575 0.060000
9.394092 -2.304713 0.126697 0.050000
8.811544 -3.221032 0.121770 0.070000
4.797313 1.403034 0.093481 0.050000
4.940022 1.000660 0.102357 0.020000
5.057295 0.622857 0.096259 0.030000
5.129468 0.249173 0.095058 0.010000
5.096757 -0.131520 0.093558 0.030000
5.058951 -0.507311 0.092062 0.050000
4.976480 -0.898904 0.075391 0.080000
4.813902 -1.287068 0.068524 0.130000
29.394579 13.982974 2.484475 0.120000
13.164713 2.239215 1.268442 0.080000
12.603196 -0.546757 1.181619 0.690000
11.535687 -1.722189 1.114463 0.220000
13.457617 -3.646106 1.217329 0.000000
13.529444 -5.570143 1.230364 0.020000
9.368769 3.710791 0.168993 0.100000
9.928703 2.676350 0.161609 0.060000
10.218690 1.636739 0.153501 0.020000
10.323436 0.608600 0.139953 0.010000
10.233179 -0.423329 0.140881 0.020000
9.872028 -1.410420 0.136269 0.050000
9.329487 -2.325954 0.126449 0.050000
8.731560 -3.222564 0.121555 0.050000
4.787780 1.377829 0.098362 0.050000
4.945321 0.985777 0.097316 0.020000
5.042668 0.602555 0.101145 0.030000
5.134768 0.234291 0.090017 0.010000
5.107043 -0.146326 0.093530 0.030000
5.039242 -0.522691 0.091953 0.040000
4.971768 -0.913997 0.075323 0.080000
4.794097 -1.297449 0.068433 0.150000
29.427883 13.813656 2.463932 0.110000
13.145880 2.178862 1.263169 0.080000
12.634245 -0.601172 1.181498 0.600000
11.556655 -1.771778 1.109333 0.190000
13.448782 -3.706267 1.212082 0.000000
13.515705 -5.635400 1.225085 0.020000
9.369740 3.660819 0.163809 0.080000
9.909665 2.625977 0.161372 0.060000
10.179668 1.586001 0.148211 0.020000
10.304206 0.568224 0.139752 0.010000
10.188954 -0.464184 0.140614 0.020000
9.832611 -1.441181 0.136052 0.060000
9.284975 -2.351811 0.126237 0.050000
8.666763 -3.233807 0.121345 0.070000
4.807981 1.368232 0.093379 0.050000
4.930694 0.965475 0.102202 0.020000
5.047968 0.587672 0.096104 0.030000
5.129961 0.224197 0.089967 0.010000
5.092333 -0.161610 0.093434 0.030000
5.044542 -0.537574 0.086912 0.050000
4.951964 -0.924378 0.075232 0.080000
4.779292 -1.307735 0.068356 0.130000
29.471350 13.634493 2.453379 0.130000
13.166930 2.124255 1.263021 0.070000
12.680290 -0.655299 1.181417 0.370000
11.612795 -1.830713 1.109260 0.170000
13.460135 -3.776044 1.206852 0.000000
13.552614 -5.734710 1.224813 0.020000
9.390502 3.621210 0.163716 0.090000
9.930441 2.586386 0.156279 0.070000
10.200336 1.551390 0.148136 0.020000
10.289880 0.532944 0.139584 0.010000
10.179626 -0.499368 0.140459 0.020000
9.813285 -1.476557 0.135870 0.060000
9.270648 -2.387092 0.126068 0.050000
8.667625 -3.278799 0.121180 0.070000
4.798354 1.348026 0.098279 0.050000
4.965796 0.961165 0.097278 0.020000
5.053158 0.577770 0.096081 0.030000
5.135247 0.209295 0.089925 0.010000
5.107631 -0.176302 0.088420 0.030000
5.029723 -0.547878 0.091835 0.050000
4.952251 -0.939376 0.075177 0.090000
4.774580 -1.322828 0.068288 0.140000
29.469608 13.464430 2.452743 0.120000
13.143230 3.618992 1.288515 0.010000
13.167984 2.069266 1.262819 0.070000
11.960241 -0.653943 1.139542 0.280000
11.633736 -1.880339 1.114131 0.120000
13.441288 -3.836415 1.206578 0.000000
9.450874 3.602363 0.163804 0.090000
9.951108 2.551776 0.156204 0.060000
10.221003 1.516780 0.148061 0.020000
10.355551 0.499214 0.134630 0.010000
10.190309 -0.534152 0.135357 0.020000
9.834048 -1.516167 0.135777 0.050000
9.296518 -2.431586 0.120970 0.050000
8.663393 -3.318887 0.121019 0.060000
4.823458 1.343525 0.093328 0.050000
4.946170 0.940767 0.102151 0.020000
5.063444 0.562964 0.096052 0.030000
5.135535 0.194298 0.089870 0.010000
5.087813 -0.186701 0.093329 0.030000
5.055115 -0.567376 0.086829 0.060000
4.932338 -0.944776 0.080105 0.100000
4.790069 -1.347517 0.063237 0.150000
29.507572 13.310129 2.452268 0.130000
13.174183 3.569576 1.288413 0.020000
7.060041 0.908330 0.902556 0.070000
13.205722 0.624806 1.237548 0.050000
11.931014 -0.694509 1.139315 0.560000
13.467515 -3.900943 1.211407 0.000000
13.540287 -5.874990 1.229259 0.020000
9.511164 3.588533 0.158910 0.090000
10.041283 2.543501 0.156409 0.070000
10.316477 1.493623 0.143224 0.020000
10.391215 0.464891 0.134595 0.010000
10.256063 -0.572899 0.135385 0.020000
9.869821 -1.555470 0.130724 0.060000
9.337469 -2.480811 0.120894 0.050000
8.719737 -3.387801 0.115910 0.070000
4.828744 1.328623 0.093286 0.060000
4.981273 0.936457 0.097226 0.020000
5.068635 0.553062 0.096029 0.030000
5.145724 0.184492 0.089860 0.010000
5.118108 -0.201105 0.088355 0.030000
5.040309 -0.577662 0.086752 0.080000
4.952826 -0.969370 0.075067 0.080000
4.770156 -1.352918 0.068165 0.150000
29.540293 13.165657 2.471817 0.150000
13.120522 3.498518 1.293008 0.050000
7.035524 0.882856 0.902398 0.310000
13.231458 0.585256 1.247468 0.080000
11.876681 -0.730575 1.144039 0.690000
13.468543 -3.955970 1.221205 0.000000
13.546601 -5.944918 1.239016 0.020000
9.655657 3.616306 0.159390 0.090000
10.156358 2.540705 0.156699 0.070000
10.386930 1.469950 0.148320 0.020000
10.506768 0.437099 0.134794 0.010000
10.316805 -0.611761 0.140399 0.020000
9.945848 -1.609042 0.135723 0.050000
9.408702 -2.544458 0.120844 0.050000
8.760866 -3.447042 0.120797 0.070000
4.838921 1.318798 0.098276 0.060000
4.991462 0.926650 0.097216 0.030000
5.073921 0.538161 0.095988 0.030000
5.171007 0.169973 0.089872 0.010000
5.108288 -0.211314 0.093291 0.030000
5.045583 -0.592582 0.091710 0.090000
4.963207 -0.989174 0.075021 0.110000
4.770443 -1.367915 0.068110 0.140000
29.548100 13.015689 2.496280 0.160000
13.136342 3.453758 1.307884 0.020000
7.000997 0.857172 0.907212 1.000000
