# This PCD file was generated using the MATLAB® pcwrite function
# from Computer Vision Toolbox®.
# .PCD v.7 - Point Cloud Data file format
VERSION .7
FIELDS x y z intensity
SIZE 4 4 4 4
TYPE F F F F
COUNT 1 1 1 1
WIDTH 1289
HEIGHT 1
VIEWPOINT 0 0 0 1 0 0 0
POINTS 1289
DATA ascii
13.031441 6.582393 1.294240 0.010000
13.089725 4.593378 1.226997 0.010000
6.693942 1.231596 0.842802 0.300000
6.500912 0.607862 0.819979 0.160000
16.355801 0.124955 1.268913 0.030000
13.002417 -1.273946 1.099957 0.200000
13.377231 -2.827060 1.100162 0.020000
10.895578 -3.534383 1.001054 0.060000
8.233706 3.704070 0.161005 0.080000
8.627057 2.751472 0.148490 0.050000
8.879654 1.836166 0.140747 0.080000
6.871186 0.671926 0.286178 0.050000
9.083277 0.084793 0.124768 0.030000
8.939772 -0.778126 0.126186 0.020000
8.701119 -1.632830 0.117386 0.020000
8.211243 -2.427370 0.118153 0.060000
44.124641 25.758986 8.886765 0.020000
41.627228 16.888788 7.702261 0.030000
6.572716 1.222384 1.357456 0.100000
6.339811 0.598052 1.289527 0.580000
40.471493 0.352306 6.662762 0.420000
51.219215 -5.924090 8.337502 0.020000
11.301250 -3.725846 2.146413 0.110000
13.020602 6.632359 1.249397 0.010000
15.087917 5.481602 1.290516 0.020000
11.023986 1.248976 1.004171 0.900000
12.981854 -1.239187 1.060032 0.250000
10.990735 -3.537451 0.971291 0.070000
7.946456 3.558561 0.154714 0.080000
8.353642 2.666220 0.147460 0.050000
8.580668 1.780430 0.139760 0.080000
8.807849 0.104521 0.124122 0.030000
8.623586 -0.719171 0.125580 0.020000
8.439348 -1.542827 0.117037 0.020000
7.973891 -2.306895 0.117982 0.060000
44.111351 25.954390 8.717456 0.020000
44.237274 18.172882 8.018850 0.020000
6.562578 1.232265 1.337466 0.230000
40.474506 0.472825 6.543217 0.290000
43.305496 -4.830452 6.955896 0.020000
11.340925 -3.704991 2.121594 0.380000
14.928461 5.458727 1.240014 0.050000
11.048485 1.279561 0.974348 0.420000
13.239919 0.171059 1.050948 0.010000
13.016364 -1.208392 1.025237 0.250000
11.151454 -3.569269 0.941592 0.210000
7.708717 3.439006 0.148649 0.080000
8.065529 2.565703 0.141334 0.040000
8.316593 1.730382 0.133884 0.080000
8.527518 0.119155 0.123445 0.030000
8.367579 -0.669065 0.125098 0.020000
8.157580 -1.453207 0.116634 0.020000
7.792118 -2.215341 0.112847 0.060000
44.518570 26.377611 8.625091 0.020000
44.165539 18.287170 7.844086 0.050000
6.631907 1.268618 1.332783 0.430000
6.319427 0.622794 1.254565 0.070000
40.507950 0.573997 6.403678 0.190000
45.578255 -4.977592 7.136284 0.010000
11.340359 -3.669849 2.081723 0.290000
13.014113 6.722581 1.159714 0.020000
14.863234 5.477683 1.184914 0.080000
13.259444 0.201585 1.011112 0.010000
12.995897 -1.178632 0.985293 0.260000
13.445807 -2.735291 0.980681 0.010000
11.191250 -3.553375 0.906754 0.340000
7.446258 3.303955 0.147462 0.070000
7.822107 2.481026 0.140384 0.060000
8.032796 1.664935 0.132900 0.090000
8.247238 0.913928 0.125668 0.010000
8.257281 0.128982 0.122776 0.030000
8.116668 -0.623863 0.124611 0.020000
7.946278 -1.387243 0.116328 0.020000
7.590252 -2.119172 0.107678 0.060000
44.510948 26.538116 8.455666 0.040000
44.277229 18.479839 7.710093 0.040000
6.562081 1.262371 1.307577 0.490000
6.354159 0.638499 1.244714 0.070000
43.469807 0.724666 6.706973 0.230000
45.736744 -4.879063 7.007062 0.020000
41.593342 -9.632532 6.508572 0.010000
11.344887 -3.639610 2.041847 0.350000
13.033174 6.778121 1.114970 0.010000
14.788199 5.486449 1.129750 0.070000
6.669696 0.681328 0.760692 0.010000
31.539337 0.569906 1.560203 0.010000
13.035515 -1.152722 0.945493 0.250000
13.379977 -2.686378 0.935691 0.050000
11.190766 -3.523251 0.871865 0.440000
7.203794 3.169288 0.146328 0.070000
7.573892 2.386274 0.134384 0.050000
7.823615 1.620940 0.127190 0.090000
7.967674 0.888569 0.124844 0.030000
7.992043 0.138904 0.122121 0.030000
7.906050 -0.592873 0.119176 0.030000
7.760093 -1.325761 0.106071 0.020000
7.408574 -2.032618 0.102525 0.060000
11.175598 5.693210 2.236100 0.000000
44.696716 18.788366 7.592333 0.060000
6.561942 1.272443 1.287614 0.510000
6.344104 0.643362 1.229706 0.180000
43.488316 0.825644 6.542395 0.250000
46.095757 -4.806716 6.883267 0.020000
41.752445 -9.563942 6.364241 0.000000
11.344513 -3.614466 2.001939 0.540000
13.007843 6.802842 1.059995 0.010000
13.101546 4.789427 1.012755 0.030000
6.639549 0.690807 0.745648 0.030000
31.443422 0.633521 1.440188 0.030000
13.065230 -1.132003 0.905647 0.280000
13.409706 -2.665640 0.890845 0.030000
11.190392 -3.498107 0.831957 0.470000
6.990956 3.055210 0.140349 0.080000
7.340468 2.301789 0.133460 0.050000
7.589521 1.571448 0.126395 0.090000
7.772915 0.874855 0.119285 0.030000
7.766907 0.144611 0.116554 0.040000
7.720331 -0.556405 0.113827 0.030000
7.578990 -1.269201 0.100808 0.020000
7.196697 -1.936659 0.102329 0.070000
11.195028 5.728735 2.196282 0.000000
44.507149 18.795563 7.366863 0.040000
6.576787 1.282785 1.272691 0.460000
6.388834 0.659258 1.219882 0.300000
40.673840 0.848763 5.985129 0.240000
46.410107 -4.750173 6.744297 0.020000
41.801334 -9.482386 6.199670 0.000000
11.414591 -3.612995 1.967127 0.160000
13.031998 6.853478 1.015246 0.030000
13.076382 4.804113 0.967743 0.090000
6.609607 0.690307 0.725568 0.020000
30.897879 0.673520 1.318911 0.010000
13.095042 -1.116283 0.865783 0.280000
11.240582 -3.502000 0.792073 0.420000
6.773296 2.931019 0.139319 0.070000
7.131945 2.222781 0.132622 0.050000
7.390338 1.527644 0.120713 0.100000
7.553339 0.850646 0.118621 0.030000
7.566765 0.150798 0.111055 0.040000
7.489703 -0.525816 0.113338 0.030000
7.357786 -1.208427 0.100457 0.020000
7.035303 -1.864719 0.097175 0.070000
11.170054 5.733423 2.151234 0.000000
44.704517 18.954903 7.222969 0.030000
6.571744 1.287762 1.252696 0.300000
6.383792 0.664236 1.199887 0.890000
40.693176 0.904693 5.835385 0.360000
40.573467 -4.063313 5.771605 0.020000
40.103031 -9.008343 5.791995 0.020000
13.031662 6.878678 0.960338 0.050000
13.085936 4.834485 0.917880 0.060000
17.300545 4.364916 0.982137 0.010000
6.624451 0.700648 0.710645 0.020000
13.243166 0.291913 0.841404 0.000000
13.114868 -1.100735 0.820892 0.260000
11.240304 -3.481855 0.752147 0.470000
6.619871 2.848085 0.133610 0.070000
6.938336 2.149079 0.126843 0.050000
7.181335 1.473631 0.119966 0.100000
7.358772 0.826934 0.113025 0.030000
7.336713 0.151392 0.110456 0.040000
7.289179 -0.499634 0.107912 0.030000
7.146676 -1.152460 0.100114 0.030000
6.868910 -1.792874 0.092008 0.070000
11.164981 5.743492 2.106258 0.000000
44.619400 18.989031 7.017871 0.050000
6.591492 1.303198 1.237805 0.160000
6.388638 0.674385 1.184937 0.860000
40.682636 0.955087 5.675544 0.290000
40.803272 -4.033448 5.647314 0.020000
39.725746 -8.864809 5.591541 0.020000
11.393954 -3.568071 1.882239 0.070000
11.450495 5.893552 0.862548 0.020000
13.095668 4.854839 0.872981 0.050000
17.270515 4.374563 0.922094 0.010000
6.599412 0.705243 0.690597 0.050000
13.253078 0.302251 0.801468 0.010000
13.124792 -1.090378 0.775956 0.250000
11.265295 -3.476247 0.717232 0.480000
6.422016 2.734275 0.132671 0.070000
6.769626 2.080854 0.121149 0.050000
6.982235 1.424810 0.119265 0.110000
7.154194 0.803011 0.112402 0.030000
7.166649 0.153135 0.110019 0.040000
7.088641 -0.473470 0.107486 0.030000
6.960656 -1.101013 0.099819 0.030000
6.697505 -1.721144 0.091827 0.080000
44.405682 18.950737 6.797169 0.060000
6.403579 0.679727 1.169996 1.080000
40.662388 0.990292 5.515620 0.130000
40.837891 -3.992227 5.497556 0.020000
39.795467 -8.827899 5.436859 0.030000
11.343424 -3.533849 1.832234 0.120000
11.415715 5.888050 0.817436 0.080000
14.667420 5.565176 0.849724 0.120000
17.260412 4.389629 0.852123 0.010000
6.614366 0.710603 0.670656 0.020000
13.248030 0.312358 0.746492 0.010000
13.164806 -1.084446 0.731082 0.140000
13.398958 -2.600138 0.701058 0.000000
11.280313 -3.470793 0.672291 0.500000
6.273686 2.646437 0.126957 0.060000
6.581099 2.002229 0.120364 0.060000
6.798132 1.376275 0.118604 0.110000
6.979610 0.779664 0.111860 0.030000
6.966590 0.154304 0.109501 0.050000
6.923193 -0.451634 0.107135 0.030000
6.809931 -1.063875 0.094564 0.030000
6.536193 -1.654222 0.091655 0.080000
43.664345 26.541853 7.103456 0.030000
44.237141 18.903290 6.581551 0.050000
6.423519 0.685165 1.155068 0.590000
36.050186 0.899530 4.798236 0.190000
13.161992 -1.108996 1.955996 0.010000
40.121704 -8.871182 5.307548 0.010000
11.262815 -3.495185 1.777166 0.170000
11.376032 5.877453 0.772293 0.090000
14.677275 5.580570 0.794806 0.180000
17.260389 4.399868 0.787160 0.010000
6.604420 0.710486 0.650629 0.030000
13.257955 0.322715 0.701556 0.010000
13.413978 -2.594684 0.656117 0.010000
11.285418 -3.470549 0.632305 0.500000
6.110537 2.548295 0.126166 0.070000
6.422374 1.934177 0.119697 0.050000
6.619028 1.327837 0.117956 0.130000
6.810025 0.756412 0.111331 0.030000
6.811619 0.151335 0.109086 0.040000
6.757841 -0.434798 0.106766 0.040000
6.654193 -1.026851 0.094295 0.020000
6.374978 -1.592298 0.091464 0.080000
43.709103 26.583469 6.898725 0.030000
44.054005 18.835594 6.355819 0.050000
6.423571 0.685240 1.135068 0.880000
36.065178 0.920352 4.653351 0.080000
13.096956 -1.100038 1.900859 0.060000
44.731781 -9.929490 5.700652 0.010000
11.237638 -3.480518 1.737155 0.320000
11.366151 5.877429 0.727266 0.130000
14.677322 5.585773 0.739825 0.070000
17.265354 4.410185 0.727211 0.010000
6.604363 0.715541 0.635647 0.030000
13.237967 0.327480 0.661521 0.010000
13.290114 -1.086716 0.641400 0.060000
13.393920 -2.584883 0.606101 0.030000
11.275331 -3.460594 0.592315 0.440000
5.962290 2.455440 0.125434 0.060000
6.263649 1.866126 0.119030 0.050000
6.464836 1.284894 0.112394 0.110000
6.620540 0.727778 0.110730 0.030000
6.646663 0.148194 0.103643 0.040000
6.612498 -0.417560 0.101451 0.040000
6.488362 -0.985020 0.094017 0.020000
6.228855 -1.535087 0.091295 0.080000
43.793556 26.640831 6.699157 0.020000
44.004894 18.815348 6.165613 0.030000
6.423610 0.685295 1.120068 0.590000
35.355980 0.902573 4.431432 0.110000
13.071996 -1.095332 1.850811 0.070000
44.812416 -9.937305 5.525831 0.010000
11.298100 -3.499235 1.702243 0.440000
11.356380 5.872424 0.677222 0.140000
17.225723 4.399663 0.662067 0.010000
6.604416 0.715615 0.615648 0.030000
13.253081 0.327934 0.616561 0.010000
13.295231 -1.086453 0.596413 0.060000
13.373945 -2.580100 0.561066 0.020000
11.255248 -3.450830 0.552299 0.410000
5.819041 2.362680 0.124715 0.060000
6.119826 1.803360 0.118421 0.040000
6.300716 1.236724 0.116787 0.120000
6.470951 0.704909 0.110254 0.030000
6.466684 0.144728 0.108161 0.040000
6.457143 -0.400533 0.101109 0.030000
6.352716 -0.952612 0.093784 0.020000
6.052534 -1.468470 0.096083 0.090000
43.666000 26.544214 6.468462 0.020000
50.954678 21.931595 6.850345 0.030000
35.311356 0.902232 4.291312 0.230000
13.067101 -1.095279 1.810798 0.070000
44.883121 -9.950349 5.360966 0.010000
11.308299 -3.503893 1.662252 0.610000
11.361483 5.872668 0.637236 0.160000
17.240793 4.405191 0.597127 0.010000
6.679249 0.727105 0.600886 0.030000
13.243200 0.327910 0.571535 0.010000
11.260461 -3.455566 0.507294 0.420000
5.675697 2.274919 0.124015 0.050000
5.936381 1.719814 0.122632 0.040000
6.141609 1.188669 0.116193 0.100000
6.311364 0.681848 0.109752 0.030000
6.296812 0.136473 0.107687 0.040000
6.296886 -0.388600 0.100735 0.040000
6.192076 -0.920683 0.093483 0.020000
5.946800 -1.430470 0.090948 0.090000
43.647152 26.514654 6.248301 0.020000
50.935856 21.902073 6.620184 0.060000
6.418715 0.685348 1.080055 0.090000
35.156967 0.889823 4.140862 0.250000
13.072230 -1.094997 1.760812 0.060000
44.954082 -9.973297 5.171064 0.010000
11.313416 -3.503630 1.617265 0.630000
11.366612 5.872950 0.587249 0.180000
14.717484 5.602187 0.564989 0.040000
13.128106 3.206324 0.551934 0.000000
6.669399 0.721989 0.580841 0.050000
13.258411 0.323366 0.526557 0.020000
13.295574 -1.091099 0.501396 0.030000
26.415411 -5.624809 0.293787 0.010000
11.260661 -3.460417 0.467277 0.460000
5.557252 2.192636 0.123400 0.050000
5.817361 1.667525 0.122127 0.040000
5.987487 1.140690 0.120612 0.100000
6.181771 0.659363 0.109330 0.030000
6.151921 0.128679 0.112279 0.040000
6.151613 -0.376398 0.105401 0.030000
6.056526 -0.893274 0.093231 0.030000
5.851147 -1.397296 0.090822 0.080000
43.772446 26.527771 6.053675 0.020000
50.897984 21.822159 6.394786 0.050000
57.263985 16.036680 6.764900 0.040000
6.408852 0.680214 1.065010 0.090000
35.462704 0.871115 4.021589 0.110000
13.067554 -1.104905 1.710762 0.080000
45.015484 -10.021488 4.996043 0.000000
11.313711 -3.513480 1.577229 0.750000
11.381836 5.868424 0.537272 0.170000
14.693124 5.576936 0.504831 0.080000
13.113609 3.186208 0.506821 0.010000
6.674546 0.717160 0.560836 0.050000
13.243832 0.308267 0.476463 0.010000
13.215707 -1.092464 0.456182 0.040000
13.429997 -2.613482 0.411087 0.000000
11.220773 -3.461034 0.427170 0.390000
5.458517 2.125734 0.122893 0.050000
5.713352 1.615542 0.116662 0.040000
5.853279 1.098112 0.120104 0.100000
6.037278 0.631590 0.108850 0.030000
6.032040 0.121382 0.111939 0.030000
6.026444 -0.368794 0.105103 0.030000
5.956066 -0.870194 0.093055 0.030000
5.715214 -1.349891 0.090643 0.090000
43.957294 26.561960 5.879282 0.010000
50.875153 21.737459 6.189409 0.050000
6.631767 1.309502 1.092932 0.000000
6.448884 0.681035 1.050118 0.070000
34.849052 0.820014 3.839795 0.200000
13.133003 -1.123545 1.680863 0.080000
11.298915 -3.518617 1.537171 0.740000
11.456365 5.900022 0.492583 0.160000
13.128916 3.176665 0.461825 0.010000
6.674694 0.712236 0.540818 0.070000
13.246189 -1.111737 0.416190 0.030000
13.400286 -2.623925 0.375970 0.010000
11.160684 -3.452055 0.392046 0.350000
5.369683 2.064021 0.122432 0.040000
5.599414 1.558332 0.121152 0.040000
5.773786 1.071604 0.114798 0.100000
5.917779 0.604297 0.108436 0.030000
5.932167 0.114486 0.106653 0.040000
5.916286 -0.360884 0.099844 0.030000
5.840717 -0.852381 0.087820 0.030000
5.634763 -1.326409 0.085520 0.100000
55.469292 33.719700 7.025952 0.020000
50.902782 21.638979 5.914112 0.020000
6.656815 1.310055 1.072999 0.000000
6.419134 0.670537 1.030001 0.080000
34.775513 0.764145 3.689394 0.230000
13.118423 -1.138644 1.630769 0.110000
145.845230 -34.057465 14.109982 0.020000
11.304401 -3.538369 1.497112 0.750000
11.486559 5.895746 0.452646 0.190000
13.087406 4.826308 0.427849 0.040000
13.124417 3.156740 0.416739 0.010000
6.709727 0.712962 0.525912 0.070000
13.239630 0.278493 0.391340 0.020000
13.226598 -1.126950 0.371081 0.030000
13.405812 -2.643621 0.320911 0.010000
11.100717 -3.448037 0.346904 0.350000
5.305584 2.017822 0.112093 0.040000
5.515306 1.511731 0.115759 0.030000
5.654561 1.029294 0.119329 0.100000
5.838094 0.587786 0.103167 0.030000
5.817285 0.107285 0.106326 0.040000
5.826303 -0.362607 0.099603 0.040000
5.750447 -0.839108 0.087634 0.030000
5.519005 -1.288638 0.090359 0.100000
55.744408 33.745743 6.816764 0.010000
43.548462 18.270910 4.962386 0.050000
6.696846 1.310877 1.058106 0.000000
6.434361 0.660882 1.015004 0.070000
34.697018 0.703108 3.558961 0.200000
13.108913 -1.158683 1.590669 0.140000
146.098846 -34.430729 13.579250 0.020000
11.315079 -3.568023 1.457029 0.810000
11.511972 5.881414 0.402658 0.180000
18.424633 7.134611 0.265360 0.010000
6.705067 0.697943 0.505844 0.070000
18.964355 0.373862 0.211636 0.010000
13.152017 -1.143216 0.325826 0.020000
13.411503 -2.673352 0.275815 0.030000
11.091180 -3.468114 0.316804 0.420000
5.187209 1.930503 0.121459 0.040000
5.426185 1.465016 0.115353 0.040000
5.560250 0.992482 0.118946 0.110000
5.723582 0.560570 0.107767 0.030000
5.742490 0.095850 0.106089 0.050000
5.711133 -0.354812 0.099331 0.040000
5.665175 -0.825738 0.087461 0.030000
5.428556 -1.265348 0.085209 0.110000
53.150356 31.922777 6.248211 0.020000
43.605793 18.177725 4.762187 0.060000
6.672191 1.295476 1.037984 0.030000
6.489390 0.661991 1.000152 0.280000
35.183422 0.647762 3.465024 0.260000
13.059354 -1.174433 1.535480 0.140000
18.180334 -3.848444 1.978912 0.000000
11.295487 -3.583236 1.411921 0.900000
11.586788 5.898015 0.357915 0.120000
15.077790 5.630156 0.276031 0.020000
6.740209 0.693689 0.485919 0.060000
16.390482 0.289517 0.214604 0.010000
13.152599 -1.168063 0.285735 0.020000
13.336730 -2.679620 0.230596 0.020000
11.066589 -3.483422 0.271682 0.470000
5.137998 1.889572 0.116179 0.030000
5.342062 1.418397 0.114960 0.030000
5.505656 0.971451 0.113725 0.110000
5.638981 0.538946 0.107466 0.030000
5.647604 0.089032 0.105816 0.050000
5.651253 -0.360941 0.094152 0.040000
5.585011 -0.817254 0.082283 0.030000
5.373292 -1.251385 0.080117 0.120000
51.885315 30.919691 5.881176 0.020000
29.646126 11.969594 3.252655 0.010000
6.712318 1.291298 1.023073 0.100000
6.424838 0.640824 0.979905 0.360000
31.496605 0.503613 3.049860 0.090000
13.019944 -1.200046 1.495282 0.160000
17.688950 -3.767492 1.882929 0.000000
11.296044 -3.608120 1.381829 0.570000
14.438820 5.312954 0.248184 0.040000
14.882398 3.566177 0.232848 0.010000
6.735440 0.683650 0.470869 0.050000
15.241297 0.237536 0.201411 0.010000
13.093099 -1.189059 0.245501 0.030000
13.161663 -2.672843 0.195164 0.030000
11.082458 -3.522979 0.231576 0.370000
5.068982 1.838259 0.110808 0.030000
5.287661 1.387368 0.109702 0.030000
5.421260 0.939847 0.108388 0.100000
5.579293 0.522818 0.102250 0.020000
5.572822 0.077616 0.100578 0.050000
5.566173 -0.357570 0.093943 0.040000
5.529939 -0.813290 0.077154 0.030000
5.282817 -1.228132 0.084967 0.120000
29.002451 16.582863 3.328125 0.010000
29.702730 11.901052 3.147547 0.030000
6.697661 1.276088 1.002978 1.000000
6.459966 0.636551 0.964980 0.420000
31.508327 0.429228 2.939613 0.060000
13.025527 -1.224796 1.455204 0.200000
17.463900 -3.756525 1.807382 0.000000
11.291712 -3.638080 1.346706 0.450000
13.313626 4.791331 0.238307 0.040000
13.868362 3.246737 0.219013 0.010000
6.785579 0.679683 0.450985 0.040000
14.097099 0.185632 0.193231 0.020000
13.103871 -1.223712 0.205400 0.020000
12.755367 -2.605521 0.169353 0.030000
11.143592 -3.576689 0.196536 0.290000
5.019758 1.797309 0.110527 0.030000
5.208525 1.340825 0.114323 0.030000
5.376748 0.913990 0.108175 0.090000
5.489680 0.501080 0.106935 0.030000
5.508026 0.066373 0.100367 0.050000
5.501185 -0.358815 0.093768 0.040000
5.429657 -0.800226 0.081941 0.030000
5.232647 -1.219073 0.079870 0.120000
29.005148 16.458313 3.212667 0.030000
29.739843 11.807167 3.032293 0.060000
6.697988 1.261147 0.987924 1.000000
6.455294 0.621514 0.949912 0.840000
31.530334 0.340037 2.829338 0.270000
13.031301 -1.259545 1.415089 0.160000
17.248943 -3.750366 1.731843 0.000000
11.327754 -3.687270 1.311617 0.770000
11.792089 5.902424 0.228466 0.040000
12.659633 4.473804 0.220420 0.050000
13.063235 2.986308 0.205944 0.010000
6.795904 0.664934 0.435957 0.030000
13.392819 0.142154 0.186231 0.010000
12.863982 -1.228216 0.179756 0.050000
12.032435 -2.459341 0.168009 0.030000
4.965726 1.746265 0.110196 0.030000
5.169120 1.310084 0.109106 0.020000
5.307240 0.887654 0.107896 0.090000
5.449988 0.485335 0.101773 0.020000
5.443230 0.055130 0.100156 0.050000
5.391193 -0.360940 0.098474 0.050000
5.374572 -0.796280 0.081812 0.030000
5.162373 -1.205417 0.079737 0.130000
29.022760 16.333941 3.127250 0.050000
29.722466 11.682124 2.946782 0.110000
6.653610 1.230347 0.972693 0.430000
6.460607 0.606650 0.939871 1.020000
31.537241 0.250410 2.759022 0.460000
13.057128 -1.298966 1.390010 0.160000
17.174828 -3.791646 1.691496 0.000000
11.313411 -3.717440 1.281467 0.590000
11.308517 5.563121 0.220942 0.050000
12.109828 4.198245 0.212960 0.050000
12.501707 2.800539 0.198787 0.010000
12.723532 0.099347 0.179325 0.020000
12.243140 -1.190099 0.178278 0.040000
11.520533 -2.364109 0.162027 0.040000
4.921501 1.705411 0.109929 0.030000
5.109802 1.273941 0.108817 0.020000
5.252825 0.856607 0.107638 0.090000
5.383432 0.043983 0.099959 0.040000
5.361307 -0.366495 0.093375 0.090000
5.304489 -0.792622 0.081642 0.050000
5.117299 -1.201261 0.074635 0.140000
29.030922 16.184473 3.016715 0.100000
6.455934 0.591613 0.924802 0.910000
13.007804 -1.329788 1.354766 0.100000
10.770626 5.187772 0.213143 0.050000
11.619545 3.948848 0.200753 0.050000
11.999989 2.625937 0.186828 0.010000
12.209121 0.064508 0.172853 0.020000
11.722497 -1.160028 0.167030 0.050000
11.099091 -2.292149 0.156194 0.030000
10.460401 -3.409560 0.145373 0.070000
4.892094 1.674861 0.104739 0.030000
5.085299 1.248486 0.103658 0.020000
5.203218 0.835653 0.107431 0.120000
5.335789 0.443159 0.096318 0.010000
5.328635 0.032931 0.099774 0.020000
5.281309 -0.368046 0.098160 0.100000
5.259511 -0.793465 0.076522 0.040000
5.062118 -1.192316 0.074524 0.130000
29.073736 16.050600 2.926328 0.080000
6.649360 1.195369 0.942552 0.140000
6.461246 0.576749 0.914761 0.660000
12.958575 -1.365609 1.319504 0.100000
11.189178 -3.749587 1.216023 0.370000
10.445216 4.946534 0.201397 0.060000
11.248281 3.751739 0.189051 0.050000
11.592761 2.478130 0.180216 0.010000
11.067696 1.167732 0.203974 0.040000
11.819890 0.022082 0.161679 0.020000
11.342294 -1.152290 0.161067 0.050000
10.738022 -2.239037 0.150449 0.040000
10.143652 -3.320593 0.139877 0.060000
4.857771 1.639197 0.104516 0.030000
5.035870 1.217515 0.108414 0.020000
5.163704 0.809892 0.107232 0.050000
5.286072 0.427186 0.101129 0.010000
5.293941 0.017282 0.094626 0.030000
5.251520 -0.378600 0.093043 0.070000
5.189415 -0.789825 0.081352 0.040000
5.037218 -1.197794 0.074438 0.130000
29.096910 15.896310 2.845814 0.030000
6.654768 1.175506 0.932492 0.130000
6.461656 0.556790 0.904688 0.540000
12.974596 -1.415219 1.294362 0.070000
11.190188 -3.799503 1.195840 0.280000
10.124793 4.705373 0.194664 0.070000
10.916711 3.570375 0.182512 0.060000
11.265136 2.351851 0.173891 0.010000
11.123421 1.133885 0.178994 0.070000
11.425539 -0.015477 0.160510 0.010000
11.007069 -1.143709 0.160223 0.050000
10.457225 -2.199389 0.144864 0.040000
9.826795 -3.226644 0.139399 0.070000
4.858072 1.624219 0.099461 0.030000
5.021269 1.197250 0.103300 0.020000
5.129094 0.789225 0.107065 0.050000
5.271376 0.411920 0.096034 0.010000
5.239130 0.006212 0.099441 0.030000
5.211623 -0.384365 0.092918 0.060000
5.154421 -0.790496 0.081259 0.040000
4.971943 -1.184042 0.074319 0.140000
29.070574 15.716066 2.765074 0.030000
6.645288 1.150375 0.917374 0.140000
6.471967 0.542021 0.894659 0.140000
13.263657 -0.059462 1.305156 0.000000
13.271278 -1.499533 1.289822 0.090000
13.450624 -3.031424 1.299596 0.000000
9.873482 4.510525 0.193283 0.070000
10.604931 3.399374 0.181062 0.050000
10.962313 2.236050 0.167670 0.010000
10.994442 1.081461 0.163462 0.030000
10.916101 -0.050258 0.164051 0.030000
10.732038 -1.143958 0.154504 0.050000
10.176428 -2.159741 0.139278 0.050000
9.610903 -3.180734 0.129006 0.070000
4.808944 1.578270 0.099162 0.030000
4.981852 1.166490 0.103083 0.020000
5.109494 0.768864 0.101938 0.040000
5.206758 0.390660 0.100786 0.010000
5.209341 -0.004342 0.094324 0.020000
5.176821 -0.395033 0.092787 0.040000
5.114525 -0.796261 0.081133 0.040000
4.957150 -1.194308 0.069242 0.160000
29.138618 15.567600 2.694699 0.020000
6.640698 1.130320 0.907287 0.140000
6.422495 0.516124 0.879434 0.400000
12.714478 -0.099785 1.248572 0.010000
13.217120 -1.540486 1.264529 0.090000
13.471917 -3.095955 1.279412 0.000000
11.338414 -3.961564 1.160624 0.140000
9.671598 4.346648 0.187147 0.070000
10.402282 3.275489 0.175072 0.070000
10.719179 2.136375 0.166665 0.020000
10.811721 -0.082226 0.153659 0.040000
10.477098 -1.148823 0.148821 0.050000
10.011376 -2.157884 0.133854 0.040000
9.419981 -3.134382 0.128680 0.070000
4.799425 1.553083 0.099044 0.030000
4.957335 1.141016 0.102924 0.020000
5.079883 0.748294 0.101784 0.040000
5.207071 0.375700 0.090731 0.010000
5.159625 -0.020315 0.099135 0.030000
5.157016 -0.405415 0.092697 0.050000
5.089734 -0.806719 0.076029 0.040000
4.917158 -1.195074 0.069135 0.160000
29.152115 15.393030 2.639085 0.020000
13.124636 4.318503 1.361068 0.000000
6.631192 1.105152 0.902169 0.270000
6.422891 0.496147 0.874361 0.560000
12.640502 -0.151137 1.228188 0.060000
12.776937 -1.528749 1.218423 0.070000
13.407665 -3.132100 1.254109 0.010000
11.299049 -3.992250 1.140407 0.250000
9.539045 4.219124 0.176327 0.070000
10.204632 3.151700 0.169096 0.050000
10.530856 2.047771 0.160844 0.020000
10.696537 0.970773 0.152273 0.010000
10.682428 -0.119690 0.148182 0.020000
10.282230 -1.157556 0.148280 0.060000
9.795938 -2.137006 0.133369 0.050000
9.279733 -3.122048 0.123360 0.070000
4.760185 1.512306 0.103790 0.030000
4.942817 1.115734 0.102792 0.020000
5.075184 0.733219 0.096716 0.040000
5.157451 0.354728 0.095524 0.010000
5.159925 -0.035293 0.094080 0.030000
5.117216 -0.416179 0.092553 0.050000
5.074928 -0.817004 0.075952 0.040000
4.892258 -1.200552 0.069050 0.160000
29.180510 15.223745 2.583529 0.020000
13.120934 4.253494 1.340816 0.010000
6.661487 1.090748 0.897194 0.610000
6.433286 0.476360 0.869314 0.970000
12.631501 -0.201263 1.212978 0.160000
12.647588 -1.561159 1.197964 0.120000
11.310414 -4.062008 1.130177 0.300000
9.411465 4.091658 0.175520 0.080000
10.091391 3.059534 0.163458 0.070000
10.362421 1.964531 0.160095 0.020000
10.547631 0.912929 0.146669 0.010000
10.503146 -0.158112 0.142572 0.020000
10.132559 -1.175408 0.142823 0.060000
9.655881 -2.134670 0.128012 0.040000
9.144292 -3.099620 0.118090 0.060000
4.775387 1.502614 0.098794 0.030000
4.903386 1.084955 0.107575 0.020000
5.050559 0.712726 0.101576 0.040000
5.162655 0.344844 0.090501 0.010000
5.120124 -0.046058 0.093936 0.030000
5.112517 -0.431253 0.087485 0.050000
5.045030 -0.822578 0.075854 0.040000
4.862360 -1.206126 0.068951 0.140000
29.223961 15.049693 2.542995 0.020000
13.142133 4.193963 1.320650 0.010000
6.637093 1.060312 0.887017 0.650000
6.423684 0.456191 0.864214 0.900000
12.672381 -0.245452 1.202920 0.490000
12.643490 -1.606190 1.182786 0.140000
16.140444 -4.050347 1.372831 0.000000
9.323301 3.994952 0.174930 0.080000
9.978041 2.972347 0.162838 0.060000
10.263685 1.897628 0.159589 0.020000
10.423613 0.860545 0.146151 0.010000
10.398836 -0.195117 0.142162 0.020000
10.032961 -1.197319 0.142481 0.060000
9.510798 -2.132466 0.132642 0.050000
6.148048 -1.787541 0.325148 0.040000
4.760869 1.477331 0.098662 0.030000
4.913589 1.075167 0.102565 0.020000
5.045860 0.697652 0.096507 0.040000
5.138042 0.324369 0.090360 0.010000
5.120411 -0.061055 0.093881 0.030000
5.072607 -0.437037 0.092359 0.050000
5.035332 -0.837748 0.070772 0.040000
4.857648 -1.221219 0.068883 0.150000
29.227692 14.859859 2.507299 0.030000
13.103603 4.118248 1.310268 0.050000
6.627587 1.035144 0.881899 0.790000
6.429079 0.436309 0.859154 0.970000
12.618294 -0.291441 1.187608 0.510000
11.611253 -1.490719 1.120520 0.110000
13.441392 -3.321359 1.218493 0.000000
9.269762 3.918932 0.169508 0.090000
9.904396 2.900924 0.162380 0.070000
10.179769 1.841029 0.154159 0.020000
10.364404 0.819422 0.140843 0.010000
10.294431 -0.227122 0.141770 0.020000
9.953467 -1.223828 0.137175 0.060000
9.441208 -2.153784 0.127381 0.050000
8.924046 -3.088836 0.117555 0.040000
4.766169 1.462448 0.093620 0.040000
4.923888 1.060380 0.097537 0.020000
5.036245 0.677464 0.096407 0.040000
5.128332 0.309181 0.090278 0.010000
5.095704 -0.076531 0.093759 0.030000
5.067908 -0.452111 0.087291 0.050000
5.015528 -0.848129 0.070682 0.030000
4.847855 -1.231390 0.063819 0.160000
29.280993 14.690924 2.486810 0.090000
13.094973 4.048107 1.299985 0.050000
6.632969 1.015243 0.881839 0.780000
6.419477 0.416140 0.854054 0.860000
12.584367 -0.347082 1.182312 0.800000
11.582230 -1.541265 1.115257 0.170000
13.437651 -3.386424 1.213242 0.000000
13.508341 -5.250454 1.221497 0.040000
9.265913 3.858847 0.169275 0.080000
9.865566 2.840189 0.157053 0.070000
10.150745 1.790483 0.148895 0.020000
10.300374 0.768186 0.140486 0.010000
10.250218 -0.267957 0.136503 0.020000
9.884056 -1.255163 0.136877 0.060000
9.376699 -2.180024 0.127115 0.050000
8.819052 -3.090865 0.122273 0.080000
4.751733 1.432148 0.098470 0.040000
4.914260 1.040173 0.102437 0.020000
5.046531 0.662658 0.096379 0.030000
5.118608 0.293973 0.095196 0.010000
5.100990 -0.091432 0.093718 0.030000
5.048091 -0.462511 0.092200 0.060000
5.000709 -0.858433 0.075605 0.040000
4.828037 -1.241790 0.068729 0.130000
29.309464 14.511474 2.476217 0.110000
13.101134 3.988233 1.294778 0.070000
6.603562 0.984693 0.876648 0.770000
6.429859 0.396336 0.854008 0.380000
12.575244 -0.392246 1.177121 0.810000
11.542921 -1.577006 1.110021 0.220000
13.438814 -3.446394 1.208022 0.000000
13.530062 -5.340054 1.221221 0.040000
9.271870 3.808953 0.169105 0.090000
9.861512 2.790084 0.161856 0.070000
10.131598 1.745090 0.153677 0.020000
10.276145 0.727715 0.140272 0.010000
10.215992 -0.308620 0.136262 0.020000
9.874728 -1.290348 0.136722 0.060000
9.357278 -2.210402 0.126951 0.050000
8.784551 -3.116512 0.117088 0.070000
4.771838 1.427551 0.093505 0.040000
4.914547 1.025176 0.102382 0.020000
5.031821 0.647374 0.096284 0.030000
5.128907 0.279186 0.090168 0.010000
5.086185 -0.101717 0.093641 0.030000
5.063484 -0.482201 0.087167 0.040000
4.980904 -0.868814 0.075514 0.050000
4.818326 -1.256978 0.068647 0.160000
29.333031 14.326929 2.465592 0.110000
13.102476 3.918246 1.294522 0.060000
6.614040 0.959889 0.876583 0.620000
12.571299 -0.447332 1.176906 0.840000
11.533894 -1.627170 1.104811 0.250000
13.435156 -3.516476 1.207752 0.000000
9.307547 3.774648 0.164070 0.080000
9.877385 2.745398 0.156732 0.070000
10.172370 1.705882 0.148637 0.020000
10.282006 0.682819 0.140120 0.010000
10.211760 -0.348708 0.136102 0.020000
9.875495 -1.330340 0.136576 0.060000
9.342952 -2.245682 0.126783 0.050000
8.780414 -3.161599 0.116910 0.080000
4.772304 1.402537 0.098413 0.040000
4.919834 1.010275 0.102340 0.020000
5.052104 0.632760 0.096282 0.030000
5.119183 0.263979 0.095086 0.010000
5.111576 -0.121216 0.088635 0.030000
5.048666 -0.492505 0.092090 0.060000
4.986287 -0.888715 0.075454 0.060000
4.808615 -1.272167 0.068565 0.140000
29.366665 14.137540 2.464976 0.120000
13.123622 3.858640 1.294355 0.080000
6.589523 0.934415 0.876425 0.650000
12.602347 -0.501747 1.176784 0.780000
11.524757 -1.672353 1.104619 0.250000
13.441401 -3.581368 1.207527 0.000000
13.518035 -5.495312 1.220612 0.020000
9.362920 3.755705 0.164144 0.090000
9.942756 2.726647 0.156833 0.060000
10.198036 1.671368 0.148576 0.020000
10.347678 0.649090 0.135166 0.010000
10.247519 -0.388030 0.136050 0.020000
9.906460 -1.379737 0.131473 0.060000
9.369014 -2.300174 0.121648 0.050000
8.776277 -3.206686 0.116731 0.070000
4.772592 1.387540 0.098358 0.050000
4.930132 0.995488 0.097312 0.020000
5.057295 0.622857 0.096259 0.030000
5.129482 0.249192 0.090058 0.010000
5.086759 -0.131712 0.093531 0.030000
5.064059 -0.512195 0.087057 0.060000
4.971481 -0.899000 0.075378 0.080000
4.814011 -1.292049 0.063505 0.160000
29.404930 13.968262 2.459447 0.130000
6.609903 0.914802 0.876405 0.460000
12.613290 -0.551564 1.181628 0.780000
11.525702 -1.722362 1.109436 0.250000
13.447728 -3.651278 1.212284 0.000000
13.554822 -5.589661 1.230358 0.030000
9.467914 3.757735 0.159426 0.090000
10.013222 2.702992 0.156929 0.070000
10.303495 1.648383 0.148766 0.020000
10.408433 0.610246 0.135181 0.010000
10.313369 -0.431777 0.136059 0.020000
9.952410 -1.428866 0.131410 0.060000
9.430248 -2.364013 0.121571 0.050000
8.832704 -3.280619 0.116604 0.060000
4.797683 1.383020 0.098407 0.050000
4.955319 0.985968 0.097343 0.020000
5.057679 0.602861 0.096186 0.030000
5.139767 0.234386 0.090030 0.010000
5.112042 -0.146230 0.093543 0.030000
5.064346 -0.527193 0.087002 0.060000
4.996955 -0.923517 0.075353 0.090000
4.809286 -1.307160 0.068437 0.150000
29.428175 13.793530 2.498858 0.130000
6.585373 0.889309 0.881246 0.260000
13.212807 0.774914 1.253124 0.100000
12.644312 -0.606016 1.191506 0.620000
11.546727 -1.777005 1.119288 0.190000
13.448947 -3.716302 1.222045 0.000000
13.500765 -5.640742 1.240027 0.010000
9.592794 3.765128 0.159779 0.090000
10.143389 2.695484 0.157240 0.070000
6.781241 0.920009 0.351866 0.010000
10.538983 0.582742 0.135419 0.010000
10.379219 -0.475523 0.136068 0.020000
10.033436 -1.482342 0.136423 0.060000
9.501480 -2.427660 0.121520 0.050000
8.879037 -3.349744 0.116468 0.070000
4.837688 1.383804 0.093514 0.060000
4.960593 0.971048 0.102301 0.020000
5.092864 0.593533 0.096243 0.030000
5.165050 0.219868 0.090042 0.010000
5.117424 -0.166131 0.093483 0.030000
5.089725 -0.546710 0.086996 0.080000
4.972138 -0.934012 0.080249 0.080000
4.824775 -1.331850 0.063385 0.140000
29.461470 13.619062 2.518297 0.140000
6.575854 0.864123 0.881128 0.510000
12.124654 -0.625899 1.170076 0.500000
11.592746 -1.831170 1.129207 0.160000
13.455153 -3.781250 1.236820 0.000000
13.532540 -5.735205 1.254759 0.030000
9.732371 3.787787 0.165228 0.090000
10.313166 2.708738 0.157733 0.060000
6.856419 0.911448 0.352031 0.030000
10.674616 0.550315 0.140653 0.010000
10.535135 -0.522564 0.141300 0.020000
10.119570 -1.540703 0.136431 0.060000
9.617991 -2.505442 0.121535 0.050000
8.970649 -3.433004 0.116397 0.080000
4.857876 1.374189 0.093531 0.050000
5.010596 0.972025 0.097435 0.020000
5.093042 0.583517 0.101206 0.030000
5.195236 0.210445 0.090086 0.010000
5.152705 -0.180457 0.093522 0.020000
5.095012 -0.561611 0.086954 0.060000
5.007624 -0.958318 0.075251 0.110000
4.825050 -1.346865 0.068330 0.120000
29.494329 13.464518 2.557809 0.150000
6.546422 0.833535 0.885937 0.650000
31.314951 1.727862 2.368930 0.100000
12.030315 -0.662749 1.179693 0.610000
11.638835 -1.890371 1.149107 0.100000
13.471535 -3.856023 1.256585 0.010000
13.503739 -5.800841 1.274440 0.040000
9.951372 3.841990 0.166001 0.100000
10.492928 2.722164 0.163252 0.060000
6.841875 0.886128 0.361899 0.120000
10.850241 0.518655 0.145993 0.010000
10.671151 -0.574987 0.146461 0.020000
10.270869 -1.607835 0.141576 0.060000
9.734586 -2.588243 0.126532 0.050000
9.087722 -3.540799 0.121302 0.080000
4.887967 1.369765 0.093594 0.060000
5.025772 0.962295 0.102439 0.020000
5.158152 0.579800 0.091362 0.030000
5.220519 0.195926 0.090098 0.010000
5.177988 -0.194976 0.093534 0.030000
5.130484 -0.585936 0.086956 0.070000
4.997900 -0.973526 0.080170 0.080000
4.855715 -1.381284 0.068283 0.150000
29.517344 13.299728 2.612257 0.130000
16.289907 4.568470 1.560261 0.010000
6.581676 0.819171 0.895976 0.730000
31.292233 1.602240 2.413404 0.140000
12.016033 -0.703103 1.199506 0.650000
13.437351 -3.901759 1.276326 0.010000
13.530202 -5.880440 1.299213 0.030000
10.160362 3.895984 0.171748 0.090000
10.747210 2.762041 0.164064 0.070000
6.792433 0.855139 0.371655 0.100000
11.050778 0.492491 0.146420 0.010000
10.897162 -0.625667 0.146862 0.020000
10.422170 -1.674968 0.146722 0.060000
9.906457 -2.684986 0.131621 0.050000
9.255264 -3.672632 0.126249 0.070000
4.913044 1.365226 0.098642 0.070000
5.080775 0.963367 0.097586 0.020000
5.163412 0.564861 0.101320 0.030000
5.255704 0.186598 0.090155 0.010000
5.203270 -0.209494 0.093546 0.030000
5.140757 -0.600761 0.091928 0.080000
5.043467 -1.002658 0.080180 0.090000
4.855989 -1.396300 0.073227 0.140000
29.540058 13.149917 2.671760 0.140000
16.355761 4.519595 1.595252 0.020000
6.567050 0.798869 0.900863 0.680000
31.339272 1.487900 2.473103 0.130000
11.966769 -0.744108 1.214225 0.700000
10.433669 3.986216 0.177796 0.090000
11.041279 2.812664 0.170020 0.060000
11.351188 0.473222 0.152132 0.010000
11.138254 -0.681078 0.152285 0.020000
10.658837 -1.760469 0.152022 0.060000
10.073329 -2.781826 0.136696 0.050000
9.463196 -3.823677 0.126231 0.070000
4.972759 1.381391 0.093858 0.070000
5.100854 0.958732 0.102621 0.020000
5.218511 0.560934 0.096450 0.030000
5.275878 0.176965 0.095172 0.010000
5.228553 -0.224012 0.093558 0.030000
5.176133 -0.620086 0.091949 0.080000
5.048740 -1.017578 0.085139 0.100000
4.891666 -1.430604 0.068193 0.130000
29.542776 12.999722 2.731209 0.160000
6.557408 0.778644 0.910762 0.710000
31.366314 1.373178 2.532747 0.120000
11.977482 -0.783984 1.234105 0.820000
10.741874 4.082117 0.183957 0.090000
11.404965 2.884642 0.171237 0.060000
11.140151 1.564245 0.190637 0.090000
11.686604 0.454643 0.152939 0.010000
11.474520 -0.744668 0.157927 0.020000
10.950795 -1.859895 0.152414 0.060000
10.305669 -2.902416 0.141855 0.050000
9.686221 -3.979433 0.126234 0.070000
4.992934 1.371757 0.098875 0.080000
5.155857 0.959804 0.097769 0.030000
5.243685 0.551396 0.101480 0.030000
5.336168 0.163135 0.090278 0.020000
5.278927 -0.243051 0.093619 0.030000
5.211510 -0.639412 0.091969 0.090000
5.099414 -1.051595 0.080144 0.110000
4.907129 -1.455331 0.073142 0.120000
29.570053 12.869928 2.810798 0.070000
31.378511 1.248115 2.607315 0.150000
11.993180 -0.823782 1.258998 0.740000
33.232666 -11.228929 2.660774 0.010000
11.753724 2.951296 0.182395 0.060000
11.070961 1.517820 0.215284 0.120000
12.111991 0.437768 0.158986 0.010000
11.855886 -0.812376 0.158671 0.020000
11.302920 -1.968188 0.157931 0.050000
10.573288 -3.037333 0.147052 0.050000
9.944705 -4.159533 0.131239 0.070000
5.037829 1.377618 0.099014 0.080000
5.200835 0.960648 0.102889 0.030000
5.308686 0.552659 0.096654 0.030000
5.391349 0.154190 0.090389 0.020000
5.329205 -0.257091 0.093698 0.060000
5.261980 -0.663450 0.092012 0.060000
5.129779 -1.071036 0.085151 0.100000
4.947793 -1.489558 0.073120 0.110000
31.375149 1.152777 2.676953 0.110000
12.023780 -0.858293 1.283950 0.730000
18.908415 -3.708614 1.746330 0.000000
33.220020 -11.364524 2.750238 0.020000
11.596129 4.388495 0.197326 0.080000
11.066567 1.482638 0.240142 0.140000
12.552470 0.416182 0.165056 0.010000
11.901566 -0.851618 0.188644 0.050000
11.685314 -2.090923 0.168473 0.050000
10.941561 -3.205328 0.152389 0.040000
10.253646 -4.363688 0.141287 0.060000
5.102530 1.393860 0.099243 0.080000
5.255729 0.966700 0.103055 0.030000
5.348761 0.548408 0.101743 0.040000
5.446517 0.145227 0.095499 0.030000
5.369472 -0.271340 0.098750 0.120000
5.322447 -0.687296 0.092081 0.090000
5.175345 -1.100168 0.085162 0.090000
4.978457 -1.523977 0.073073 0.110000
29.559742 12.604134 2.959785 0.070000
17.712280 4.679704 1.844391 0.000000
6.518392 0.722777 0.940453 0.100000
31.401743 1.057958 2.761670 0.130000
18.859253 -3.759748 1.796012 0.000000
33.403507 -11.561485 2.869986 0.000000
12.804368 3.186404 0.201012 0.060000
10.972356 1.435697 0.274722 0.080000
13.107806 0.401760 0.181452 0.010000
11.922071 -0.881322 0.213588 0.020000
12.198175 -2.236145 0.174272 0.050000
11.320009 -3.383148 0.162716 0.050000
10.537304 -4.553326 0.151322 0.060000
5.157315 1.404893 0.104427 0.090000
5.295709 0.967447 0.108162 0.030000
5.418748 0.549748 0.101931 0.070000
5.501698 0.136282 0.095610 0.030000
5.439855 -0.289977 0.093864 0.090000
5.387927 -0.711028 0.087163 0.070000
5.205806 -1.124607 0.090151 0.090000
5.034214 -1.562916 0.073073 0.140000
29.734970 12.577044 3.080143 0.020000
17.936768 4.698750 1.915048 0.010000
6.508642 0.707533 0.955371 0.120000
13.151928 -1.032250 1.431249 0.220000
18.619205 -3.764474 1.830368 0.000000
45.441689 -16.190418 3.884212 0.010000
47.620590 -25.031481 4.192038 0.030000
12.772521 4.846033 0.222098 0.070000
11.002777 1.411202 0.294711 0.070000
11.952671 -0.915834 0.238540 0.030000
12.907081 -2.432585 0.170392 0.040000
11.350801 -3.427658 0.187631 0.160000
10.901905 -4.791422 0.161389 0.060000
5.217016 1.421039 0.104643 0.100000
5.380514 0.979092 0.103427 0.030000
5.473834 0.545803 0.102060 0.070000
5.571782 0.132624 0.095780 0.030000
5.510117 -0.303653 0.098997 0.080000
5.458489 -0.739682 0.087241 0.070000
5.276559 -1.163259 0.090192 0.100000
5.059662 -1.587470 0.083049 0.130000
29.627714 12.419615 3.174279 0.020000
30.282738 8.266884 3.035550 0.010000
6.488894 0.692097 0.970262 0.140000
13.107324 -1.058237 1.466037 0.220000
18.469296 -3.777531 1.879929 0.000000
45.353424 -16.302679 4.033566 0.020000
50.185989 -26.649082 4.587725 0.040000
14.591149 3.630666 0.217327 0.040000
6.744589 0.728852 0.466061 0.030000
14.773344 0.388637 0.190751 0.010000
11.280709 -3.429147 0.227443 0.230000
5.286620 1.442376 0.104904 0.090000
5.450309 0.990431 0.103651 0.030000
5.563721 0.552525 0.102320 0.080000
5.621951 0.123565 0.100877 0.030000
5.580500 -0.322290 0.094111 0.090000
5.523956 -0.763432 0.087324 0.070000
5.332124 -1.192200 0.090229 0.100000
5.125621 -1.636197 0.078040 0.120000
44.961414 19.203922 4.754540 0.040000
30.269039 8.186277 3.125216 0.040000
6.449162 0.676297 0.980100 0.180000
31.400681 0.811830 3.050756 0.020000
13.127803 -1.087978 1.500980 0.570000
18.334408 -3.790263 1.919530 0.000000
11.408928 -3.495920 1.377541 0.000000
50.107998 -26.781296 4.777032 0.060000
14.826766 5.685468 0.245581 0.040000
6.714843 0.713225 0.480926 0.060000
15.858595 0.384384 0.203568 0.010000
14.540717 -2.871467 0.198025 0.040000
11.235818 -3.440137 0.262285 0.220000
11.277057 -5.064487 0.216354 0.080000
5.366222 1.463904 0.105192 0.100000
5.515188 0.996656 0.108844 0.030000
5.623696 0.553656 0.107480 0.090000
5.727040 0.120595 0.096140 0.030000
5.635764 -0.336252 0.099204 0.090000
5.604407 -0.786914 0.092447 0.060000
5.407876 -1.230756 0.090284 0.080000
5.171270 -1.670347 0.083032 0.100000
45.637581 19.376005 5.001947 0.070000
57.234871 15.869779 5.759193 0.070000
6.504196 0.672276 1.000229 0.520000
34.759979 0.824720 3.454576 0.060000
13.113181 -1.113410 1.540848 0.430000
18.154202 -3.788915 1.974065 0.000000
11.369119 -3.511832 1.417378 0.020000
50.029919 -26.913641 5.001338 0.030000
16.959707 6.596496 0.249535 0.020000
18.317738 4.627230 0.225759 0.020000
6.729980 0.703439 0.500929 0.070000
18.788317 0.430611 0.181387 0.000000
17.095230 -1.517305 0.209727 0.010000
11.195816 -3.446051 0.302159 0.270000
11.333092 -5.123571 0.256281 0.170000
5.435812 1.485222 0.110453 0.100000
5.614787 1.018567 0.109185 0.030000
5.718583 0.560474 0.107753 0.080000
5.792206 0.111823 0.101278 0.030000
5.746127 -0.354141 0.099425 0.080000
5.654863 -0.810970 0.097489 0.050000
5.483629 -1.269312 0.090338 0.070000
5.262499 -1.733611 0.083035 0.130000
46.204453 19.511005 5.243931 0.030000
6.706762 1.316086 1.053151 0.000000
6.434566 0.650903 1.009968 0.150000
34.680832 0.762754 3.574141 0.040000
13.118445 -1.133477 1.585787 0.610000
11.329240 -3.522707 1.447234 0.040000
48.399773 -26.144890 5.044941 0.060000
13.082224 4.841358 0.387891 0.030000
13.160050 3.127509 0.391723 0.040000
6.715135 0.693098 0.515852 0.060000
13.319884 0.270138 0.361518 0.010000
13.141762 -1.133503 0.350835 0.010000
13.370914 -2.649290 0.320799 0.040000
11.150829 -3.452042 0.337020 0.190000
11.277902 -5.119774 0.296151 0.190000
5.550025 1.527417 0.110908 0.110000
5.694567 1.030079 0.114436 0.030000
5.813469 0.567293 0.108026 0.090000
5.902281 0.108931 0.101554 0.040000
5.821387 -0.367721 0.104571 0.070000
5.740327 -0.834337 0.097625 0.040000
5.549274 -1.303079 0.095384 0.070000
5.333444 -1.782261 0.083039 0.110000
45.963188 19.290741 5.407484 0.090000
6.721803 1.311300 1.073173 0.020000
6.439609 0.645925 1.029963 0.140000
35.181541 0.706710 3.745241 0.030000
13.138803 -1.158257 1.630749 0.550000
40.362099 -9.252484 4.171747 0.000000
11.319425 -3.538045 1.487152 0.090000
48.401867 -26.285700 5.269426 0.050000
13.067754 4.805873 0.442722 0.030000
6.745173 0.688599 0.535914 0.030000
13.167023 -1.153187 0.395829 0.030000
13.416363 -2.678590 0.365809 0.070000
11.090640 -3.448340 0.376877 0.220000
11.293466 -5.154629 0.336063 0.240000
5.629518 1.553926 0.116214 0.110000
5.818982 1.062486 0.109882 0.030000
5.918354 0.574303 0.108326 0.100000
5.992456 0.100657 0.101759 0.030000
5.931763 -0.385592 0.099793 0.070000
5.830884 -0.862608 0.097756 0.030000
5.655130 -1.346041 0.090500 0.070000
5.414387 -1.830719 0.083070 0.070000
46.197201 19.314438 5.623185 0.040000
6.716943 1.301132 1.093123 1.000000
6.404781 0.635219 1.039832 0.150000
35.102200 0.654741 3.864842 0.050000
40.292606 -9.299336 4.311392 0.010000
11.319703 -3.558190 1.527078 0.080000
14.689845 5.491986 0.469507 0.080000
18.115129 4.472589 0.424658 0.040000
13.260331 0.233661 0.451228 0.010000
13.132103 -1.164023 0.440698 0.030000
11.110929 -3.468084 0.411857 0.160000
5.758644 1.601425 0.111728 0.100000
5.923566 1.084474 0.115236 0.030000
6.033141 0.586503 0.108671 0.100000
6.107518 0.097841 0.107049 0.030000
6.022020 -0.398884 0.104979 0.060000
5.956628 -0.900207 0.097945 0.040000
5.750961 -1.389232 0.095590 0.060000
5.510602 -1.893906 0.088087 0.100000
46.212963 19.243921 5.842967 0.040000
6.672296 1.280218 1.107929 1.000000
6.409823 0.630242 1.059827 0.140000
35.147785 0.605092 4.004778 0.040000
11.309793 -3.568528 1.567014 0.080000
14.660282 5.461213 0.524316 0.110000
18.125328 4.452524 0.494610 0.060000
11.084339 1.296864 0.534501 0.280000
13.162363 -1.183612 0.485704 0.040000
26.339777 -5.851243 0.277748 0.040000
11.116097 -3.483152 0.456815 0.150000
5.852942 1.638220 0.117111 0.110000
6.057979 1.117073 0.110708 0.030000
6.157926 0.598895 0.109043 0.090000
6.227591 0.095140 0.107352 0.030000
6.162473 -0.421198 0.105263 0.060000
6.057171 -0.928304 0.103103 0.040000
5.856900 -1.437211 0.095688 0.050000
5.596640 -1.947268 0.088113 0.090000
57.002304 23.870981 7.358346 0.040000
6.617663 1.259132 1.117708 0.160000
6.389980 0.619805 1.074736 0.150000
35.782852 0.581572 4.191350 0.030000
39.334446 -9.173452 4.524362 0.000000
11.330163 -3.593289 1.606976 0.080000
13.121108 3.046070 0.576321 0.030000
11.064552 1.281372 0.564392 0.500000
13.097366 -1.190004 0.525511 0.040000
17.361183 -3.688549 0.462352 0.030000
11.232134 -3.541069 0.491903 0.280000
13.640306 -6.545241 0.422020 0.030000
6.021678 1.706482 0.112805 0.120000
6.192379 1.149652 0.111180 0.040000
6.302707 0.611670 0.109468 0.090000
6.377659 0.093014 0.107736 0.030000
6.302830 -0.438513 0.105565 0.050000
6.182914 -0.965903 0.103291 0.040000
5.962825 -1.485209 0.100786 0.050000
5.692867 -2.010436 0.088129 0.090000
56.992760 23.814945 7.588115 0.040000
6.597819 1.248695 1.132617 0.110000
6.389940 0.619749 1.089736 0.150000
36.402775 0.562690 4.397900 0.050000
40.630997 -4.318662 4.790795 0.130000
39.370075 -9.228367 4.684252 0.020000
11.340344 -3.608243 1.646947 0.060000
13.136180 3.036192 0.621324 0.020000
11.019744 1.265365 0.604216 0.730000
13.042259 -1.191225 0.570363 0.040000
16.728149 -3.545904 0.531231 0.020000
11.252422 -3.560812 0.526882 0.240000
13.670732 -6.574865 0.476990 0.020000
6.175500 1.769439 0.113440 0.120000
6.386493 1.198397 0.106868 0.040000
6.482303 0.635132 0.105024 0.090000
6.567649 0.096690 0.098246 0.030000
6.488396 -0.464927 0.095951 0.050000
6.323654 -1.003214 0.103520 0.030000
6.114056 -1.547306 0.095950 0.050000
5.819281 -2.083028 0.088189 0.080000
56.898743 23.727194 7.842546 0.060000
6.592768 1.248525 1.152604 0.110000
6.370084 0.609294 1.109646 0.150000
37.387596 0.545612 4.655410 0.020000
57.486050 -6.273650 6.857546 0.240000
39.380314 -9.263783 4.849149 0.030000
11.340419 -3.618408 1.691910 0.070000
14.690599 5.421163 0.694248 0.020000
18.329863 4.450708 0.695140 0.060000
11.014749 1.260140 0.639184 0.720000
12.987152 -1.192446 0.615215 0.040000
16.652815 -3.537565 0.591066 0.020000
6.349235 1.837796 0.109148 0.130000
6.535794 1.236263 0.107399 0.040000
6.641986 0.653194 0.105508 0.090000
6.722716 0.094659 0.098643 0.040000
6.628740 -0.482261 0.101253 0.060000
6.464299 -1.035526 0.103767 0.030000
6.250180 -1.604709 0.096092 0.050000
5.976085 -2.175022 0.083257 0.080000
42.882271 17.633547 6.183290 0.030000
6.582813 1.243260 1.172558 0.110000
6.424925 0.615272 1.129811 0.600000
36.163017 0.512154 4.652089 0.050000
57.480942 -6.299577 7.082438 0.160000
38.943207 -9.172523 4.953348 0.040000
11.320331 -3.618922 1.726856 0.070000
14.700454 5.421150 0.749274 0.050000
18.319778 4.445257 0.765094 0.060000
11.019739 1.255088 0.679179 0.800000
16.880203 0.242146 0.690711 0.000000
12.952042 -1.193283 0.660121 0.050000
16.622663 -3.538363 0.650985 0.030000
11.242311 -3.566300 0.606836 0.180000
13.660638 -6.585464 0.586926 0.020000
6.488142 1.895448 0.114725 0.130000
6.699997 1.279415 0.107988 0.040000
6.766662 0.670566 0.110898 0.150000
6.887672 0.097801 0.104085 0.040000
6.774096 -0.499480 0.101568 0.050000
6.625144 -1.077435 0.099031 0.030000
6.416503 -1.671517 0.091278 0.050000
6.102486 -2.247633 0.088317 0.080000
45.628571 18.819336 6.744872 0.030000
6.582774 1.243204 1.187558 0.100000
6.355104 0.603896 1.139587 0.640000
40.376011 0.565466 5.313291 0.050000
45.967026 -5.000696 5.922200 0.100000
38.757313 -9.146573 5.087961 0.050000
11.320322 -3.624069 1.766837 0.060000
14.665687 5.400261 0.809106 0.130000
18.289902 4.429444 0.829958 0.060000
11.014662 1.254880 0.709165 0.720000
30.858635 0.434339 0.877915 0.000000
12.891839 -1.189601 0.704978 0.070000
