# This PCD file was generated using the MATLAB® pcwrite function
# from Computer Vision Toolbox®.
# .PCD v.7 - Point Cloud Data file format
VERSION .7
FIELDS x y z intensity
SIZE 4 4 4 4
TYPE F F F F
COUNT 1 1 1 1
WIDTH 1288
HEIGHT 1
VIEWPOINT 0 0 0 1 0 0 0
POINTS 1288
DATA ascii
11.912712 -0.795189 1.223894 0.120000
32.567848 -6.525243 2.516522 0.050000
10.643042 4.020214 0.183469 0.090000
10.967429 2.751220 0.174599 0.030000
11.151883 0.434380 0.156468 0.020000
10.818301 -0.687225 0.156427 0.030000
10.438291 -1.734706 0.156542 0.020000
10.134168 -2.825687 0.141692 0.030000
9.523926 -3.862557 0.136245 0.060000
51.485867 23.652113 10.938169 0.030000
6.062114 1.247573 1.366217 0.570000
6.077634 0.702884 1.334233 1.120000
41.580643 1.830070 7.691161 0.020000
42.054050 -3.301789 7.678320 0.110000
11.292223 -3.276508 2.303061 0.030000
45.002750 -22.979092 9.057884 0.090000
29.546955 13.039736 2.751369 0.230000
5.994051 1.213024 0.885906 0.660000
31.330883 1.407836 2.442783 0.040000
11.947061 -0.759489 1.214116 0.130000
32.469833 -6.361908 2.466873 0.080000
13.479003 -3.991069 1.301103 0.020000
10.414234 3.955820 0.182633 0.100000
10.693247 2.705961 0.173715 0.040000
10.850475 1.548805 0.159824 0.070000
10.926363 0.460084 0.150974 0.030000
10.657386 -0.640280 0.151182 0.030000
10.276992 -1.667765 0.151369 0.020000
9.962296 -2.728943 0.136603 0.020000
9.396867 -3.754935 0.126313 0.060000
50.797421 23.594706 10.721157 0.020000
6.071742 1.267779 1.361317 0.600000
6.102247 0.723359 1.334373 0.550000
41.342884 1.985910 7.591119 0.030000
41.019623 -3.045638 7.426569 0.140000
45.245480 -22.849182 8.994000 0.060000
29.514544 13.174377 2.686784 0.210000
6.028496 1.243725 0.876110 0.360000
6.053688 0.714169 0.859207 0.000000
31.308842 1.522654 2.383151 0.040000
11.981436 -0.723751 1.194339 0.130000
11.744983 -1.953460 1.179150 0.030000
13.437735 -3.921755 1.276253 0.040000
13.596013 -5.924242 1.314222 0.010000
10.135833 3.870492 0.176589 0.100000
10.468795 2.676694 0.163020 0.040000
10.595535 1.543940 0.154140 0.070000
10.715828 0.486056 0.150521 0.030000
10.416294 -0.584869 0.145759 0.030000
10.095602 -1.596208 0.146162 0.030000
9.815612 -2.641718 0.131544 0.020000
9.183841 -3.598987 0.126337 0.060000
50.777306 23.874720 10.627145 0.060000
6.082002 0.738029 1.319375 0.650000
41.509476 2.174372 7.527254 0.020000
40.916374 -2.862198 7.321980 0.090000
43.917591 -21.872992 8.599158 0.090000
29.516552 13.339684 2.622403 0.210000
6.093310 0.734950 0.854388 0.020000
13.230377 0.640208 1.257670 0.020000
12.045696 -0.682458 1.179660 0.100000
11.633740 -1.885468 1.149112 0.070000
13.524105 -5.820473 1.279420 0.040000
9.882235 3.795640 0.170649 0.110000
10.169713 2.625957 0.162051 0.040000
10.335680 1.533961 0.153425 0.080000
10.460409 0.506187 0.144929 0.030000
10.220290 -0.533596 0.140437 0.030000
9.924210 -1.524460 0.140981 0.020000
9.608446 -2.530666 0.131416 0.030000
8.996193 -3.462557 0.126354 0.060000
50.678268 24.103357 10.492734 0.080000
6.080917 1.313018 1.346509 0.110000
6.071743 0.752872 1.309403 1.020000
44.023014 2.486283 7.884978 0.010000
42.470146 -2.808073 7.501239 0.160000
44.063969 -21.669823 8.510295 0.070000
29.498562 13.504606 2.557969 0.210000
6.047669 1.289156 0.861329 0.440000
6.068053 0.749506 0.844376 1.000000
31.289297 1.777801 2.254047 0.020000
12.645654 -0.676003 1.191250 0.080000
11.607840 -1.835882 1.129228 0.170000
15.846379 -4.621006 1.349941 0.010000
13.512569 -5.735551 1.244705 0.020000
9.593931 3.705121 0.164559 0.110000
9.880642 2.575430 0.156108 0.040000
10.085849 1.524211 0.142736 0.050000
10.179996 0.525838 0.139270 0.030000
10.004290 -0.482705 0.135063 0.030000
9.727631 -1.443192 0.135770 0.020000
9.376012 -2.405077 0.126277 0.020000
8.783275 -3.311589 0.121360 0.070000
52.222099 25.197458 10.680833 0.020000
6.080560 1.333052 1.336583 0.100000
6.081370 0.773078 1.304503 1.020000
42.746307 2.608026 7.562094 0.020000
42.441605 -2.608181 7.391907 0.090000
45.613251 -22.160788 8.662516 0.070000
29.480516 13.674583 2.478553 0.140000
5.992705 1.288139 0.851182 0.500000
6.057698 0.769347 0.834423 1.000000
13.223593 0.740279 1.208023 0.010000
12.609780 -0.626571 1.161340 0.120000
11.546792 -1.776912 1.094288 0.210000
13.384160 -3.722398 1.181853 0.010000
9.276003 3.594012 0.163316 0.110000
9.606569 2.525191 0.150206 0.040000
6.517179 0.869980 0.340991 0.010000
9.944478 0.551350 0.133751 0.030000
9.788289 -0.431815 0.129688 0.030000
9.440864 -1.353668 0.135354 0.030000
9.103571 -2.280273 0.126029 0.030000
7.853244 -2.804513 0.175817 0.040000
6.075204 1.352989 1.326643 0.120000
6.095915 0.798398 1.294635 0.510000
11.247576 0.643990 2.137517 0.000000
41.342239 -2.348071 7.085001 0.100000
44.194504 -21.136221 8.237617 0.050000
13.076177 5.547938 1.325511 0.040000
6.027054 1.323840 0.841404 0.360000
31.254330 2.057731 2.104995 0.050000
12.583810 -0.571949 1.131474 0.120000
11.525903 -1.727212 1.069418 0.320000
13.524876 -5.585032 1.175296 0.020000
8.953089 3.482827 0.157060 0.110000
9.287779 2.459074 0.149128 0.050000
6.521726 0.895108 0.331096 0.070000
9.669159 0.566099 0.128087 0.030000
9.542294 -0.381499 0.124233 0.030000
9.189295 -1.273453 0.129996 0.020000
8.815942 -2.145758 0.125779 0.030000
7.887906 -2.783772 0.155985 0.050000
52.472431 25.998255 10.449461 0.010000
6.069861 1.372945 1.311703 0.280000
6.090667 0.813355 1.279677 0.830000
11.256763 0.689247 2.117709 0.010000
41.513874 -2.159457 7.006149 0.100000
44.542484 -21.014187 8.143977 0.100000
29.394583 14.008657 2.299568 0.200000
6.016712 1.343701 0.826451 0.340000
6.037096 0.804051 0.809497 0.030000
31.221817 2.202501 2.005447 0.020000
12.562851 -0.517212 1.096623 0.120000
11.530023 -1.677014 1.039615 0.290000
13.457208 -3.610741 1.117458 0.010000
13.513367 -5.500072 1.130581 0.020000
8.635269 3.366738 0.150799 0.120000
8.978904 2.398166 0.143095 0.040000
6.506384 0.914873 0.316129 0.210000
9.313843 0.579296 0.127208 0.030000
9.231202 -0.327447 0.123622 0.030000
8.912525 -1.183738 0.129607 0.030000
8.613885 -2.039590 0.120646 0.030000
8.074017 -2.835089 0.121279 0.090000
52.619335 26.441660 10.311492 0.060000
6.109196 1.408723 1.306939 0.390000
6.070327 0.833024 1.264697 1.080000
41.700443 -1.965502 6.912356 0.100000
40.270855 -6.933098 6.710156 0.020000
40.770149 -12.410530 6.971101 0.000000
44.325298 -20.612522 7.939901 0.080000
13.058598 5.692903 1.251004 0.080000
6.011356 1.363638 0.816511 0.260000
6.011853 0.818625 0.794486 0.040000
31.199455 2.337408 1.920890 0.040000
12.561971 -0.467110 1.066807 0.130000
11.544223 -1.631643 1.014820 0.360000
15.503685 -4.196816 1.165622 0.030000
10.635384 -4.044346 0.968479 0.030000
8.352142 3.266298 0.149687 0.110000
8.650293 2.321841 0.146954 0.050000
6.446230 0.923759 0.306005 0.230000
8.988616 0.588069 0.126392 0.030000
8.925314 -0.283279 0.117987 0.030000
8.630854 -1.099118 0.129186 0.030000
8.396831 -1.933710 0.115473 0.030000
7.921772 -2.717947 0.111317 0.080000
52.721806 26.859320 10.143310 0.060000
6.049176 1.412666 1.281796 0.440000
6.089870 0.858439 1.254842 0.790000
11.225214 0.778897 2.052959 0.030000
41.822105 -1.772679 6.788390 0.160000
40.227245 -6.723328 6.555821 0.030000
40.363724 -12.047425 6.746387 0.010000
44.541649 -20.397755 7.781263 0.110000
6.031396 0.844040 0.784631 0.040000
12.601097 -0.416224 1.032097 0.140000
11.563352 -1.581139 0.980058 0.340000
13.409659 -3.466314 1.032870 0.020000
10.609042 -3.969709 0.933687 0.090000
8.044309 3.150382 0.148452 0.110000
8.371412 2.261508 0.141002 0.050000
8.703382 0.597608 0.125683 0.030000
8.664405 -0.238268 0.117474 0.030000
8.364287 -1.019190 0.123787 0.030000
8.154672 -1.823328 0.115251 0.030000
7.754516 -2.601111 0.106315 0.070000
48.960434 25.190161 9.262278 0.050000
6.084527 0.878396 1.239902 0.470000
11.164468 0.822888 2.012964 0.020000
40.002758 -6.466940 6.381186 0.030000
38.724945 -11.287190 6.339932 0.020000
46.069542 -20.803785 7.843742 0.030000
13.090364 5.873855 1.166758 0.080000
6.006152 0.858614 0.769619 0.040000
13.223780 1.015973 1.034047 0.000000
12.600230 -0.366103 0.997281 0.140000
11.592671 -1.540442 0.945285 0.360000
15.556253 -4.055418 1.066284 0.040000
10.562610 -3.890456 0.898860 0.120000
7.786095 3.055438 0.142425 0.110000
8.062716 2.190583 0.139932 0.050000
8.283320 1.379701 0.127494 0.100000
8.433145 0.607434 0.125014 0.030000
8.348493 -0.194329 0.121812 0.030000
8.173078 -0.957841 0.123516 0.020000
7.907609 -1.718042 0.114997 0.030000
6.143941 -1.822314 0.240007 0.030000
48.865566 25.469070 9.078065 0.050000
6.063281 1.463037 1.257020 0.070000
6.074185 0.898256 1.224949 0.560000
11.138810 0.862550 1.973044 0.130000
43.020844 -1.419256 6.682831 0.170000
39.873985 -6.248781 6.221659 0.020000
38.776672 -11.095634 6.195777 0.030000
11.321670 -4.260311 2.079479 0.010000
6.030708 0.884144 0.754778 0.040000
11.186351 0.877313 0.923212 0.010000
12.674350 -0.314546 0.962666 0.090000
11.641973 -1.499381 0.915566 0.170000
15.705768 -4.022383 1.021796 0.140000
10.581821 -3.844970 0.869079 0.210000
7.527963 2.955477 0.141380 0.100000
7.838634 2.141301 0.134164 0.050000
8.018848 1.349631 0.126691 0.110000
8.143104 0.606879 0.124255 0.030000
8.112783 -0.158818 0.116329 0.030000
7.916701 -0.887721 0.118108 0.020000
7.771224 -1.645604 0.104911 0.030000
6.148514 -1.797148 0.220113 0.140000
45.827942 24.113314 8.340089 0.050000
6.067840 1.488184 1.242125 0.070000
6.044051 0.907754 1.204905 0.810000
43.097473 -1.222222 6.538762 0.110000
38.883499 -10.908006 6.046752 0.030000
11.310460 -4.190330 2.029709 0.060000
13.072849 6.018911 1.067251 0.070000
6.065166 0.914865 0.739982 0.130000
11.245473 0.928583 0.888557 0.010000
10.570778 -3.785024 0.829273 0.180000
7.279843 2.855726 0.135361 0.100000
7.584831 2.076429 0.133260 0.040000
7.789179 1.330229 0.126020 0.100000
7.907969 0.612395 0.118661 0.030000
7.852065 -0.123805 0.115779 0.040000
7.805885 -0.844799 0.107978 0.020000
7.564442 -1.554548 0.104709 0.030000
6.132981 -1.767386 0.205183 0.180000
45.357967 24.145309 8.068978 0.030000
6.052595 1.502949 1.227140 0.070000
6.073593 0.933361 1.195077 0.840000
46.975204 -1.119295 6.919271 0.180000
39.556633 -5.818481 5.867427 0.030000
39.061218 -10.769101 5.917731 0.020000
11.324591 -4.139922 1.994933 0.070000
13.012115 6.062921 1.022255 0.020000
14.835883 4.837578 1.037461 0.160000
6.030020 0.924248 0.724925 0.280000
11.179811 0.967461 0.853529 1.000000
13.325405 -1.657021 0.879374 0.150000
13.410242 -3.210598 0.853820 0.060000
10.574828 -3.729790 0.789488 0.250000
7.031711 2.755956 0.134343 0.100000
7.360844 2.022148 0.127474 0.060000
7.554715 1.300752 0.120298 0.110000
7.697829 0.618390 0.113135 0.030000
7.676440 -0.092145 0.110438 0.040000
7.564589 -0.779408 0.107591 0.030000
7.382860 -1.472993 0.099538 0.040000
6.137540 -1.742239 0.190288 0.160000
45.031261 24.264954 7.828568 0.020000
6.057154 1.528096 1.212245 0.140000
6.058251 0.953126 1.180111 0.960000
11.191474 0.998950 1.873687 0.020000
46.901527 -0.899934 6.719892 0.220000
39.377838 -5.596188 5.682785 0.020000
40.022732 -10.835607 5.894994 0.010000
11.348650 -4.084287 1.950202 0.330000
13.055417 6.158951 0.972725 0.030000
14.794980 4.892005 0.982556 0.090000
5.974877 0.933249 0.709814 0.380000
11.159235 1.002201 0.818604 0.070000
13.272129 -0.177670 0.854734 0.010000
13.334549 -1.606691 0.839585 0.140000
10.584151 -3.689476 0.754662 0.340000
6.828282 2.672045 0.133500 0.100000
7.131941 1.962753 0.126656 0.060000
7.340138 1.276638 0.119648 0.110000
7.467777 0.618985 0.112537 0.030000
7.450908 -0.066460 0.109945 0.040000
7.358478 -0.723346 0.107262 0.030000
7.120883 -1.373011 0.104226 0.040000
48.912937 26.763159 8.277991 0.040000
6.046824 1.547975 1.192292 0.230000
6.072905 0.973465 1.165224 0.810000
11.265663 1.045470 1.849054 0.010000
46.848198 -0.700224 6.530493 0.150000
40.402699 -5.576484 5.665533 0.010000
38.632145 -10.245814 5.533553 0.030000
13.039318 6.223855 0.917924 0.030000
14.768978 4.951720 0.927710 0.050000
5.979533 0.953396 0.694901 0.360000
11.088681 1.036003 0.778545 0.090000
13.393276 -3.095572 0.764203 0.040000
10.633658 -3.658395 0.719907 0.200000
6.619867 2.588057 0.127643 0.100000
6.952658 1.924331 0.121045 0.050000
7.125562 1.252524 0.118999 0.110000
7.277716 0.620345 0.112046 0.030000
7.255287 -0.035182 0.104550 0.040000
7.152462 -0.672282 0.106914 0.030000
6.959585 -1.306070 0.099054 0.040000
6.681628 -1.936486 0.090985 0.100000
48.868179 27.043194 8.048913 0.030000
6.051479 1.568123 1.177379 0.270000
6.062671 0.988345 1.145253 0.640000
11.264988 1.085593 1.814201 0.020000
36.564281 -0.386732 5.034799 0.200000
40.645309 -5.431335 5.536705 0.030000
40.272362 -10.509631 5.586854 0.010000
13.033108 6.293932 0.868167 0.020000
14.708284 4.995785 0.867714 0.110000
11.142805 1.087177 0.743877 0.040000
13.260463 -0.077528 0.760075 0.010000
10.652992 -3.617870 0.680107 0.220000
6.441242 2.514623 0.126904 0.090000
6.758653 1.870606 0.120339 0.060000
6.926092 1.223717 0.113371 0.120000
7.077754 0.616515 0.111510 0.030000
7.054845 -0.014017 0.104106 0.040000
7.006640 -0.630049 0.101690 0.030000
6.793275 -1.239243 0.098868 0.040000
6.529836 -1.844377 0.090931 0.100000
50.553829 28.325594 8.088080 0.030000
6.036247 1.582907 1.157394 0.190000
11.264326 1.125734 1.774348 0.060000
36.621761 -0.235091 4.895511 0.180000
40.627308 -5.251024 5.367326 0.010000
38.736340 -9.897602 5.220116 0.020000
11.214754 -3.861261 1.800680 0.090000
13.036897 6.364201 0.818438 0.050000
14.692281 5.055691 0.812895 0.220000
11.152224 1.122491 0.709032 0.070000
13.279701 -0.032005 0.720294 0.000000
13.296938 -1.451889 0.705061 0.030000
13.401510 -2.990048 0.669615 0.020000
10.717784 -3.601498 0.645337 0.130000
6.267616 2.441285 0.126178 0.080000
6.579549 1.822168 0.119691 0.060000
6.741496 1.200159 0.117802 0.120000
6.902704 0.618181 0.106059 0.030000
6.889397 0.007818 0.103755 0.050000
6.805707 -0.583908 0.106337 0.030000
6.657164 -1.181822 0.093727 0.040000
6.378139 -1.757267 0.090859 0.100000
50.854965 28.811996 7.940673 0.030000
6.032194 1.017895 1.110283 0.130000
11.233752 1.160283 1.739396 0.140000
36.849503 -0.100320 4.791606 0.290000
40.574562 -5.086437 5.212799 0.000000
38.527523 -9.675920 5.045393 0.020000
11.193726 -3.801489 1.755847 0.190000
14.681276 5.115693 0.758088 0.170000
6.297195 1.084668 0.651218 0.020000
11.131648 1.157232 0.674107 0.040000
13.420775 -2.944487 0.619834 0.010000
6.118807 2.378442 0.120556 0.070000
6.375641 1.763252 0.118940 0.050000
6.581827 1.182117 0.112318 0.120000
6.722724 0.614715 0.110576 0.030000
6.709047 0.024367 0.103346 0.040000
6.675073 -0.551386 0.101117 0.030000
6.470748 -1.110397 0.098505 0.030000
6.231538 -1.675060 0.090782 0.110000
44.781235 25.449078 6.822306 0.020000
6.051846 1.038330 1.095410 0.130000
11.198301 1.189774 1.694413 1.000000
36.962234 0.037340 4.662410 0.140000
57.391323 -7.091122 6.994261 0.090000
39.248375 -9.701808 4.962177 0.020000
11.197980 -3.756234 1.711026 0.230000
13.044486 6.504755 0.713979 0.040000
6.316764 1.110121 0.631363 0.040000
11.091185 1.186609 0.634110 0.170000
13.298304 0.053697 0.630660 0.010000
12.994751 -1.327306 0.609734 0.020000
16.385242 -3.662601 0.559902 0.010000
10.867498 -3.573314 0.560832 0.100000
5.930458 2.289801 0.124735 0.070000
6.241254 1.730691 0.113468 0.050000
6.407339 1.153770 0.111757 0.120000
6.567766 0.611765 0.105161 0.030000
6.563691 0.041586 0.103030 0.040000
6.504243 -0.509650 0.100826 0.030000
6.349825 -1.062687 0.093367 0.030000
6.084936 -1.592853 0.090705 0.090000
46.091686 26.484430 6.809576 0.020000
6.026698 1.047905 1.080380 0.130000
11.087961 1.212830 1.649210 0.170000
36.200184 0.168593 4.435907 0.310000
57.483154 -6.893503 6.770233 0.030000
39.125214 -9.513492 4.787554 0.020000
11.212316 -3.715806 1.671213 0.160000
15.065488 7.783889 0.669009 0.040000
6.291630 1.119714 0.611333 0.070000
11.065706 1.216254 0.599154 0.350000
13.194653 -1.313291 0.560307 0.070000
13.374020 -2.840016 0.525100 0.020000
10.942493 -3.566730 0.521051 0.090000
5.791634 2.227131 0.124140 0.060000
6.052426 1.667045 0.117738 0.050000
6.252847 1.125806 0.111250 0.100000
6.392895 0.603414 0.104673 0.030000
6.373426 0.052926 0.107576 0.040000
6.343602 -0.477721 0.100525 0.030000
6.208797 -1.010378 0.093193 0.030000
5.953619 -1.525356 0.090613 0.090000
46.014030 26.653799 6.585000 0.020000
6.041351 1.068244 1.065493 0.220000
11.052606 1.237322 1.604208 0.370000
36.183456 0.278824 4.291271 0.250000
39.735607 -4.545264 4.627614 0.020000
39.223312 -9.391005 4.628264 0.010000
11.327563 -3.723490 1.641485 0.330000
13.027681 6.614875 0.599343 0.040000
13.110817 4.626134 0.587168 0.020000
6.281479 1.129577 0.596343 0.070000
11.015327 1.240422 0.564112 1.170000
13.153902 -1.268917 0.520365 0.080000
11.072944 -3.584107 0.486327 0.120000
5.652905 2.159462 0.123526 0.050000
5.918109 1.629448 0.122248 0.040000
6.078441 1.092442 0.115670 0.110000
6.233007 0.595333 0.109226 0.030000
6.218154 0.064936 0.112215 0.040000
6.187947 -0.445714 0.105238 0.030000
6.113049 -0.972205 0.093085 0.030000
5.842490 -1.467474 0.090538 0.100000
48.268692 28.246967 6.676808 0.040000
6.026310 1.073030 1.045472 0.300000
11.037221 1.262160 1.569260 0.380000
35.057022 0.378185 4.038698 0.250000
41.241821 -4.596481 4.646356 0.010000
11.316808 -3.678541 1.601624 0.410000
14.707355 5.352059 0.534033 0.100000
6.286230 1.144726 0.581412 0.090000
11.054741 1.276312 0.529348 0.630000
13.266554 0.163603 0.495984 0.000000
13.193438 -1.237990 0.475583 0.120000
13.387828 -2.764390 0.430416 0.000000
11.263888 -3.625292 0.441672 0.160000
5.533886 2.107174 0.123021 0.050000
5.759097 1.576393 0.121636 0.040000
5.958751 1.075147 0.115294 0.090000
6.093130 0.587652 0.108832 0.030000
6.077907 0.077271 0.106895 0.040000
6.082501 -0.422711 0.100048 0.040000
6.002220 -0.929302 0.087956 0.030000
5.761560 -1.418997 0.085507 0.090000
51.817650 30.654610 6.900024 0.030000
6.031061 1.088179 1.030540 0.220000
11.016850 1.286921 1.529298 0.400000
35.095520 0.474398 3.914155 0.280000
13.180338 -1.247734 1.700525 0.010000
146.261658 -35.563164 15.035480 0.010000
11.331444 -3.653092 1.556756 0.320000
11.622322 5.848100 0.517824 0.020000
14.706541 5.402254 0.479217 0.050000
6.285995 1.159797 0.561467 0.120000
11.208954 1.324420 0.489929 2.191000
13.336071 0.195087 0.456282 0.010000
13.132787 -1.198998 0.435569 0.090000
13.457632 -2.747903 0.390659 0.020000
11.137374 -3.542572 0.406649 0.230000
5.424865 2.055077 0.122543 0.050000
5.669593 1.549674 0.121303 0.030000
5.809245 1.047260 0.119800 0.090000
5.983150 0.585546 0.108537 0.030000
5.977734 0.085354 0.106664 0.050000
5.961948 -0.395015 0.099837 0.040000
5.886462 -0.891530 0.092794 0.030000
5.650514 -1.366133 0.090414 0.100000
51.715611 30.793560 6.660272 0.030000
46.240215 19.175714 5.492781 0.030000
6.011021 1.092869 1.010505 0.170000
11.051347 1.317697 1.499503 0.310000
35.159218 0.561110 3.784642 0.300000
13.174881 -1.217668 1.655622 0.010000
11.295705 -3.608603 1.511828 0.290000
11.661213 5.914058 0.463170 0.060000
13.083997 4.741172 0.442524 0.030000
6.280843 1.169755 0.546490 0.150000
13.142424 -1.173644 0.390688 0.100000
13.371724 -2.694356 0.340633 0.030000
11.071437 -3.488679 0.366676 0.380000
5.345563 2.018570 0.117200 0.050000
5.550382 1.507384 0.120834 0.040000
5.714563 1.030462 0.114490 0.090000
5.863268 0.578248 0.108197 0.030000
5.867562 0.093245 0.106405 0.050000
5.866583 -0.376839 0.099655 0.040000
5.775812 -0.858644 0.092627 0.030000
5.559586 -1.317848 0.085356 0.110000
51.643963 30.913107 6.415527 0.020000
43.566177 18.121002 5.021875 0.040000
6.020758 1.108095 1.000587 0.150000
11.145833 1.349623 1.469868 0.350000
34.988094 0.638378 3.639481 0.300000
13.124351 -1.183447 1.605617 0.040000
11.315410 -3.588094 1.476955 0.650000
13.068542 4.771047 0.397594 0.030000
6.285607 1.184922 0.526559 0.160000
13.320254 0.250124 0.366445 0.010000
13.386360 -2.668906 0.295766 0.030000
11.086142 -3.468265 0.331790 0.360000
5.236625 1.961455 0.121703 0.040000
5.470793 1.485874 0.115547 0.040000
5.614965 1.008551 0.114149 0.100000
5.768382 0.571430 0.107924 0.030000
5.772388 0.101424 0.106187 0.050000
5.761220 -0.358853 0.099447 0.040000
5.705264 -0.829971 0.087550 0.030000
5.478834 -1.279387 0.085288 0.120000
53.064213 31.965714 6.363147 0.020000
43.549515 18.231327 4.852240 0.050000
6.005717 1.112881 0.980565 0.130000
11.155539 1.369940 1.434968 0.260000
34.787361 0.695075 3.494166 0.240000
13.124072 -1.163302 1.565691 0.110000
145.938660 -34.372486 13.224045 0.020000
11.289861 -3.553412 1.432017 0.640000
11.497040 5.881219 0.377618 0.130000
6.275552 1.189786 0.511551 0.160000
10.958687 1.349999 0.389369 0.070000
11.106051 -3.457735 0.291881 0.320000
5.167225 1.930139 0.116406 0.040000
5.366483 1.448870 0.115137 0.040000
5.540171 0.997116 0.113911 0.100000
5.683494 0.564803 0.107678 0.020000
5.682310 0.104699 0.105964 0.050000
5.700956 -0.344987 0.094341 0.040000
5.614706 -0.801701 0.087418 0.030000
5.413176 -1.245639 0.085242 0.100000
53.136116 32.157913 6.149047 0.030000
43.473766 18.295565 4.667279 0.050000
6.015563 1.123126 0.965629 0.100000
11.135333 1.384666 1.404970 0.280000
34.841503 0.756545 3.379535 0.180000
13.093716 -1.138714 1.520703 0.090000
18.415125 -3.833908 1.969579 0.000000
11.329849 -3.547517 1.397143 0.450000
11.378016 5.834060 0.342132 0.130000
14.739125 5.558693 0.264881 0.040000
6.290397 1.200127 0.496628 0.130000
10.943590 1.359839 0.354366 0.070000
15.719278 0.346691 0.208064 0.020000
15.030728 -1.301805 0.205139 0.030000
13.225065 -2.591688 0.215631 0.020000
11.151147 -3.456725 0.252002 0.290000
5.068298 1.873234 0.115936 0.040000
5.301878 1.427629 0.114889 0.030000
5.440573 0.975205 0.113569 0.080000
5.603617 0.558290 0.102445 0.020000
5.617239 0.108472 0.100809 0.050000
5.590580 -0.327116 0.099120 0.040000
5.559346 -0.782739 0.082344 0.030000
5.337532 -1.212063 0.080169 0.110000
28.930218 16.951324 3.389306 0.010000
29.616579 12.214273 3.198487 0.020000
6.015493 1.128163 0.955647 0.130000
11.135233 1.394794 1.370007 0.270000
31.387701 0.716840 2.975368 0.190000
13.063456 -1.119125 1.475696 0.100000
18.188745 -3.752936 1.889288 0.000000
11.338237 5.828462 0.297007 0.160000
13.494076 5.029810 0.244665 0.030000
6.280342 1.204990 0.481619 0.110000
10.953379 1.375140 0.324448 0.070000
14.574314 0.334779 0.200031 0.010000
14.008263 -1.181329 0.192918 0.030000
13.074036 -2.534442 0.180449 0.030000
11.186219 -3.455943 0.222096 0.270000
5.018704 1.852299 0.110729 0.040000
5.222468 1.396102 0.114565 0.030000
5.385787 0.964172 0.108385 0.090000
5.518825 0.546664 0.102181 0.020000
5.542157 0.112035 0.100626 0.050000
5.530413 -0.318248 0.093996 0.030000
5.478881 -0.759276 0.082222 0.030000
5.261876 -1.178506 0.080097 0.110000
28.934654 16.996838 3.274486 0.020000
29.591404 12.239217 3.083513 0.040000
6.015437 1.133217 0.940666 0.260000
11.125134 1.404731 1.335017 0.300000
31.402275 0.752474 2.880537 0.190000
13.068355 -1.108901 1.440747 0.140000
18.173344 -3.722987 1.824358 0.000000
11.258918 5.797066 0.261683 0.140000
12.749907 4.720559 0.226573 0.040000
6.280299 1.210063 0.461638 0.100000
10.958181 1.390363 0.289517 0.110000
13.669317 0.327482 0.187642 0.020000
12.003646 -0.964830 0.228490 0.070000
12.234989 -2.330457 0.174017 0.030000
11.241518 -3.464720 0.177208 0.190000
4.959385 1.816156 0.110439 0.030000
5.147962 1.369671 0.114272 0.030000
5.291175 0.942338 0.113057 0.090000
5.448934 0.540325 0.101975 0.020000
5.457173 0.110407 0.100398 0.040000
5.435131 -0.305089 0.098796 0.040000
5.413510 -0.740525 0.082121 0.030000
5.186206 -1.144968 0.085024 0.110000
28.924191 17.037067 3.159607 0.040000
29.581120 12.269429 2.973597 0.070000
6.045279 1.143846 0.925783 0.510000
11.144922 1.420223 1.305126 0.240000
31.397001 0.782800 2.765635 0.210000
12.947946 -1.081000 1.385535 0.060000
18.097857 -3.689189 1.759286 0.000000
11.219222 5.786450 0.221539 0.130000
12.070332 4.432529 0.213728 0.040000
6.275243 1.215023 0.446643 0.080000
10.948166 1.395282 0.259509 0.100000
12.794495 0.310744 0.180296 0.020000
11.958554 -0.955563 0.193407 0.050000
11.662248 -2.191365 0.163039 0.030000
4.914790 1.795317 0.105246 0.030000
5.098367 1.348735 0.109065 0.020000
5.236486 0.926306 0.107855 0.100000
5.374043 0.533889 0.101755 0.010000
5.397089 0.114257 0.100255 0.040000
5.395055 -0.300837 0.093707 0.100000
5.313050 -0.717445 0.081944 0.030000
5.140844 -1.125815 0.079977 0.120000
28.919300 17.047396 3.044631 0.070000
29.571230 12.279663 2.858608 0.080000
6.000531 1.133060 0.905626 0.730000
11.135015 1.420161 1.270100 0.250000
31.382099 0.792920 2.655633 0.220000
12.907962 -1.076618 1.345447 0.070000
18.052652 -3.669813 1.694240 0.000000
33.416679 -11.975994 2.783479 0.120000
11.450456 4.160646 0.201099 0.050000
6.290184 1.220365 0.431702 0.060000
10.968158 1.400794 0.224581 0.080000
12.204631 0.299481 0.168714 0.020000
11.828274 -0.937945 0.163132 0.060000
11.094492 -2.052195 0.157074 0.030000
4.835763 1.743794 0.104848 0.030000
5.013958 1.317113 0.108727 0.020000
5.156884 0.904778 0.107567 0.100000
5.294250 0.522359 0.101504 0.010000
5.302106 0.112437 0.100001 0.030000
5.319878 -0.292276 0.093543 0.130000
5.237681 -0.698885 0.081816 0.040000
5.095578 -1.111661 0.074911 0.120000
28.889811 17.037270 2.924515 0.090000
29.566422 12.284975 2.748614 0.080000
6.005460 1.138192 0.895658 0.800000
11.134997 1.425272 1.240118 0.260000
31.402178 0.803691 2.550724 0.240000
12.958044 -1.075531 1.310581 0.070000
17.967358 -3.646204 1.629104 0.000000
33.391735 -11.960993 2.653468 0.160000
10.860384 3.899336 0.188587 0.050000
6.295222 1.220516 0.416715 0.040000
11.132752 1.429098 0.185116 0.100000
11.604865 0.283029 0.157087 0.020000
11.206965 -0.874815 0.156745 0.050000
10.607297 -1.941488 0.151214 0.030000
10.067547 -3.001976 0.135863 0.070000
4.791264 1.717956 0.099635 0.020000
4.964446 1.291160 0.108501 0.020000
5.097183 0.888631 0.107351 0.080000
5.244464 0.511422 0.096333 0.010000
5.222121 0.110905 0.099786 0.030000
5.167407 -0.685228 0.081684 0.040000
5.014923 -1.078200 0.074825 0.120000
28.900160 17.037964 2.789544 0.070000
29.596621 12.290977 2.633714 0.070000
5.995610 1.133076 0.875613 0.680000
11.115285 1.415021 1.205028 0.240000
31.407629 0.794160 2.450702 0.230000
13.013330 -1.084327 1.270692 0.130000
17.098783 -3.452401 1.517556 0.000000
11.329478 -3.496690 1.172329 0.010000
9.509799 4.698575 0.198033 0.050000
10.344806 3.664439 0.181368 0.050000
6.280359 1.215286 0.401657 0.060000
11.115161 0.263665 0.150737 0.020000
10.731205 -0.838902 0.150636 0.060000
10.230764 -1.863649 0.140521 0.040000
9.750428 -2.892993 0.125440 0.050000
4.736945 1.681909 0.099360 0.020000
4.924850 1.270417 0.103321 0.010000
5.037578 0.867486 0.107117 0.040000
5.179668 0.500179 0.096122 0.010000
5.177226 0.105044 0.099647 0.030000
5.179712 -0.284959 0.093204 0.020000
5.097119 -0.671590 0.086551 0.040000
4.969739 -1.069064 0.074741 0.120000
28.931482 16.983938 2.684423 0.040000
29.613028 12.231647 2.533535 0.030000
11.110664 1.400058 1.169960 0.240000
13.226951 0.295026 1.271378 0.060000
12.988809 -1.104672 1.235552 0.140000
17.019217 -3.468744 1.467287 0.000000
11.309848 -3.511959 1.142220 0.070000
9.208893 4.482792 0.191445 0.040000
10.042763 3.508663 0.170001 0.050000
6.285493 1.210438 0.386652 0.080000
10.710729 0.230932 0.144560 0.020000
10.360808 -0.820974 0.144736 0.060000
9.954884 -1.818887 0.129967 0.040000
9.428476 -2.794141 0.124967 0.060000
4.692719 1.641055 0.099092 0.020000
4.875434 1.239465 0.103077 0.010000
5.007884 0.851933 0.101982 0.040000
5.124966 0.484129 0.095920 0.010000
5.147436 0.094490 0.094530 0.030000
5.099618 -0.281510 0.098008 0.020000
5.062139 -0.672242 0.081457 0.040000
4.899356 -1.050426 0.079626 0.110000
13.055037 4.822351 1.337759 0.010000
5.976158 1.107791 0.850468 0.120000
11.121194 1.375329 1.149896 0.240000
13.267693 0.260911 1.241357 0.170000
12.974369 -1.129843 1.205421 0.150000
13.453728 -2.661025 1.225980 0.000000
11.290396 -3.537244 1.117075 0.200000
8.972304 4.303248 0.185160 0.050000
9.750788 3.348043 0.168642 0.060000
6.285807 1.195478 0.376597 0.120000
10.380955 1.259798 0.147524 0.010000
10.446271 0.200880 0.138758 0.020000
10.145862 -0.825073 0.139160 0.050000
9.724365 -1.793279 0.124460 0.040000
9.227472 -2.742964 0.119633 0.050000
4.678106 1.620772 0.098979 0.020000
4.831004 1.208590 0.107846 0.010000
4.973273 0.831267 0.101814 0.030000
5.095259 0.468557 0.095785 0.010000
5.072628 0.083037 0.099292 0.030000
5.104835 -0.291375 0.087985 0.020000
5.007136 -0.673314 0.086310 0.050000
4.894575 -1.060483 0.069576 0.110000
12.997571 6.771448 1.384855 0.000000
13.070852 4.782720 1.317653 0.020000
5.976459 1.092812 0.845413 0.140000
11.096921 1.339931 1.129700 0.190000
12.975174 -1.169779 1.190274 0.170000
11.266027 -3.567643 1.096898 1.000000
8.854447 4.190989 0.179435 0.050000
9.617551 3.255494 0.162950 0.050000
6.281204 1.175405 0.371511 0.160000
10.197043 1.201266 0.146826 0.010000
10.291874 0.167917 0.138232 0.020000
10.006080 -0.837752 0.138748 0.050000
9.604387 -1.795578 0.124138 0.040000
9.071927 -2.715938 0.119327 0.070000
4.643770 1.585089 0.103757 0.020000
4.836208 1.198707 0.102823 0.010000
4.958550 0.815964 0.106719 0.030000
5.080549 0.453273 0.095689 0.010000
5.082818 0.073231 0.099283 0.020000
5.075019 -0.301967 0.092867 0.020000
5.002342 -0.683389 0.081260 0.050000
4.879769 -1.070769 0.069500 0.120000
13.023538 6.721954 1.379739 0.000000
13.042225 4.712196 1.307316 0.030000
6.006644 1.083389 0.845457 0.130000
11.017824 1.293444 1.119321 0.530000
16.338587 0.224222 1.384238 0.280000
12.996141 -1.219368 1.185145 0.170000
11.221623 -3.598480 1.091668 0.450000
8.825603 4.130426 0.179135 0.050000
9.558807 3.189357 0.162550 0.050000
6.311403 1.166000 0.366554 0.130000
10.152819 1.160411 0.146559 0.010000
10.227557 0.131679 0.137929 0.020000
9.951569 -0.863801 0.138508 0.050000
9.529593 -1.807012 0.123901 0.050000
9.022223 -2.731892 0.119138 0.060000
4.668874 1.580588 0.098805 0.020000
4.836495 1.183709 0.102768 0.010000
4.958851 0.800985 0.101664 0.030000
5.090752 0.443485 0.090680 0.010000
5.058110 0.057755 0.099161 0.020000
5.075320 -0.316945 0.087812 0.020000
5.007628 -0.698291 0.081218 0.040000
4.874962 -1.080862 0.069450 0.120000
13.015002 6.646814 1.369437 0.000000
13.043305 4.657243 1.297114 0.030000
5.987044 1.063028 0.840330 0.140000
11.043504 1.258948 1.114260 0.660000
16.329668 0.169078 1.374009 0.250000
13.007015 -1.264150 1.180007 0.170000
13.431493 -2.801365 1.195400 0.000000
11.313235 -3.681740 1.091597 0.200000
8.851090 4.105928 0.174110 0.060000
9.589293 3.164955 0.157539 0.060000
10.173403 1.130819 0.141502 0.010000
10.223133 0.101589 0.137806 0.020000
9.952157 -0.893776 0.133399 0.060000
9.530168 -1.837006 0.123791 0.040000
8.997721 -2.757348 0.113979 0.070000
4.683980 1.575894 0.093827 0.020000
4.846685 1.173903 0.102758 0.010000
4.974040 0.791274 0.101668 0.030000
5.095942 0.433582 0.090656 0.010000
5.078311 0.048158 0.094178 0.030000
5.055502 -0.327345 0.092722 0.020000
5.007833 -0.708270 0.076181 0.050000
4.865155 -1.091052 0.069386 0.130000
13.016344 6.576828 1.369180 0.000000
13.054357 4.602445 1.296939 0.040000
5.977429 1.042840 0.840230 0.140000
11.009276 1.218286 1.114019 0.700000
13.251032 0.090671 1.210680 0.080000
13.022970 -1.313853 1.179863 0.170000
11.309086 -3.726846 1.096419 0.200000
8.921173 4.102270 0.174280 0.060000
9.664472 3.156393 0.157704 0.060000
10.238870 1.107068 0.141585 0.010000
10.303802 0.068147 0.132892 0.020000
10.002913 -0.932811 0.133386 0.050000
9.576021 -1.881136 0.123746 0.040000
9.038671 -2.806572 0.113903 0.070000
4.689253 1.560974 0.098786 0.020000
4.881691 1.174592 0.097852 0.010000
4.984230 0.781468 0.101658 0.030000
5.116130 0.423967 0.090673 0.010000
5.108593 0.033736 0.094203 0.030000
5.090796 -0.341653 0.087761 0.020000
5.028213 -0.727883 0.076162 0.050000
4.885631 -1.115664 0.069348 0.120000
13.032477 6.517108 1.374001 0.000000
13.075190 4.557800 1.306828 0.030000
5.982716 1.027939 0.840188 0.130000
11.154593 1.201011 1.129335 0.310000
13.231872 0.045260 1.220461 0.080000
13.078879 -1.362846 1.194827 0.080000
13.443464 -2.906209 1.210042 0.010000
11.199106 -3.728953 1.096124 0.330000
9.045575 4.134658 0.174725 0.070000
9.759440 3.158194 0.162958 0.060000
10.349232 1.089179 0.141806 0.010000
10.404441 0.035050 0.138032 0.020000
10.083761 -0.976270 0.133435 0.060000
9.616972 -1.930360 0.123670 0.040000
9.140185 -2.884642 0.113878 0.070000
4.699347 1.556167 0.098794 0.020000
4.881979 1.159595 0.097797 0.010000
5.004322 0.776852 0.101693 0.040000
5.111405 0.408856 0.095605 0.010000
5.133793 0.024235 0.089233 0.030000
5.106081 -0.356363 0.087746 0.020000
5.038498 -0.742689 0.076134 0.050000
4.885918 -1.130661 0.069293 0.130000
16.074247 8.249881 1.603384 0.000000
13.051509 4.487297 1.316504 0.020000
6.002986 1.013306 0.845187 0.300000
11.155334 1.160981 1.139188 0.240000
13.242706 0.000423 1.230323 0.200000
11.194943 -3.774077 1.105946 0.280000
9.184878 4.172333 0.175229 0.070000
9.928943 3.186463 0.158506 0.060000
10.249677 2.107415 0.155332 0.020000
10.459690 1.066290 0.142010 0.010000
10.530087 0.002450 0.138239 0.020000
10.179592 -1.019461 0.138525 0.060000
9.733196 -1.993146 0.123740 0.050000
9.216499 -2.953211 0.118823 0.070000
4.734341 1.556837 0.098888 0.020000
4.892156 1.149769 0.102787 0.010000
5.029509 0.767332 0.101724 0.030000
5.136592 0.399336 0.095635 0.010000
5.158980 0.014716 0.089264 0.030000
5.111259 -0.366284 0.092723 0.020000
5.063877 -0.762206 0.076127 0.050000
4.906297 -1.150275 0.069273 0.130000
16.268652 8.278499 1.633998 0.000000
6.051810 1.594270 0.867474 0.010000
6.023149 1.003654 0.855204 0.570000
11.130983 1.125472 1.148992 0.170000
13.253431 -0.039434 1.245203 0.250000
13.296143 -1.483835 1.229945 0.040000
11.180769 -3.819412 1.120740 0.260000
9.383499 4.246150 0.176021 0.070000
10.118320 3.220078 0.164125 0.060000
10.434546 2.115957 0.155846 0.020000
10.644943 1.054836 0.142451 0.010000
10.685729 -0.029574 0.138526 0.020000
10.330714 -1.076577 0.138707 0.050000
9.869608 -2.065546 0.123827 0.050000
9.292922 -3.026760 0.118749 0.080000
4.784153 1.567811 0.094059 0.030000
4.922150 1.150344 0.102867 0.010000
5.054600 0.762812 0.101772 0.040000
5.181693 0.395218 0.090737 0.010000
5.169252 -0.000109 0.094235 0.030000
5.136650 -0.385783 0.087717 0.040000
5.084256 -0.781820 0.076108 0.050000
4.916679 -1.170079 0.069227 0.130000
29.152102 15.658168 2.615070 0.010000
6.071971 1.584618 0.877491 0.060000
6.013520 0.983448 0.860103 0.800000
11.141708 1.085615 1.163872 0.170000
13.256877 -1.524649 1.244691 0.060000
13.476489 -3.070789 1.259517 0.000000
9.587215 4.315063 0.176809 0.080000
10.302710 3.253615 0.164731 0.070000
10.689116 2.140837 0.156603 0.020000
10.855179 1.043842 0.147959 0.020000
10.801544 -0.072401 0.148669 0.040000
10.496916 -1.138423 0.143911 0.060000
10.001008 -2.138061 0.128901 0.040000
9.470189 -3.143386 0.118778 0.070000
4.799342 1.558101 0.094062 0.030000
4.962238 1.146111 0.102956 0.010000
5.104699 0.758789 0.096888 0.030000
5.196965 0.380489 0.095723 0.010000
5.199534 -0.014531 0.094261 0.030000
5.156920 -0.400416 0.092715 0.040000
5.114729 -0.806240 0.076096 0.050000
4.942249 -1.199595 0.069184 0.130000
29.160418 15.478112 2.664423 0.020000
6.067439 1.559509 0.882386 0.210000
6.013891 0.963433 0.865030 0.840000
11.197330 1.051620 1.178891 0.200000
12.605099 -0.131849 1.238167 0.110000
13.192604 -1.565960 1.264370 0.100000
13.412229 -3.112082 1.274196 0.010000
11.303708 -3.977232 1.160475 0.240000
9.855345 4.415216 0.177882 0.080000
10.581508 3.318966 0.165702 0.070000
10.928782 2.160431 0.157302 0.020000
11.105419 1.033633 0.148574 0.010000
10.942271 -0.109730 0.153898 0.030000
10.708204 -1.204407 0.149217 0.060000
10.207872 -2.234134 0.134083 0.050000
9.627351 -3.255414 0.123772 0.070000
4.834322 1.558752 0.099156 0.040000
4.992329 1.141686 0.103018 0.020000
5.139789 0.754460 0.096964 0.030000
5.242148 0.371353 0.095807 0.010000
5.224817 -0.029050 0.094273 0.030000
5.197296 -0.419646 0.092749 0.040000
5.155214 -0.830451 0.071112 0.040000
4.962724 -1.224207 0.069146 0.150000
29.228098 15.329125 2.734047 0.050000
6.038102 1.523922 0.887177 0.320000
6.019247 0.943495 0.874970 0.840000
11.178144 1.006171 1.198672 0.110000
12.610895 -0.176837 1.263015 0.360000
12.697135 -1.545427 1.258153 0.060000
11.329884 -4.041833 1.185303 0.280000
10.143266 4.525732 0.184044 0.070000
10.895190 3.389968 0.171785 0.060000
11.273130 2.197014 0.163336 0.020000
11.156124 0.994524 0.168561 0.040000
11.423345 -0.160508 0.149965 0.020000
10.994781 -1.283932 0.149670 0.050000
10.404835 -2.335398 0.139221 0.050000
9.855169 -3.401095 0.128825 0.070000
4.859400 1.554214 0.104205 0.040000
5.032321 1.142452 0.103125 0.020000
5.194874 0.750515 0.097093 0.040000
5.272334 0.361930 0.095850 0.010000
5.275095 -0.043089 0.094352 0.030000
5.232673 -0.438972 0.092770 0.040000
5.180675 -0.854986 0.076087 0.050000
4.998388 -1.258530 0.069111 0.160000
29.201778 15.128366 2.793232 0.130000
6.008765 1.488336 0.891968 0.330000
12.571712 -0.222669 1.282743 0.390000
12.577693 -1.577776 1.272721 0.110000
10.500503 4.672581 0.190522 0.090000
11.273478 3.482211 0.178115 0.060000
11.587675 2.223024 0.169254 0.020000
11.216744 0.960624 0.183593 0.090000
11.704332 -0.210153 0.155514 0.020000
11.296532 -1.373187 0.155126 0.050000
10.687273 -2.460011 0.139495 0.050000
10.083097 -3.551756 0.128860 0.080000
4.924114 1.570474 0.099434 0.040000
5.082312 1.143410 0.103259 0.020000
5.229963 0.746186 0.097168 0.050000
5.332514 0.353080 0.095975 0.010000
5.305377 -0.057512 0.094377 0.040000
5.278143 -0.463105 0.092799 0.040000
5.206137 -0.879521 0.081063 0.050000
5.008757 -1.278353 0.074065 0.150000
29.239891 14.953734 2.882684 0.130000
5.994207 1.462997 0.906836 0.370000
6.009963 0.903237 0.894796 0.160000
12.537599 -0.273441 1.312465 0.660000
12.563588 -1.628146 1.297497 0.090000
10.932246 4.845861 0.197294 0.080000
11.701468 3.590408 0.184634 0.060000
12.051618 2.281901 0.175684 0.010000
11.177536 0.914755 0.213321 0.110000
12.145470 -0.266752 0.166455 0.020000
11.563180 -1.458132 0.165506 0.070000
11.004967 -2.598988 0.149808 0.040000
10.411939 -3.750530 0.138979 0.070000
4.959094 1.571126 0.104528 0.040000
5.137206 1.149462 0.103425 0.020000
5.339860 0.753310 0.092481 0.150000
5.362783 0.338639 0.101000 0.020000
5.370748 -0.076263 0.094478 0.040000
5.333612 -0.487047 0.092854 0.040000
5.236610 -0.903942 0.081051 0.060000
5.064717 -1.327272 0.069029 0.140000
29.263224 14.768856 2.962058 0.100000
6.009466 1.448250 0.916821 0.330000
6.005334 0.883126 0.899709 0.150000
31.133974 2.773334 2.712348 0.140000
12.593577 -0.327470 1.337411 0.710000
11.586467 -1.521713 1.260342 0.100000
11.497720 5.086715 0.204665 0.080000
12.243945 3.725785 0.196554 0.060000
12.585437 2.347100 0.187320 0.020000
11.153433 0.864192 0.238070 0.100000
12.676795 -0.331606 0.172601 0.020000
11.569155 -1.513138 0.195318 0.080000
11.463701 -2.790255 0.155294 0.050000
10.629925 -3.906438 0.153969 0.100000
5.028698 1.592463 0.104789 0.050000
5.192183 1.150497 0.108573 0.020000
5.310306 0.727685 0.107309 0.090000
5.452971 0.330383 0.096205 0.020000
5.421013 -0.090321 0.099557 0.050000
5.384082 -0.511085 0.092897 0.040000
5.287271 -0.937977 0.081057 0.050000
5.085166 -1.351921 0.078991 0.120000
29.301130 14.604204 3.056546 0.040000
6.004920 1.423122 0.926716 0.360000
6.010677 0.863170 0.914649 0.250000
31.131517 2.627931 2.801801 0.090000
12.574448 -0.377974 1.372174 0.820000
11.557257 -1.567390 1.290096 0.120000
12.112896 5.343524 0.212226 0.070000
12.826127 3.876925 0.208635 0.070000
11.169131 0.824394 0.262964 0.070000
12.627684 -0.382665 0.202283 0.040000
11.569939 -1.558241 0.225152 0.070000
11.887237 -2.972212 0.165724 0.050000
10.661196 -3.975943 0.178792 0.100000
5.063870 1.583116 0.109846 0.060000
5.267073 1.156933 0.108792 0.030000
5.405301 0.729523 0.102564 0.090000
5.488238 0.316038 0.101243 0.020000
5.511488 -0.113574 0.094707 0.050000
5.454644 -0.539738 0.092974 0.040000
5.342932 -0.971917 0.081076 0.050000
5.136020 -1.395955 0.078960 0.140000
29.354008 14.439803 3.161074 0.030000
6.020261 1.403358 0.941683 0.380000
6.040920 0.848692 0.929675 0.660000
12.590311 -0.427807 1.407030 0.750000
11.522951 -1.608164 1.319855 0.170000
12.747851 5.610677 0.229876 0.070000
13.651839 4.107760 0.216649 0.060000
6.535329 0.949902 0.461337 0.010000
11.259898 0.781015 0.293040 0.060000
12.603542 -0.433283 0.242032 0.050000
11.590815 -1.607960 0.255022 0.190000
5.143472 1.604645 0.110134 0.060000
5.336964 1.163272 0.108998 0.030000
5.470384 0.725768 0.102720 0.090000
5.573427 0.307686 0.096435 0.030000
5.566861 -0.132517 0.094781 0.060000
5.520206 -0.568488 0.093039 0.050000
5.393676 -1.010971 0.086063 0.060000
5.181777 -1.435086 0.078934 0.130000
29.322899 14.223839 3.250191 0.020000
6.005800 1.373020 0.956532 0.460000
6.021377 0.823276 0.939529 0.960000
31.191351 2.348294 3.000920 0.010000
12.606271 -0.482640 1.441868 0.720000
11.508738 -1.653554 1.349650 0.190000
17.318684 -4.794600 1.833144 0.000000
18.023254 -7.652032 1.939362 0.010000
13.100778 5.717326 0.266194 0.080000
14.731149 4.413448 0.230603 0.060000
6.500859 0.919163 0.481133 0.030000
12.999936 -0.505796 0.267798 0.020000
12.710806 -1.856517 0.247022 0.130000
13.111935 -3.468900 0.182074 0.040000
11.274135 -4.389406 0.213856 0.160000
5.223073 1.626173 0.110422 0.070000
5.416853 1.169803 0.109231 0.030000
5.555368 0.727396 0.102948 0.110000
5.643689 0.294011 0.101567 0.030000
5.642326 -0.156076 0.094891 0.060000
5.590768 -0.597141 0.093116 0.050000
5.454335 -1.044815 0.086096 0.070000
5.242724 -1.483927 0.078911 0.150000
57.282627 28.456451 6.206111 0.050000
6.016046 1.358159 0.971504 0.460000
6.031623 0.808415 0.954501 1.030000
31.193663 2.212930 3.105424 0.010000
12.727172 -0.535517 1.491988 0.390000
11.474420 -1.694347 1.384409 0.180000
17.546608 -4.955538 1.908142 0.000000
46.036884 -21.497139 4.461045 0.050000
13.122687 3.782166 0.324058 0.030000
6.476399 0.888634 0.495955 1.000000
14.240430 -3.902382 0.188409 0.030000
11.234804 -4.430313 0.253601 0.180000
5.292856 1.637493 0.115646 0.070000
5.501646 1.181429 0.109495 0.030000
5.635436 0.723911 0.108144 0.100000
5.738863 0.285832 0.101785 0.040000
5.697686 -0.175038 0.099965 0.070000
5.661330 -0.625795 0.093194 0.050000
5.530183 -1.088370 0.086132 0.070000
5.308753 -1.537690 0.083884 0.140000
46.693466 22.690731 5.312028 0.030000
6.006488 1.332916 0.986385 0.250000
53.809578 3.653726 5.239836 0.040000
11.480286 -1.744372 1.419239 0.170000
38.474136 -11.937851 3.811832 0.010000
45.517479 -21.552610 4.599484 0.080000
17.001644 7.537411 0.268143 0.070000
13.113831 3.716838 0.363793 0.060000
6.451844 0.863104 0.510797 0.070000
13.252197 -0.631244 0.337991 0.030000
11.230959 -4.495526 0.288349 0.320000
5.412176 1.674803 0.111096 0.080000
5.581522 1.187942 0.114728 0.030000
5.745416 0.726017 0.108439 0.110000
5.834132 0.272655 0.101985 0.030000
5.803145 -0.198022 0.100154 0.060000
5.757079 -0.663968 0.093302 0.040000
5.585927 -1.127328 0.091133 0.080000
5.395092 -1.606031 0.078855 0.120000
45.426216 21.746130 5.350209 0.080000
6.011831 1.312960 1.001325 0.570000
6.017410 0.763025 0.984295 0.180000
53.549438 3.373052 5.413116 0.030000
12.033208 -0.598892 1.509941 0.510000
11.486151 -1.794397 1.454068 0.150000
39.715824 -12.575210 4.092707 0.030000
45.230198 -21.723839 4.788100 0.060000
13.075099 5.471260 0.410214 0.060000
13.210928 0.733042 0.387955 0.010000
13.273047 -0.681000 0.377860 0.010000
11.790037 -1.844663 0.384664 0.020000
16.835220 -4.912921 0.206426 0.020000
11.226813 -4.545762 0.328152 0.310000
5.511678 1.701713 0.111456 0.090000
5.696213 1.205141 0.115092 0.030000
5.825497 0.722551 0.108635 0.100000
5.939304 0.264668 0.102230 0.030000
5.888596 -0.221408 0.105291 0.060000
5.837721 -0.697448 0.098388 0.050000
5.676867 -1.175595 0.091191 0.080000
5.450931 -1.649987 0.083837 0.140000
45.415668 21.485128 5.554214 0.060000
6.022173 1.293100 1.016279 0.570000
6.012754 0.742877 0.999209 0.170000
57.423447 3.380120 6.003260 0.040000
12.003984 -0.644588 1.544695 0.670000
11.532162 -1.853710 1.503969 0.130000
39.649033 -12.767146 4.261821 0.020000
45.068745 -21.937683 4.981885 0.140000
13.130866 3.596776 0.463392 0.070000
11.171801 1.698812 0.481223 0.160000
12.152212 -0.657718 0.445022 0.040000
11.835965 -1.898958 0.429582 0.100000
11.716747 -3.241368 0.394281 0.040000
5.621069 1.733796 0.116861 0.090000
5.786087 1.211846 0.120351 0.040000
5.970278 0.735326 0.109060 0.100000
6.029562 0.251375 0.107416 0.030000
6.009052 -0.244105 0.105521 0.050000
5.943468 -0.735429 0.098523 0.040000
5.762797 -1.223976 0.096235 0.080000
5.547349 -1.723154 0.083817 0.140000
45.519821 21.241348 5.753582 0.080000
6.032515 1.273239 1.031232 0.620000
6.018002 0.727920 1.014167 0.160000
57.382938 3.118602 6.192184 0.110000
11.959668 -0.685572 1.579428 0.680000
11.583102 -1.907890 1.543900 0.100000
44.962429 -22.155399 5.155801 0.090000
13.082424 5.336009 0.509731 0.030000
11.162573 1.653499 0.516031 0.180000
13.232701 0.628110 0.477623 0.010000
12.132891 -0.698224 0.479821 0.060000
11.701174 -1.916689 0.469165 0.140000
11.642136 -3.267948 0.433987 0.070000
5.730570 1.760898 0.117247 0.090000
5.925595 1.239541 0.115818 0.040000
6.060344 0.732032 0.114283 0.110000
6.159825 0.238868 0.107710 0.030000
6.119606 -0.271993 0.105706 0.050000
6.039204 -0.773621 0.103631 0.040000
5.878925 -1.281762 0.096324 0.070000
5.623472 -1.781724 0.088798 0.100000
46.168011 21.302746 6.035505 0.030000
6.027751 1.258072 1.051163 0.760000
6.028248 0.713059 1.029138 0.170000
52.247284 2.621166 5.901927 0.030000
11.930336 -0.726288 1.619200 0.720000
45.406281 -22.653032 5.440112 0.120000
14.921931 6.156237 0.557583 0.050000
13.098020 3.470777 0.557839 0.050000
11.173151 1.618567 0.550929 0.180000
12.123542 -0.738575 0.524647 0.070000
11.711929 -1.961637 0.509026 0.170000
11.642894 -3.313088 0.473822 0.230000
5.864682 1.808475 0.117774 0.090000
6.070089 1.267313 0.116299 0.040000
6.225134 0.745208 0.109762 0.110000
6.289992 0.231360 0.108022 0.030000
6.260155 -0.299306 0.105971 0.060000
6.175149 -0.821007 0.098810 0.040000
5.969962 -1.335028 0.096363 0.050000
5.729890 -1.854699 0.088805 0.100000
57.075668 26.271931 7.607465 0.050000
6.028095 1.238020 1.066090 0.890000
6.018594 0.692815 1.044038 0.220000
57.355370 2.666307 6.650435 0.050000
11.921013 -0.766602 1.654026 0.660000
45.294804 -22.865938 5.639032 0.110000
14.918308 6.075933 0.617275 0.050000
13.138661 3.431383 0.602799 0.030000
11.163911 1.573235 0.590737 0.180000
13.239190 0.537889 0.567305 0.000000
11.553081 -3.329976 0.518525 0.260000
6.028693 1.861625 0.118400 0.110000
6.234579 1.295468 0.116833 0.040000
6.385008 0.753271 0.110210 0.110000
6.465260 0.219732 0.103436 0.030000
6.405715 -0.326504 0.101250 0.060000
6.310987 -0.863413 0.099007 0.040000
6.096088 -1.392623 0.096478 0.050000
5.836403 -1.932673 0.088793 0.110000
45.442680 20.487593 6.335584 0.100000
6.038329 1.223140 1.086061 0.760000
6.068615 0.688681 1.069154 0.710000
57.359177 2.435496 6.879590 0.060000
45.253887 -23.107498 5.838029 0.050000
16.241756 4.335789 0.664262 0.060000
11.194292 1.548684 0.625725 0.130000
30.803743 1.249440 0.605799 0.010000
11.939530 -0.802385 0.598931 0.020000
11.458090 -3.336944 0.558252 0.190000
13.580966 -6.071642 0.518627 0.030000
6.197525 1.924888 0.114076 0.110000
6.309456 1.301885 0.122052 0.040000
6.554798 0.766544 0.105702 0.110000
6.640419 0.213086 0.103868 0.040000
6.581367 -0.358128 0.096591 0.060000
6.477023 -0.915224 0.094247 0.030000
6.232404 -1.460024 0.096584 0.060000
5.998494 -2.039569 0.083819 0.100000
45.560013 20.339079 6.535340 0.090000
6.048976 0.668264 1.079027 0.900000
57.322346 2.238949 7.098765 0.060000
45.419739 -15.832743 5.785504 0.010000
46.313683 -23.918629 6.187784 0.050000
14.687555 5.836050 0.730782 0.060000
13.130236 3.335856 0.697423 0.020000
11.194859 1.513542 0.665597 0.160000
31.480125 1.166940 0.727259 0.000000
11.975172 -0.841875 0.643877 0.080000
11.368097 -3.343815 0.597992 0.280000
6.356633 1.972944 0.114670 0.110000
6.110813 1.222901 0.166240 0.040000
6.704674 0.774416 0.106123 0.110000
6.800593 0.206171 0.099261 0.040000
6.731914 -0.385249 0.096883 0.060000
