# This PCD file was generated using the MATLAB® pcwrite function
# from Computer Vision Toolbox®.
# .PCD v.7 - Point Cloud Data file format
VERSION .7
FIELDS x y z intensity
SIZE 4 4 4 4
TYPE F F F F
COUNT 1 1 1 1
WIDTH 1288
HEIGHT 1
VIEWPOINT 0 0 0 1 0 0 0
POINTS 1288
DATA ascii
31.196884 2.583497 2.986809 0.010000
12.599561 -0.392734 1.437185 0.730000
11.517134 -1.568342 1.339988 0.130000
17.792238 -7.331162 1.874951 0.000000
12.850302 5.742607 0.245634 0.060000
13.709969 4.203836 0.232158 0.050000
14.199813 2.652998 0.212671 0.010000
11.173930 0.829340 0.302995 0.060000
12.657287 -0.367242 0.242418 0.010000
11.569477 -1.538356 0.255225 0.270000
12.344329 -3.078513 0.176522 0.030000
10.640368 -3.936427 0.203885 0.160000
5.127913 1.634370 0.105204 0.060000
5.276770 1.172103 0.113874 0.030000
5.429817 0.754997 0.102723 0.090000
5.517850 0.336609 0.101397 0.020000
5.496191 -0.098883 0.099722 0.060000
5.474352 -0.524358 0.093083 0.050000
5.342535 -0.951940 0.086149 0.040000
5.145634 -1.375767 0.079060 0.120000
29.339180 14.689508 3.176964 0.010000
5.990559 0.867749 0.924614 0.360000
31.134571 2.717694 2.887144 0.030000
12.573711 -0.343074 1.397302 0.760000
11.566532 -1.532279 1.310251 0.100000
17.643986 -7.153731 1.810223 0.000000
12.185639 5.459883 0.227848 0.060000
12.894267 3.973210 0.219171 0.060000
11.148151 0.873965 0.273093 0.100000
11.558599 -1.488445 0.225382 0.280000
11.790051 -2.859053 0.165891 0.040000
10.629298 -3.876518 0.174079 0.150000
5.033492 1.602538 0.109839 0.050000
5.221794 1.171068 0.108726 0.020000
5.339917 0.748255 0.107463 0.090000
5.467680 0.345668 0.096300 0.030000
5.430820 -0.080132 0.099621 0.060000
5.388793 -0.495992 0.092965 0.040000
5.301981 -0.922693 0.081152 0.050000
5.089782 -1.331829 0.079077 0.150000
29.271496 14.843624 3.072359 0.040000
5.805763 1.379355 0.911033 0.400000
5.965315 0.882323 0.909602 0.170000
31.182005 2.863940 2.802811 0.050000
12.542850 -0.293528 1.362405 0.810000
11.635913 -1.495853 1.285567 0.110000
19.268671 -5.037315 1.842332 0.000000
17.743139 -7.101640 1.760675 0.000000
11.575571 5.198189 0.215283 0.060000
12.272476 3.801308 0.206909 0.070000
6.354732 0.981504 0.445983 0.000000
11.152353 0.919145 0.248272 0.100000
12.590456 -0.263265 0.177630 0.020000
11.341411 -2.672594 0.160413 0.040000
10.613121 -3.811725 0.149277 0.100000
4.988513 1.601695 0.104718 0.040000
5.151903 1.164728 0.108520 0.020000
5.354569 0.768595 0.092577 0.290000
5.392490 0.354211 0.101135 0.020000
5.365448 -0.061380 0.099520 0.050000
5.338324 -0.471954 0.092923 0.050000
5.246321 -0.888753 0.081133 0.050000
5.064129 -1.297296 0.074139 0.160000
29.263201 15.028846 2.978025 0.080000
5.750812 1.378358 0.895886 0.410000
5.969957 0.902452 0.899689 0.150000
12.541971 -0.243426 1.332589 0.750000
12.512683 -1.584187 1.317528 0.130000
19.442989 -4.993804 1.797948 0.000000
10.985486 4.936861 0.207771 0.070000
11.740080 3.661105 0.199998 0.050000
6.409090 1.017606 0.431258 0.000000
11.186467 0.969917 0.218549 0.110000
12.079224 -0.203027 0.171519 0.010000
11.567017 -1.398067 0.170740 0.060000
10.943240 -2.510173 0.154977 0.040000
10.314548 -3.627392 0.144183 0.070000
4.933715 1.590643 0.104534 0.040000
5.111827 1.168980 0.103432 0.020000
5.229745 0.756147 0.107205 0.100000
5.337213 0.368155 0.101043 0.010000
5.330167 -0.047053 0.099481 0.050000
5.287854 -0.447916 0.092880 0.050000
5.230953 -0.869025 0.076166 0.040000
5.018467 -1.263165 0.074146 0.140000
29.195381 15.187905 2.888438 0.120000
5.750360 1.403390 0.885978 0.360000
5.969600 0.922486 0.889762 0.150000
12.591068 -0.192385 1.307906 0.440000
12.607060 -1.547281 1.292911 0.100000
19.657480 -4.959544 1.758635 0.000000
11.350146 -4.061614 1.230283 0.010000
10.544031 4.748391 0.200918 0.070000
11.272385 3.537144 0.193317 0.060000
6.408746 1.037658 0.416332 0.020000
11.135858 1.004027 0.198544 0.110000
11.332900 -0.142347 0.179796 0.020000
11.245186 -1.304177 0.160248 0.050000
10.615536 -2.371406 0.149637 0.040000
10.020975 -3.442964 0.139102 0.070000
4.888820 1.584782 0.104395 0.030000
5.046922 1.162717 0.108239 0.020000
5.184671 0.760303 0.102103 0.060000
5.287044 0.377214 0.095946 0.010000
5.274795 -0.028111 0.099407 0.030000
5.242383 -0.423783 0.092851 0.040000
5.190386 -0.839797 0.076169 0.040000
4.992897 -1.233649 0.074189 0.130000
29.147520 15.347292 2.813905 0.050000
5.745099 1.418329 0.876019 0.340000
5.949343 0.937137 0.879764 0.150000
11.177612 1.031092 1.218764 0.010000
13.162697 -1.576682 1.304253 0.060000
19.811693 -4.911435 1.719216 0.000000
11.379343 -4.015955 1.205529 0.080000
10.152088 4.585874 0.194291 0.070000
10.919010 3.450398 0.182072 0.060000
6.398391 1.057500 0.406379 0.040000
11.125158 1.043921 0.173664 0.090000
10.871919 -0.096185 0.183765 0.030000
10.928534 -1.220208 0.154734 0.050000
10.368391 -2.261101 0.144402 0.040000
9.783157 -3.297474 0.134022 0.070000
4.848936 1.579036 0.099270 0.030000
5.002027 1.156856 0.108100 0.020000
5.144487 0.769535 0.102032 0.040000
5.256857 0.386637 0.095902 0.010000
5.224516 -0.014071 0.099328 0.030000
5.207007 -0.404457 0.092831 0.040000
5.159913 -0.815377 0.076180 0.040000
4.962328 -1.204229 0.074219 0.150000
29.139433 15.517406 2.749515 0.030000
5.729840 1.433076 0.866034 0.310000
5.919183 0.946598 0.869720 0.170000
11.181897 1.071254 1.198924 0.030000
13.211973 -1.535657 1.284533 0.120000
13.516856 -3.095167 1.299532 0.000000
9.839446 4.459865 0.193006 0.070000
10.560706 3.358520 0.180795 0.060000
6.323418 1.056082 0.401178 0.060000
10.974733 1.066081 0.163353 0.040000
10.891296 -0.060735 0.163947 0.030000
10.662050 -1.145298 0.154317 0.050000
10.151433 -2.160220 0.139211 0.050000
9.575623 -3.166407 0.128968 0.070000
4.808944 1.578270 0.099162 0.030000
4.971949 1.161300 0.103038 0.020000
5.114397 0.773959 0.101970 0.030000
5.206675 0.395678 0.095804 0.010000
5.209245 0.000657 0.094343 0.030000
5.176725 -0.390034 0.092805 0.040000
5.109334 -0.786358 0.081156 0.050000
4.951960 -1.184406 0.069266 0.140000
29.096642 15.671851 2.684977 0.020000
5.724567 1.447996 0.861076 0.340000
5.923825 0.966727 0.859807 0.170000
11.196179 1.111608 1.179111 0.080000
13.216080 -1.485478 1.259730 0.070000
13.450510 -3.021315 1.269633 0.010000
11.226162 -3.843657 1.150769 0.180000
9.576425 4.354827 0.186929 0.060000
10.316723 3.303856 0.174955 0.060000
6.328060 1.076211 0.391264 0.070000
10.840579 -0.021644 0.148960 0.020000
10.445763 -1.079411 0.148997 0.050000
9.984848 -2.078378 0.134080 0.050000
9.418556 -3.059378 0.123955 0.080000
4.769143 1.567506 0.099018 0.030000
4.946762 1.170819 0.103008 0.010000
5.059407 0.772906 0.101822 0.040000
5.191486 0.405389 0.095801 0.010000
5.138958 0.014295 0.099210 0.030000
5.146348 -0.370613 0.092798 0.030000
5.099061 -0.771534 0.076184 0.050000
4.911283 -1.150197 0.074287 0.130000
5.908553 0.981455 0.854822 0.160000
11.195453 1.151656 1.164258 0.070000
13.283004 -0.018919 1.260357 0.170000
13.275436 -1.449280 1.245020 0.040000
11.184976 -3.779361 1.130900 0.120000
9.377721 4.286027 0.181155 0.070000
10.077739 3.249288 0.169128 0.060000
10.614169 1.094235 0.147517 0.010000
10.649957 0.009729 0.143579 0.020000
10.299748 -1.027179 0.143810 0.050000
9.823358 -2.001439 0.128945 0.050000
9.296867 -2.971675 0.118964 0.080000
4.739052 1.571930 0.098956 0.020000
4.906866 1.165054 0.102882 0.020000
5.064132 0.788017 0.096891 0.030000
5.151398 0.409622 0.095712 0.010000
5.143778 0.024408 0.094260 0.030000
5.136171 -0.360788 0.087808 0.020000
5.058577 -0.747324 0.081169 0.050000
4.916104 -1.140085 0.069337 0.120000
16.098494 8.285241 1.633579 0.000000
5.718936 1.482949 0.846191 0.080000
5.908292 0.996490 0.844877 0.360000
11.204806 1.186878 1.154413 0.270000
13.267183 0.025841 1.245482 0.130000
13.079114 -1.377917 1.214772 0.050000
13.418608 -2.916761 1.229938 0.010000
11.199245 -3.739025 1.116087 0.310000
9.203917 4.222706 0.175465 0.070000
9.923260 3.221342 0.163621 0.060000
10.463910 1.106360 0.147170 0.010000
10.489316 0.041658 0.143278 0.020000
10.153722 -0.974967 0.143623 0.050000
9.717228 -1.943461 0.128883 0.040000
9.185246 -2.888816 0.123980 0.070000
4.719056 1.571547 0.098903 0.020000
4.871872 1.164383 0.102788 0.010000
5.009129 0.786945 0.101743 0.030000
5.151124 0.424638 0.090767 0.010000
5.108580 0.033717 0.099203 0.030000
5.110792 -0.341270 0.087815 0.020000
5.033198 -0.727806 0.081175 0.050000
4.885631 -1.115664 0.069348 0.130000
16.042515 8.339271 1.608634 0.000000
5.664056 1.476915 0.841025 0.070000
5.947805 1.022251 0.845076 0.560000
11.049504 1.203980 1.134071 0.290000
13.246364 0.070505 1.230593 0.150000
13.043189 -1.328560 1.204862 0.110000
11.299240 -3.737092 1.111355 0.190000
9.025086 4.159252 0.179763 0.060000
9.763756 3.193264 0.168100 0.060000
10.313651 1.118484 0.146823 0.010000
10.358669 0.074162 0.143058 0.020000
10.072984 -0.936488 0.138555 0.050000
9.611002 -1.880484 0.128840 0.040000
9.098934 -2.820439 0.119009 0.070000
4.698964 1.576163 0.098867 0.020000
4.871598 1.179399 0.097843 0.010000
4.998940 0.796752 0.101753 0.030000
5.106023 0.428756 0.095665 0.010000
5.108401 0.043734 0.094240 0.030000
5.080497 -0.326866 0.092789 0.020000
5.027925 -0.712886 0.076217 0.040000
4.890342 -1.100571 0.069416 0.110000
13.035931 6.597170 1.379307 0.000000
5.678587 1.502216 0.836157 0.060000
5.902731 1.026407 0.839974 0.680000
11.083744 1.244662 1.129312 0.620000
13.012371 -1.284087 1.189947 0.110000
13.406663 -2.811879 1.205297 0.000000
11.318496 -3.696679 1.101556 0.240000
8.915586 4.132150 0.179376 0.060000
9.624069 3.175586 0.167670 0.050000
9.988863 2.147427 0.154800 0.020000
10.223188 1.141756 0.146673 0.010000
10.258018 0.107240 0.142918 0.020000
9.987137 -0.893125 0.138492 0.050000
9.570256 -1.841239 0.123880 0.040000
9.042794 -2.761504 0.119082 0.070000
4.668970 1.575589 0.098787 0.020000
4.846494 1.183901 0.102794 0.010000
4.973848 0.801272 0.101704 0.030000
5.100750 0.443676 0.090706 0.010000
5.093117 0.058444 0.094254 0.020000
5.070308 -0.317060 0.092799 0.020000
5.007628 -0.698291 0.081218 0.040000
4.874962 -1.080862 0.069450 0.130000
13.019797 6.656890 1.374487 0.000000
5.683203 1.522308 0.836244 0.080000
5.902457 1.041422 0.835029 0.580000
11.018304 1.268449 1.119229 0.640000
16.354172 0.194533 1.379168 0.340000
13.011522 -1.239077 1.185112 0.140000
13.420907 -2.771581 1.200484 0.000000
11.206831 -3.608747 1.086591 0.380000
8.840613 4.130732 0.174175 0.060000
9.534003 3.178880 0.162447 0.050000
10.142834 1.160238 0.141532 0.010000
10.192468 0.136008 0.137854 0.020000
9.961484 -0.858591 0.133554 0.050000
9.519307 -1.792206 0.123929 0.040000
9.016937 -2.716991 0.119180 0.060000
4.648878 1.580205 0.098752 0.020000
4.816499 1.183326 0.102714 0.010000
4.963658 0.811079 0.101714 0.030000
5.090560 0.453483 0.090716 0.010000
5.082927 0.068250 0.094264 0.030000
5.055023 -0.302350 0.092814 0.020000
5.002342 -0.683389 0.081260 0.040000
4.894875 -1.075462 0.064522 0.110000
12.993856 6.706420 1.369603 0.000000
5.682928 1.537324 0.831299 0.110000
5.887172 1.056132 0.835043 0.410000
11.037546 1.308843 1.114430 0.440000
12.985678 -1.194546 1.180210 0.140000
11.231060 -3.568276 1.086805 0.430000
8.750809 4.118992 0.178897 0.060000
9.513528 3.203492 0.162485 0.060000
6.350834 1.196779 0.361772 0.010000
10.137259 1.190137 0.141628 0.010000
10.191797 0.171001 0.137982 0.020000
9.970907 -0.828406 0.133690 0.060000
9.553930 -1.771521 0.119096 0.040000
9.056560 -2.696210 0.114360 0.060000
4.683214 1.615887 0.093974 0.020000
4.836125 1.203724 0.097841 0.010000
4.953469 0.820885 0.101724 0.030000
5.090369 0.463481 0.090753 0.010000
5.082640 0.083247 0.094319 0.020000
5.054832 -0.292352 0.092850 0.020000
5.012148 -0.673200 0.081323 0.050000
4.884481 -1.055676 0.069568 0.100000
13.012224 6.791787 1.369969 0.000000
5.677546 1.557225 0.831359 0.110000
5.856986 1.065556 0.835000 0.280000
11.111657 1.355252 1.119796 0.200000
13.253061 0.245738 1.211262 0.090000
12.979816 -1.149650 1.180361 0.140000
13.484266 -2.685352 1.200969 0.000000
11.245278 -3.528015 1.091992 0.510000
8.779749 4.174556 0.179179 0.060000
9.562369 3.264438 0.162839 0.050000
6.330633 1.206375 0.366755 0.040000
10.211383 1.236565 0.141994 0.010000
10.286204 0.202815 0.138347 0.020000
10.030417 -0.802261 0.133943 0.060000
9.638615 -1.754915 0.124379 0.040000
9.136544 -2.694678 0.114575 0.060000
4.668108 1.620580 0.098952 0.020000
4.845740 1.223912 0.097941 0.010000
4.968178 0.836170 0.101819 0.030000
5.115077 0.478957 0.090875 0.010000
5.087434 0.093323 0.099369 0.020000
5.089633 -0.281683 0.092981 0.010000
5.037048 -0.667722 0.081409 0.050000
4.909476 -1.055197 0.069635 0.110000
5.662331 1.566898 0.841355 0.100000
5.851782 1.075440 0.840023 0.300000
11.145927 1.390842 1.140018 0.240000
13.227343 0.280178 1.231323 0.150000
13.004088 -1.114252 1.200556 0.140000
13.402984 -2.621971 1.220993 0.000000
9.789835 3.398818 0.163932 0.050000
6.300421 1.215762 0.376711 1.000000
10.460187 1.301341 0.142885 0.010000
10.540665 0.232675 0.144122 0.020000
10.275455 -0.802587 0.139581 0.060000
9.849136 -1.780906 0.129832 0.040000
9.362735 -2.755375 0.119940 0.060000
4.677710 1.640749 0.104052 0.020000
4.870339 1.244368 0.103081 0.010000
4.987874 0.851532 0.106928 0.030000
5.119858 0.489013 0.100925 0.010000
5.137329 0.099279 0.099522 0.020000
5.119519 -0.276128 0.098080 0.020000
5.077040 -0.666956 0.081516 0.050000
4.949552 -1.059448 0.074724 0.110000
28.951200 17.004467 2.644551 0.030000
5.652211 1.571669 0.851347 0.110000
5.866453 1.090668 0.855118 0.460000
11.130468 1.410439 1.170051 0.240000
13.216774 0.304852 1.266387 0.080000
13.018599 -1.094118 1.240669 0.140000
17.013739 -3.443845 1.467366 0.000000
9.267733 4.543930 0.191826 0.050000
10.121777 3.560168 0.175398 0.060000
6.245571 1.204636 0.396527 0.080000
10.798947 1.367804 0.154016 0.010000
10.920197 0.259930 0.150214 0.020000
10.595847 -0.821491 0.150348 0.060000
10.135207 -1.835474 0.140376 0.040000
9.629384 -2.840320 0.130320 0.060000
4.727029 1.676700 0.104314 0.020000
4.914852 1.270225 0.103294 0.010000
5.052383 0.877772 0.107194 0.030000
5.179655 0.500161 0.101122 0.010000
5.197222 0.105427 0.099701 0.020000
5.189615 -0.279768 0.093249 0.020000
5.117115 -0.671207 0.086605 0.040000
4.999829 -1.073488 0.074803 0.110000
28.935041 17.048744 2.759675 0.050000
5.652076 1.576612 0.866365 0.150000
5.851429 1.090344 0.865078 0.740000
11.125200 1.420230 1.200073 0.240000
31.407642 0.794179 2.445702 0.240000
13.008317 -1.084441 1.275679 0.110000
6.245436 1.209579 0.411545 0.090000
10.983177 1.406247 0.179640 0.050000
11.474889 0.280539 0.156739 0.020000
11.081701 -0.862211 0.156465 0.050000
4.771446 1.707556 0.104545 0.020000
4.964446 1.291160 0.108501 0.020000
5.107085 0.893822 0.107396 0.060000
5.249354 0.516498 0.101365 0.010000
5.257115 0.111575 0.099880 0.030000
5.294800 -0.287737 0.088494 0.030000
5.212590 -0.694365 0.081768 0.040000
5.040096 -1.087738 0.079855 0.110000
28.914635 17.052914 2.879638 0.090000
5.656940 1.581651 0.881397 0.180000
5.876194 1.100765 0.880181 0.790000
11.140010 1.425386 1.235132 0.240000
31.377182 0.803212 2.550657 0.300000
12.988121 -1.079974 1.315643 0.070000
33.381550 -11.956315 2.688459 0.210000
10.196321 5.146784 0.206491 0.050000
11.058692 3.988113 0.199435 0.050000
6.240397 1.209428 0.426531 0.090000
11.042992 1.412284 0.209819 0.060000
12.029676 0.296149 0.163245 0.020000
11.698010 -0.925438 0.162838 0.040000
11.054321 -2.042944 0.152004 0.040000
10.480605 -3.159129 0.146357 0.060000
4.840667 1.748889 0.104879 0.030000
5.018957 1.317209 0.108740 0.020000
5.186687 0.915350 0.107684 0.080000
5.304248 0.522551 0.101531 0.010000
5.327102 0.112916 0.100068 0.020000
5.410079 -0.300513 0.083747 0.100000
5.257760 -0.703520 0.086852 0.040000
5.110658 -1.116391 0.079933 0.120000
28.879822 17.026821 2.994451 0.090000
5.656914 1.581614 0.891396 0.180000
5.881154 1.100805 0.895194 0.720000
11.125031 1.419988 1.265073 0.230000
31.392097 0.793111 2.655659 0.250000
17.987446 -3.661097 1.704102 0.000000
33.447063 -12.000546 2.818467 0.050000
11.051208 5.683270 0.205717 0.060000
6.235455 1.204277 0.441499 0.120000
10.958203 1.395529 0.244536 0.080000
12.654630 0.303082 0.174902 0.020000
11.938584 -0.955909 0.183353 0.110000
11.125659 -3.416821 0.147083 0.070000
4.890165 1.774823 0.110105 0.030000
5.098367 1.348735 0.109065 0.020000
5.246484 0.926498 0.107882 0.090000
5.384138 0.529082 0.101764 0.020000
5.412181 0.109545 0.100277 0.040000
5.375046 -0.301239 0.098653 0.050000
5.363328 -0.731484 0.082023 0.040000
5.191314 -1.149853 0.080019 0.110000
28.885246 16.986441 3.124317 0.050000
5.676858 1.581922 0.911450 0.170000
5.896112 1.101036 0.910235 0.710000
11.130130 1.409956 1.300049 0.230000
31.397385 0.762804 2.765562 0.300000
12.978201 -1.095460 1.395561 0.070000
18.057934 -3.694991 1.769161 0.000000
11.349627 -3.521767 1.297289 0.010000
11.273789 5.807444 0.236760 0.100000
12.437579 4.579589 0.215233 0.050000
6.230608 1.194127 0.456449 0.130000
10.943402 1.380114 0.279440 0.100000
11.958776 -0.970653 0.218351 0.150000
12.189915 -2.326301 0.168915 0.030000
11.246721 -3.474604 0.172184 0.160000
4.954483 1.811062 0.110408 0.030000
5.162971 1.369977 0.109312 0.020000
5.311172 0.942721 0.113111 0.090000
5.458932 0.540516 0.102001 0.020000
5.507273 0.106384 0.095514 0.040000
5.480327 -0.314207 0.093880 0.050000
5.438793 -0.755043 0.082133 0.040000
5.256876 -1.178602 0.080083 0.110000
28.871304 16.915758 3.234019 0.030000
5.676915 1.576868 0.926431 0.160000
5.896169 1.095982 0.925216 0.810000
11.145226 1.400115 1.335052 0.260000
31.397945 0.717385 2.880396 0.110000
13.058548 -1.119090 1.440683 0.060000
18.058340 -3.725227 1.834050 0.000000
11.420359 -3.565585 1.342312 0.040000
11.373008 5.844223 0.272156 0.130000
6.255551 1.194532 0.476516 0.120000
10.928601 1.364700 0.314345 0.080000
14.389648 0.316258 0.194480 0.020000
13.049340 -2.549900 0.175327 0.030000
11.151238 -3.456595 0.217003 0.220000
5.023798 1.847395 0.110724 0.030000
5.237465 1.396389 0.114605 0.030000
5.410783 0.964651 0.108452 0.100000
5.533918 0.541953 0.102202 0.020000
5.567344 0.102515 0.100656 0.040000
5.545589 -0.327977 0.098999 0.050000
5.519257 -0.778506 0.082255 0.040000
5.317536 -1.212446 0.080116 0.110000
5.686983 1.572023 0.936440 0.150000
5.896321 1.085928 0.940179 0.800000
11.140532 1.379911 1.364965 0.280000
31.463617 0.668249 2.985385 0.060000
13.048828 -1.139427 1.480582 0.080000
18.013588 -3.746289 1.888856 0.000000
11.340104 -3.557230 1.372133 0.190000
11.452506 5.865602 0.312444 0.130000
14.784113 5.564684 0.230020 0.020000
6.255704 1.184478 0.491479 0.120000
10.918895 1.344382 0.349244 0.070000
15.639689 0.325181 0.202777 0.010000
13.315924 -2.634937 0.210707 0.020000
11.086050 -3.452989 0.256846 0.300000
5.108016 1.889016 0.111098 0.040000
5.316972 1.422917 0.114911 0.020000
5.485577 0.976085 0.108690 0.110000
5.628695 0.553752 0.107494 0.030000
5.647425 0.099048 0.100852 0.050000
5.650966 -0.345944 0.094207 0.050000
5.589723 -0.802161 0.082351 0.040000
5.388194 -1.246099 0.080175 0.100000
53.203506 32.044456 6.073800 0.030000
5.687039 1.566968 0.951421 0.190000
5.921278 1.086351 0.955246 0.730000
11.145728 1.364880 1.399923 0.320000
35.022949 0.679933 3.399724 0.240000
13.049094 -1.159590 1.525509 0.120000
18.280329 -3.846510 1.974180 0.000000
11.365665 -3.591894 1.412072 0.440000
11.551807 5.897363 0.352821 0.110000
6.255761 1.179423 0.506461 0.070000
10.924103 1.329369 0.379202 0.060000
13.137194 -1.148391 0.295768 0.020000
13.371576 -2.674025 0.250708 0.040000
11.096532 -3.482922 0.291763 0.410000
5.162514 1.915046 0.116337 0.040000
5.411392 1.454749 0.110276 0.030000
5.555264 0.992404 0.113933 0.110000
5.723691 0.555590 0.102749 0.030000
5.722589 0.090468 0.106017 0.050000
5.731321 -0.364427 0.099348 0.040000
5.685376 -0.835335 0.082478 0.030000
5.458838 -1.279770 0.085234 0.120000
51.763882 30.956402 6.145998 0.020000
5.687192 1.556914 0.966384 0.250000
11.091235 1.333721 1.429666 0.280000
35.164009 0.607126 3.534823 0.250000
13.079559 -1.189159 1.565479 0.120000
145.777100 -34.825954 13.301938 0.020000
11.295588 -3.593364 1.446884 0.370000
11.611788 5.893364 0.392963 0.130000
13.084084 4.746432 0.372543 0.010000
11.069106 1.327054 0.404572 0.050000
13.235871 0.218539 0.356107 0.020000
13.172740 -1.182881 0.340733 0.090000
13.372046 -2.704168 0.290597 0.020000
11.071733 -3.498528 0.326640 0.470000
5.261633 1.961952 0.116770 0.040000
5.480969 1.476049 0.120537 0.040000
5.669859 1.014603 0.114314 0.100000
5.803567 0.562102 0.107981 0.030000
5.822667 0.087384 0.106266 0.050000
5.821687 -0.382699 0.099516 0.040000
5.740832 -0.859295 0.087534 0.030000
5.549792 -1.328019 0.080292 0.110000
51.731827 30.775040 6.340242 0.040000
5.697342 1.547052 0.981374 0.240000
5.911680 1.061053 0.985127 0.130000
11.031742 1.302466 1.459394 0.350000
35.115360 0.520776 3.644376 0.270000
13.085029 -1.219206 1.605382 0.120000
11.306165 -3.628296 1.481782 0.390000
13.149145 4.737511 0.417680 0.030000
11.134374 1.308154 0.444673 0.130000
13.256325 0.188760 0.401050 0.010000
13.143120 -1.208600 0.380560 0.070000
13.397594 -2.738850 0.335535 0.010000
11.072107 -3.523672 0.366548 0.420000
5.370654 2.014049 0.117249 0.040000
5.595291 1.513263 0.115973 0.040000
5.739737 1.020924 0.119520 0.120000
5.938459 0.569705 0.103362 0.020000
5.922840 0.079301 0.106498 0.050000
5.932146 -0.405588 0.099720 0.040000
5.856577 -0.897085 0.087695 0.030000
5.615438 -1.361786 0.085338 0.120000
51.819172 30.615694 6.609881 0.050000
5.707384 1.542170 1.001383 0.260000
5.926734 1.056285 1.000149 0.130000
11.032130 1.277341 1.494302 0.440000
35.086613 0.434679 3.788983 0.270000
13.140641 -1.258349 1.660382 0.070000
40.240601 -9.455341 4.305677 0.010000
11.326893 -3.673091 1.531670 0.450000
14.707386 5.362373 0.449070 0.040000
11.079867 1.276976 0.479415 0.320000
18.376757 0.222032 0.359539 0.010000
13.198771 -1.247688 0.420560 0.100000
13.363059 -2.769682 0.380331 0.030000
5.454968 2.050671 0.117605 0.050000
5.694793 1.540173 0.116333 0.040000
5.874341 1.043524 0.114956 0.130000
6.033428 0.571506 0.108616 0.030000
6.038105 0.066506 0.106751 0.050000
6.032510 -0.423669 0.099914 0.040000
5.962324 -0.935067 0.087830 0.030000
5.746755 -1.429283 0.085430 0.120000
51.857548 30.405495 6.854202 0.040000
5.727437 1.537498 1.016418 0.280000
5.931872 1.046308 1.020126 0.130000
11.017521 1.251928 1.529170 0.480000
35.088287 0.329215 3.918596 0.260000
11.322473 -3.708310 1.566528 0.380000
13.012893 6.614885 0.519304 0.040000
14.718198 5.312369 0.503913 0.130000
11.055355 1.246373 0.514238 0.500000
13.159224 -1.278634 0.470343 0.160000
13.408878 -2.818996 0.430268 0.020000
10.972492 -3.555879 0.446169 0.110000
5.578890 2.108054 0.118142 0.050000
5.829001 1.582751 0.116842 0.040000
5.993936 1.065819 0.115351 0.110000
6.183317 0.579396 0.104037 0.030000
6.138374 0.053424 0.106964 0.050000
6.143064 -0.451557 0.100099 0.040000
6.078164 -0.977856 0.087973 0.030000
5.822686 -1.477855 0.090448 0.110000
48.017052 27.822439 6.574573 0.020000
5.712784 1.517159 1.031304 0.300000
5.966909 1.041905 1.040201 0.100000
11.037988 1.222168 1.569113 0.360000
36.019825 0.226213 4.145647 0.190000
39.164978 -9.461695 4.507848 0.010000
15.045753 7.783877 0.568956 0.050000
18.805326 4.455456 0.521397 0.000000
11.021024 1.205562 0.553997 1.307000
13.272995 0.083584 0.530704 0.010000
13.159873 -1.318793 0.515196 0.150000
13.364439 -2.855019 0.475019 0.010000
10.912686 -3.572174 0.485953 0.100000
5.683092 2.150039 0.123570 0.060000
5.968208 1.625425 0.117364 0.050000
6.148524 1.088783 0.115840 0.120000
6.313293 0.581886 0.104385 0.030000
6.318628 0.041874 0.107392 0.040000
6.268603 -0.479176 0.105324 0.040000
6.178995 -1.020951 0.093076 0.030000
5.928816 -1.535833 0.090509 0.100000
46.221790 26.517920 6.540037 0.030000
5.742822 1.512660 1.051366 0.250000
5.937272 1.021297 1.050047 0.110000
11.173119 1.209570 1.619420 0.290000
36.166695 0.108436 4.300594 0.360000
39.197582 -9.621740 4.682340 0.010000
11.187781 -3.736169 1.641073 0.300000
13.034627 6.509898 0.623972 0.050000
6.356631 1.120978 0.606508 0.000000
11.046407 1.180915 0.588972 0.470000
16.305414 -3.663911 0.499689 0.010000
10.817599 -3.574142 0.525698 0.090000
5.841733 2.223108 0.119256 0.060000
6.137328 1.673691 0.112985 0.050000
6.138856 1.068521 0.135739 0.200000
6.493164 0.590332 0.104886 0.030000
6.478899 0.029960 0.102766 0.040000
6.484547 -0.525011 0.095718 0.040000
6.289836 -1.063836 0.093206 0.030000
6.060228 -1.608329 0.090583 0.100000
44.639469 25.317348 6.546443 0.020000
5.997292 1.017354 1.075189 0.420000
11.183683 1.174620 1.659318 0.280000
36.503841 -0.025791 4.480978 0.270000
57.409199 -7.215123 6.808845 0.070000
39.144966 -9.768342 4.836659 0.030000
11.188622 -3.786327 1.685889 0.240000
13.088487 4.475387 0.666550 0.020000
6.317161 1.090143 0.626290 0.010000
15.214723 0.000463 0.615464 0.000000
13.381009 -2.950067 0.569709 0.040000
10.732607 -3.580918 0.565451 0.110000
5.980653 2.280779 0.119833 0.070000
6.296531 1.716747 0.113560 0.050000
6.139105 1.053468 0.150684 0.180000
6.643231 0.588206 0.105270 0.030000
6.649250 0.013220 0.103148 0.050000
6.615193 -0.557515 0.095938 0.040000
6.435959 -1.121047 0.093375 0.040000
6.221936 -1.695229 0.085682 0.100000
48.805832 27.524670 7.345532 0.030000
5.758207 1.487822 1.086314 0.070000
5.982638 0.997015 1.090075 0.520000
36.616184 -0.169251 4.640739 0.300000
57.353218 -7.457063 7.032802 0.040000
38.942131 -9.902763 4.975631 0.020000
11.209651 -3.846100 1.730723 0.110000
13.031928 6.374419 0.733462 0.030000
14.732112 5.076769 0.728076 0.100000
5.919304 0.972448 0.639814 1.000000
11.182348 1.123252 0.659113 0.060000
13.295047 -0.041492 0.660298 0.010000
10.677909 -3.602097 0.600230 0.170000
6.159087 2.364211 0.120608 0.080000
6.485455 1.775394 0.109271 0.060000
6.184262 1.044295 0.160768 0.220000
6.833209 0.591863 0.100779 0.030000
6.819710 -0.008501 0.098512 0.050000
6.761015 -0.599748 0.101161 0.040000
6.587176 -1.183162 0.093539 0.040000
6.353445 -1.772724 0.085737 0.110000
48.939571 27.301422 7.555054 0.030000
5.758551 1.467770 1.101241 0.060000
5.982900 0.981981 1.100020 0.720000
11.239819 1.105408 1.734208 0.180000
36.663532 -0.308827 4.765345 0.340000
40.599594 -5.351059 5.226880 0.040000
39.201294 -10.143521 5.160415 0.020000
11.321403 -3.944179 1.785650 0.510000
13.028139 6.304151 0.783191 0.020000
14.708410 5.001100 0.782734 0.170000
5.964448 0.963256 0.654898 1.000000
11.163014 1.082728 0.698912 0.050000
15.088120 -1.757639 0.708600 0.010000
13.412863 -3.059824 0.664386 0.010000
10.653467 -3.637737 0.645034 0.230000
6.327809 2.432454 0.121303 0.090000
6.659643 1.818719 0.114887 0.070000
108.776901 26.680201 -10.811253 25.112000
6.993262 0.589910 0.106190 0.040000
6.995143 -0.030164 0.103890 0.050000
6.941844 -0.641292 0.101479 0.040000
6.758486 -1.249893 0.093738 0.040000
50.323856 27.811392 8.005568 0.040000
5.778795 1.453100 1.116239 0.070000
6.018019 0.972560 1.125077 0.460000
36.636116 -0.464930 4.914695 0.150000
40.848133 -5.562088 5.431746 0.010000
38.812382 -10.221441 5.284111 0.020000
13.029337 6.233959 0.837934 0.030000
14.729400 4.941272 0.842567 0.220000
5.944796 0.942821 0.669771 1.000000
11.148692 1.042318 0.733725 0.070000
14.942327 -0.160369 0.774157 0.010000
13.384226 -1.575367 0.739830 0.040000
13.423976 -3.124806 0.714173 0.010000
10.613957 -3.668627 0.679817 0.260000
6.516337 2.511079 0.122087 0.100000
6.853744 1.867445 0.115575 0.060000
6.289464 1.031216 0.185994 0.120000
7.203222 0.593932 0.106753 0.030000
7.165687 -0.056902 0.104236 0.060000
7.092774 -0.688410 0.101698 0.040000
6.909786 -1.317026 0.098883 0.040000
6.137261 -1.722094 0.150362 0.120000
48.974495 26.720320 8.007990 0.030000
5.784029 1.438124 1.136197 0.080000
36.688755 -0.624537 5.074240 0.110000
40.364937 -5.676785 5.545060 0.020000
38.715256 -10.393900 5.438218 0.030000
11.323359 -4.059510 1.880228 0.390000
13.060338 6.174341 0.892794 0.020000
14.755497 4.876558 0.897395 0.160000
5.920240 0.917291 0.684612 0.260000
11.149463 0.997196 0.768560 0.070000
13.257467 -0.187751 0.799658 0.010000
13.429898 -3.179886 0.763985 0.010000
10.599718 -3.714054 0.719611 0.200000
6.690045 2.579399 0.127794 0.100000
7.047832 1.916153 0.121263 0.060000
7.235938 1.234653 0.114220 0.120000
7.383272 0.592361 0.112217 0.040000
7.391219 -0.082587 0.104729 0.050000
7.278780 -0.739875 0.106992 0.050000
7.066098 -1.384044 0.099042 0.050000
6.147795 -1.751953 0.165278 0.170000
48.960094 26.399235 8.211761 0.040000
5.804274 1.423455 1.151196 0.160000
5.983823 0.926805 1.149818 0.140000
11.196935 0.979161 1.843628 0.030000
46.909039 -1.009241 6.564504 0.170000
39.274937 -5.687680 5.547174 0.040000
38.507542 -10.533380 5.567159 0.020000
11.294122 -4.105225 1.919982 0.440000
13.051742 6.093979 0.942473 0.020000
14.811205 4.832416 0.952377 0.200000
5.915586 0.897143 0.699525 0.100000
11.190035 0.962839 0.803538 0.080000
14.909275 -0.276389 0.873641 0.010000
12.844406 -1.601003 0.818326 0.070000
15.563103 -3.859427 0.842028 0.040000
10.565305 -3.749848 0.754389 0.210000
6.908376 2.668597 0.128696 0.110000
7.242029 1.959880 0.121932 0.060000
7.435517 1.258480 0.114830 0.130000
7.603435 0.586595 0.107770 0.030000
7.586854 -0.113846 0.105123 0.050000
7.509900 -0.795440 0.102389 0.030000
7.297985 -1.479601 0.094292 0.040000
6.117940 -1.762599 0.185161 0.200000
46.744850 24.847105 8.045207 0.020000
5.794716 1.398212 1.166077 0.080000
6.063838 0.923246 1.175014 0.560000
11.117843 0.927545 1.868230 0.040000
39.538952 -5.923417 5.751989 0.030000
38.988628 -10.880107 5.807128 0.020000
11.285060 -4.160573 1.964753 0.360000
13.102655 6.039761 0.992405 0.080000
5.741641 1.358802 0.725788 0.070000
5.935817 0.882455 0.719524 0.070000
11.150896 0.911934 0.843247 0.110000
13.254245 -0.293162 0.889258 0.010000
12.744978 -1.638079 0.862929 0.060000
15.468922 -3.911459 0.901589 0.050000
10.576444 -3.814793 0.794177 0.200000
7.116899 2.747604 0.129534 0.120000
7.480930 2.019465 0.122777 0.060000
7.670090 1.282976 0.115533 0.120000
7.808575 0.580505 0.113283 0.030000
7.792473 -0.144932 0.110545 0.040000
7.736103 -0.856119 0.102754 0.030000
7.534857 -1.575082 0.094556 0.040000
6.123475 -1.792554 0.200064 0.170000
45.706448 23.966951 8.069224 0.040000
5.824850 1.388714 1.186121 0.080000
6.024299 0.897447 1.184815 0.790000
11.153499 0.888075 1.908176 0.130000
50.272823 -1.552977 7.406271 0.040000
41.227020 -6.382581 6.139693 0.010000
38.956776 -11.066319 5.961354 0.020000
5.806590 1.359991 0.740962 0.220000
5.941160 0.862499 0.734464 0.080000
12.724745 -0.328419 0.917745 0.030000
11.692548 -1.523270 0.875609 0.170000
15.676410 -4.047730 0.961625 0.190000
10.562204 -3.860220 0.833971 0.170000
7.389836 2.857851 0.130656 0.110000
7.695015 2.068556 0.128519 0.050000
7.879846 1.296978 0.121133 0.110000
8.043710 0.574988 0.118877 0.030000
7.993106 -0.176095 0.110952 0.040000
7.902209 -0.912966 0.107976 0.030000
7.716535 -1.661636 0.099708 0.040000
49.060692 25.498711 8.833682 0.050000
5.815196 1.368471 1.201020 0.070000
6.064514 0.883123 1.209867 0.810000
11.134273 0.842570 1.942957 0.140000
42.948154 -1.520134 6.537265 0.180000
40.006989 -6.390911 6.126477 0.030000
38.794781 -11.244985 6.105268 0.020000
13.060852 5.858562 1.091624 0.120000
5.797031 1.334749 0.755843 1.000000
5.986304 0.853307 0.749547 0.050000
12.630533 -0.375359 0.952325 0.050000
11.587968 -1.550387 0.905236 0.210000
15.612249 -4.099151 1.011267 0.320000
10.598448 -3.929667 0.868808 0.160000
7.638065 2.952621 0.131656 0.110000
7.949009 2.123430 0.129386 0.060000
8.159315 1.327335 0.121975 0.090000
8.298854 0.569874 0.119524 0.040000
8.273916 -0.215724 0.111538 0.040000
8.078396 -0.974639 0.118207 0.030000
7.873108 -1.743689 0.109812 0.040000
7.517561 -2.500613 0.101070 0.080000
49.185253 25.230225 9.058011 0.070000
5.835536 1.348802 1.216001 0.080000
6.059859 0.862975 1.224780 0.900000
11.160039 0.797927 1.977859 0.180000
43.086681 -1.728178 6.716855 0.130000
40.035507 -6.595969 6.280791 0.050000
40.433281 -11.990203 6.506780 0.020000
5.762682 1.299048 0.765621 0.460000
5.966652 0.832872 0.764420 0.050000
12.626497 -0.430575 0.987110 0.110000
11.563744 -1.595988 0.940003 0.330000
10.629884 -4.009207 0.903594 0.100000
7.901278 3.047661 0.137697 0.100000
8.193088 2.173095 0.135207 0.050000
8.423869 1.352388 0.127759 0.100000
8.604084 0.560718 0.120286 0.030000
8.539824 -0.260639 0.112065 0.040000
8.324787 -1.044933 0.118589 0.030000
8.079986 -1.839743 0.109995 0.030000
7.730109 -2.631566 0.101138 0.090000
49.750114 25.205048 9.329395 0.040000
5.835880 1.328750 1.230927 0.080000
6.085102 0.848401 1.239792 0.870000
11.185710 0.758283 2.012779 0.170000
43.050278 -1.934388 6.845995 0.050000
40.239803 -6.842742 6.455409 0.040000
44.314415 -20.526670 7.655190 0.100000
13.053685 5.698066 1.181009 0.090000
5.758123 1.273901 0.780516 0.170000
5.976994 0.813011 0.779374 0.060000
31.175182 2.317416 1.790751 0.040000
12.607354 -0.481097 1.026873 0.120000
11.554612 -1.646300 0.974793 0.320000
8.164491 3.142700 0.143737 0.110000
8.501689 2.249019 0.136295 0.060000
8.718334 1.383033 0.128642 0.100000
8.899220 0.556370 0.121041 0.030000
8.855820 -0.309596 0.112708 0.040000
8.556264 -1.120532 0.123912 0.030000
8.342237 -1.954741 0.110252 0.030000
7.852072 -2.734285 0.111075 0.180000
53.577095 26.840385 10.230473 0.030000
5.861124 1.314176 1.245939 0.090000
6.085446 0.828349 1.254719 0.420000
11.216462 0.713718 2.052694 0.120000
41.497501 -2.053854 6.761497 0.060000
40.178005 -7.029453 6.589555 0.020000
40.461365 -12.455902 6.820125 0.000000
44.208317 -20.754349 7.819068 0.070000
5.793269 1.264517 0.795573 0.110000
6.037135 0.804106 0.794498 0.190000
31.227596 2.178029 1.890370 0.040000
12.568229 -0.531984 1.061582 0.130000
11.560478 -1.696324 1.009622 0.290000
8.472324 3.258616 0.144972 0.120000
8.790567 2.309543 0.142274 0.050000
9.032892 1.409062 0.129559 0.100000
9.219544 0.542502 0.121825 0.030000
9.136725 -0.354224 0.113276 0.030000
8.852946 -1.204846 0.119373 0.030000
8.549293 -2.060813 0.115398 0.030000
7.877986 -2.783852 0.125958 0.120000
52.232365 25.779701 10.153019 0.030000
5.926046 1.315328 1.271113 0.310000
6.095788 0.808489 1.269672 0.720000
41.351074 -2.257097 6.870360 0.050000
44.450935 -21.180584 8.038119 0.080000
13.071239 5.553065 1.265517 0.030000
5.803516 1.249656 0.810544 0.080000
5.997596 0.778308 0.804299 0.260000
31.239862 2.047929 1.974920 0.040000
12.584105 -0.581798 1.091438 0.120000
11.551277 -1.741600 1.034430 0.290000
13.418761 -3.691473 1.112057 0.020000
8.755438 3.359038 0.151084 0.120000
9.159075 2.391634 0.138541 0.050000
9.357449 1.435282 0.130504 0.090000
9.559768 0.534016 0.122682 0.030000
9.477811 -0.407702 0.113967 0.030000
9.124607 -1.289677 0.124767 0.030000
8.791534 -2.176212 0.120602 0.030000
8.282632 -3.021108 0.116132 0.080000
52.262436 25.489546 10.337021 0.030000
5.891614 1.284644 1.275909 0.180000
6.106035 0.793628 1.284644 0.810000
41.239273 -2.439656 6.974391 0.090000
29.450695 13.684527 2.338510 0.140000
5.808872 1.229718 0.820484 0.090000
6.002952 0.758370 0.814239 0.300000
31.292274 1.908541 2.074539 0.020000
12.599970 -0.631632 1.126295 0.110000
11.572236 -1.796337 1.069282 0.260000
13.521972 -5.695125 1.179879 0.020000
9.093171 3.480527 0.152417 0.120000
9.452952 2.452254 0.144534 0.050000
9.657092 1.456006 0.136363 0.090000
9.850180 0.514556 0.128368 0.030000
9.698811 -0.458496 0.119355 0.030000
9.391377 -1.379584 0.125129 0.030000
9.028886 -2.296688 0.120773 0.030000
8.530844 -3.186383 0.116166 0.070000
52.308140 25.169779 10.495954 0.050000
5.877070 1.259325 1.285777 0.120000
6.116390 0.773786 1.294597 1.050000
41.107403 -2.617561 7.068386 0.090000
44.163979 -21.642187 8.315657 0.060000
13.063836 5.407641 1.334958 0.050000
5.839019 1.220239 0.835528 0.290000
6.018198 0.743605 0.829224 0.340000
31.284655 1.773078 2.154017 0.050000
12.660933 -0.685584 1.156254 0.070000
11.603110 -1.845864 1.099179 0.260000
13.461144 -3.825960 1.186669 0.020000
9.416085 3.591713 0.158674 0.120000
9.776837 2.513468 0.145607 0.050000
9.971745 1.477036 0.137263 0.090000
10.110610 0.494540 0.128973 0.030000
9.954900 -0.513620 0.124819 0.030000
9.633044 -1.464989 0.130442 0.030000
9.351713 -2.440512 0.116081 0.030000
8.774056 -3.351755 0.116186 0.070000
50.754108 24.085466 10.312864 0.090000
5.922119 1.255132 1.300879 0.120000
6.121733 0.753829 1.309537 0.750000
42.542175 -2.901398 7.416080 0.120000
43.977161 -21.826220 8.429486 0.090000
29.491556 13.354610 2.512392 0.200000
5.854277 1.205492 0.845513 0.400000
13.250548 0.635703 1.227705 0.010000
11.955804 -0.684051 1.144419 0.070000
11.669278 -1.909700 1.124114 0.230000
13.529854 -5.855259 1.249305 0.020000
9.744012 3.703013 0.159943 0.130000
10.026094 2.553212 0.156405 0.040000
10.231588 1.486996 0.142978 0.080000
10.376026 0.474602 0.134592 0.030000
10.160889 -0.564721 0.135167 0.030000
9.894708 -1.550011 0.135809 0.030000
9.573945 -2.556313 0.126231 0.030000
8.966786 -3.493107 0.121164 0.070000
50.828648 23.826242 10.477097 0.050000
5.902575 1.229716 1.310734 0.110000
6.171876 0.744733 1.324634 0.600000
41.261585 2.080085 7.396255 0.020000
40.918400 -2.956882 7.241633 0.100000
43.754833 -21.980854 8.523332 0.060000
29.499424 13.194458 2.586818 0.230000
5.844636 1.185267 0.855413 0.400000
13.231431 0.585218 1.257468 0.030000
11.931510 -0.724615 1.169205 0.100000
13.443278 -3.946562 1.251175 0.020000
13.571370 -5.939626 1.289101 0.040000
10.491430 1.496956 0.148693 0.070000
10.636539 0.449568 0.140179 0.030000
10.376794 -0.610612 0.140560 0.030000
10.071098 -1.621664 0.141003 0.020000
9.801203 -2.671981 0.126394 0.030000
9.159529 -3.634441 0.121142 0.060000
51.833923 24.039415 10.785517 0.020000
5.922832 1.215065 1.320732 0.110000
6.142252 0.724144 1.329480 0.830000
41.594032 1.935913 7.536588 0.020000
40.766148 -3.110045 7.300667 0.070000
11.357468 -3.285168 2.278199 0.000000
45.031788 -22.902843 8.873241 0.100000
29.531958 13.054854 2.641385 0.250000
5.840007 1.165157 0.860326 0.300000
31.351389 1.393538 2.357782 0.040000
11.902147 -0.760239 1.183996 0.120000
13.474453 -4.011068 1.276016 0.040000
10.290721 3.878478 0.172023 0.110000
10.594250 2.654093 0.163263 0.040000
10.761285 1.507126 0.149436 0.080000
10.881960 0.429246 0.145744 0.030000
10.587809 -0.661580 0.140921 0.030000
10.262487 -1.693029 0.146238 0.020000
9.942984 -2.764301 0.131421 0.030000
9.397742 -3.799908 0.121148 0.070000
40.922882 18.547255 8.616597 0.010000
5.923094 1.200031 1.330677 0.120000
6.172495 0.709665 1.344506 0.930000
41.541996 1.769594 7.615835 0.010000
42.185757 -3.384135 7.638357 0.110000
11.333091 -3.320715 2.298004 0.010000
44.713284 -22.994234 8.947071 0.070000
29.544470 12.914831 2.705898 0.200000
5.855170 1.155409 0.870329 0.290000
31.348354 1.283258 2.412365 0.050000
11.892768 -0.795498 1.203840 0.140000
10.858434 2.699160 0.164121 0.030000
11.021127 1.517086 0.155151 0.080000
11.092400 0.408273 0.146215 0.030000
10.793715 -0.707663 0.146287 0.030000
10.413787 -1.760162 0.151383 0.020000
10.124853 -2.860853 0.136537 0.030000
9.534907 -3.912319 0.126088 0.060000
41.055073 18.419378 8.721468 0.070000
5.923368 1.185015 1.335622 0.120000
6.162771 0.694458 1.349424 0.900000
40.051163 1.566758 7.406187 0.030000
42.228634 -3.543598 7.707877 0.100000
11.318821 -3.361050 2.312817 0.010000
44.864334 -23.326878 9.076230 0.040000
5.830641 1.129916 0.875171 0.150000
31.385313 1.173745 2.467055 0.050000
11.848408 -0.831409 1.218591 0.150000
33.210068 -11.338977 2.550305 0.050000
10.798026 4.023201 0.178885 0.110000
11.136476 1.499273 0.160386 0.120000
11.297923 0.382186 0.151655 0.020000
11.004826 -0.763630 0.146630 0.020000
10.600286 -1.836603 0.151586 0.020000
10.261552 -2.948251 0.136569 0.020000
9.677168 -4.029634 0.131024 0.070000
5.968417 1.180822 1.350724 0.320000
6.168045 0.679538 1.354382 0.950000
39.389400 1.399256 7.348836 0.040000
42.346443 -3.701700 7.797598 0.090000
43.957211 -9.523346 8.180165 0.010000
11.264189 -3.382137 2.322596 0.040000
29.554489 12.639626 2.799902 0.080000
5.860718 1.125473 0.880233 0.110000
31.392410 1.058714 2.506646 0.050000
11.859133 -0.871266 1.233471 0.130000
18.873892 -3.724021 1.676182 0.010000
33.303356 -11.517424 2.604886 0.010000
10.962407 4.056336 0.184437 0.090000
6.259749 1.244841 0.416713 0.010000
11.027307 1.452101 0.179926 0.230000
11.548451 0.356980 0.152215 0.030000
11.165741 -0.810574 0.151876 0.030000
10.796782 -1.912854 0.151815 0.020000
10.383145 -3.030955 0.141579 0.030000
9.794158 -4.132411 0.130947 0.060000
54.622139 24.294577 11.688752 0.070000
5.933902 1.155156 1.350539 0.160000
38.982407 1.241507 7.327188 0.040000
42.409397 -3.865798 7.872153 0.080000
43.879848 -9.670074 8.239419 0.020000
11.380787 -3.470066 2.362574 0.010000
11.306286 -5.077162 2.461406 0.000000
5.676227 1.616971 0.896578 0.010000
5.851090 1.105267 0.885132 0.130000
11.234500 1.452182 1.240478 0.030000
31.399317 0.953681 2.546274 0.040000
11.904852 -0.910452 1.248445 0.120000
18.583838 -3.724594 1.680423 0.000000
33.341309 -11.676871 2.644392 0.090000
11.161494 4.105139 0.190138 0.090000
6.265023 1.229921 0.421672 0.030000
11.087844 1.423218 0.189977 0.290000
11.694081 0.324745 0.157475 0.020000
11.296661 -0.858094 0.157041 0.030000
10.887793 -1.966157 0.161855 0.020000
10.484550 -3.104044 0.146572 0.020000
9.936431 -4.249707 0.130882 0.060000
40.887836 17.735634 8.833490 0.050000
5.954173 1.140524 1.355537 0.130000
38.815189 1.093241 7.336200 0.040000
43.398907 -4.122700 8.093783 0.070000
43.843117 -9.845937 8.273669 0.010000
11.376624 -3.515190 2.372395 0.010000
11.297220 -5.127381 2.471196 0.010000
5.721205 1.617815 0.901699 0.020000
5.916052 1.106474 0.895307 0.440000
11.170362 1.405927 1.245139 0.070000
11.895594 -0.950673 1.258272 0.110000
18.208454 -3.706743 1.669509 0.000000
33.359268 -11.836702 2.683846 0.120000
6.245492 1.204524 0.426526 0.100000
11.088501 1.388206 0.194848 0.380000
11.774724 0.291265 0.162561 0.030000
11.387506 -0.901362 0.157117 0.020000
10.933743 -2.015285 0.161792 0.020000
10.545785 -3.167882 0.146495 0.020000
9.977752 -4.318946 0.135733 0.060000
40.990696 17.582447 8.868190 0.040000
5.939559 1.120240 1.355424 0.110000
38.718056 0.941318 7.345382 0.050000
43.422070 -4.292414 8.128213 0.060000
43.796307 -10.016973 8.302912 0.010000
11.342205 -3.545855 2.372191 0.020000
11.272978 -5.167871 2.475982 0.000000
5.711673 1.592609 0.906580 0.150000
5.876634 1.075714 0.895089 0.460000
11.146132 1.365456 1.244925 0.110000
31.383636 0.723212 2.580377 0.050000
17.923439 -3.707165 1.658763 0.000000
11.309352 -3.497259 1.222274 0.010000
34.459705 -18.142548 2.883279 0.010000
11.346830 4.088668 0.195561 0.090000
6.225975 1.179146 0.426381 0.100000
11.039360 1.342239 0.199549 0.440000
11.750495 0.250794 0.162348 0.020000
11.388260 -0.941373 0.161971 0.020000
10.894312 -2.046064 0.166575 0.020000
10.521352 -3.198374 0.151318 0.020000
9.928144 -4.339900 0.135526 0.050000
41.644028 17.659552 8.985184 0.020000
5.964733 1.110702 1.360454 0.110000
11.168444 1.356977 2.309963 0.430000
38.800808 0.797859 7.350064 0.060000
42.303391 -4.343096 7.920103 0.140000
43.734615 -10.188130 8.287114 0.010000
11.348163 -3.595750 2.372021 0.050000
5.677268 1.561963 0.901377 1.000000
5.886837 1.065926 0.890080 0.560000
11.136914 1.325291 1.239751 0.140000
12.949252 -1.140766 1.325316 0.070000
11.355506 -3.556367 1.217175 0.030000
34.448235 -18.322689 2.852579 0.010000
11.134457 3.949576 0.194490 0.080000
6.226275 1.164167 0.421326 0.070000
11.094854 1.318334 0.189605 0.410000
11.576199 0.212449 0.161750 0.030000
11.163398 -0.950681 0.161349 0.030000
10.709072 -2.034592 0.161134 0.020000
10.305433 -3.152501 0.150924 0.020000
9.696367 -4.249323 0.135257 0.060000
44.557426 18.743689 9.501823 0.070000
5.979948 1.101029 1.350458 0.120000
11.034544 1.304568 2.264418 0.480000
38.668488 0.670669 7.249245 0.020000
42.376240 -4.481469 7.849777 0.210000
11.293539 -3.611689 2.341819 0.050000
5.647791 1.536449 0.886205 0.160000
5.892149 1.051062 0.880038 0.540000
11.092658 1.289529 1.214503 0.290000
12.974900 -1.170170 1.295273 0.060000
11.285693 -3.562595 1.186969 0.090000
20.225010 -10.314878 1.810210 0.000000
10.985694 1.276309 0.169164 0.220000
11.126775 0.178854 0.155452 0.030000
10.752913 -0.928520 0.155360 0.030000
10.327623 -1.961866 0.155408 0.020000
9.978413 -3.048709 0.140457 0.020000
9.388468 -4.100175 0.130008 0.060000
44.431396 18.561939 9.310817 0.060000
5.970276 1.085896 1.335376 0.110000
11.059893 1.290143 2.239430 0.410000
40.519138 0.625352 7.458910 0.050000
42.303154 -4.562369 7.709284 0.210000
11.273826 -3.621940 2.306729 0.050000
5.648009 1.526488 0.876168 0.120000
5.882369 1.040909 0.869975 0.550000
11.033144 1.268513 1.179269 0.340000
31.563946 0.472262 2.404913 0.000000
13.000453 -1.194575 1.265249 0.100000
13.420123 -2.741884 1.280593 0.010000
11.235794 -3.563423 1.151836 0.170000
13.643422 -6.573504 1.326933 0.010000
10.332025 3.549192 0.175907 0.090000
10.727055 0.161214 0.149343 0.030000
10.392336 -0.900384 0.144523 0.030000
9.996274 -1.893163 0.144799 0.020000
9.605812 -2.915803 0.134978 0.030000
8.984244 -3.882860 0.124761 0.060000
43.843792 18.211704 9.012978 0.060000
5.970411 1.080953 1.320358 0.170000
11.075255 1.275545 2.209416 0.360000
40.380554 0.573294 7.293353 0.070000
42.279331 -4.602264 7.554072 0.200000
11.274108 -3.631808 2.271693 0.040000
11.321258 -5.326663 2.390517 0.000000
5.648144 1.521545 0.861150 0.140000
5.887407 1.041061 0.854988 0.470000
11.043412 1.258818 1.149259 0.410000
13.264214 0.180811 1.246050 0.000000
13.000749 -1.204424 1.225213 0.110000
13.405422 -2.752021 1.240516 0.020000
11.235981 -3.568291 1.116818 0.160000
13.628651 -6.578605 1.276875 0.020000
9.940287 3.376696 0.164243 0.090000
10.247896 1.157232 0.146795 0.070000
10.297243 0.147998 0.143172 0.030000
9.986466 -0.858131 0.138621 0.030000
9.654818 -1.819671 0.139181 0.020000
9.248209 -2.782610 0.129540 0.020000
8.681056 -3.718619 0.119580 0.060000
43.597012 18.072779 8.786815 0.060000
5.990433 1.081373 1.310412 0.380000
11.060458 1.270407 2.169358 0.400000
40.336147 0.562992 7.143197 0.050000
42.049580 -4.590966 7.363513 0.240000
11.284293 -3.636485 2.236702 0.040000
11.346631 -5.341051 2.355530 0.000000
5.633378 1.511315 0.846073 0.200000
5.892446 1.041212 0.840002 0.340000
11.043504 1.258948 1.114260 0.520000
16.398602 0.225408 1.374399 0.020000
13.015946 -1.208987 1.185235 0.110000
13.385448 -2.747237 1.195481 0.020000
11.241180 -3.573046 1.076813 0.150000
13.643874 -6.583131 1.226897 0.010000
9.464209 3.167541 0.162222 0.080000
9.689781 2.096691 0.153830 0.030000
9.893838 1.105460 0.140678 0.080000
9.872336 0.139878 0.137033 0.030000
9.650776 -0.824536 0.132869 0.030000
9.323168 -1.735990 0.133626 0.020000
8.910603 -2.649034 0.124155 0.030000
8.296720 -3.495940 0.119404 0.060000
5.760811 1.582082 1.306674 0.000000
5.955588 1.075778 1.290300 0.270000
11.060550 1.270537 2.134358 0.310000
40.206711 0.556135 6.972832 0.070000
42.064983 -4.590102 7.208555 0.130000
11.279304 -3.631433 2.196707 0.050000
11.321466 -5.326365 2.310518 0.010000
5.653221 1.521752 0.831164 0.320000
5.872584 1.035886 0.824930 0.170000
11.013696 1.253505 1.079161 0.610000
16.353754 0.224751 1.319279 0.020000
13.015955 -1.203839 1.145254 0.100000
13.400645 -2.751801 1.155504 0.010000
13.628912 -6.578233 1.176876 0.020000
9.037655 2.984358 0.155428 0.080000
9.376399 2.010710 0.142693 0.020000
9.479887 1.047540 0.134382 0.070000
9.552326 0.138785 0.126193 0.030000
9.264807 -0.776901 0.127039 0.020000
8.961428 -1.647884 0.128009 0.020000
8.557889 -2.510764 0.123748 0.030000
8.013611 -3.336334 0.119258 0.050000
5.741059 1.571775 1.286584 0.000000
5.970624 1.076121 1.275340 0.220000
11.055642 1.270571 2.099345 0.390000
40.416958 0.560565 6.863396 0.080000
50.962738 -5.609496 8.488004 0.110000
11.309581 -3.640726 2.161752 0.050000
11.326487 -5.321103 2.265550 0.000000
5.653261 1.521808 0.816164 0.400000
5.882621 1.036133 0.809957 0.110000
11.003789 1.253444 1.044135 0.590000
12.990981 -1.199152 1.100206 0.110000
13.405665 -2.746538 1.110536 0.010000
11.150626 -3.534498 1.001719 0.100000
13.639041 -6.577856 1.126903 0.010000
8.720110 2.853253 0.154112 0.090000
6.311508 1.166148 0.326555 0.010000
9.090822 0.995080 0.133172 0.080000
