# This PCD file was generated using the MATLAB® pcwrite function
# from Computer Vision Toolbox®.
# .PCD v.7 - Point Cloud Data file format
VERSION .7
FIELDS x y z intensity
SIZE 4 4 4 4
TYPE F F F F
COUNT 1 1 1 1
WIDTH 1287
HEIGHT 1
VIEWPOINT 0 0 0 1 0 0 0
POINTS 1287
DATA ascii
43.603306 -20.653131 7.057857 0.100000
13.096316 5.579338 1.050678 0.060000
5.818491 1.260183 0.745622 0.390000
31.330811 2.066434 1.495221 0.020000
12.669437 -0.574540 0.921686 0.090000
11.641856 -1.749299 0.879637 0.230000
13.444087 -3.680253 0.912163 0.050000
13.525828 -5.599081 0.920244 0.040000
7.522015 2.745362 0.130583 0.120000
7.802486 1.940592 0.128324 0.050000
7.992220 1.174108 0.120969 0.100000
8.126295 0.441565 0.113596 0.030000
8.030865 -0.320416 0.115515 0.040000
7.874884 -1.053533 0.112382 0.030000
7.689305 -1.807202 0.104096 0.040000
7.323281 -2.539323 0.095419 0.080000
41.136688 19.826048 7.401896 0.050000
6.040746 1.337675 1.231495 0.330000
6.151100 0.799730 1.219783 0.130000
40.849678 -2.364482 6.258646 0.020000
40.011974 -12.687844 6.353085 0.020000
43.638607 -20.958260 7.261817 0.100000
5.838736 1.245513 0.760620 0.360000
13.256882 2.161883 1.018393 0.010000
13.229071 0.746192 0.988057 0.010000
12.665292 -0.624775 0.961489 0.110000
11.682798 -1.803671 0.919542 0.380000
7.785241 2.840420 0.131623 0.120000
8.066479 1.995657 0.129217 0.050000
8.241874 1.193875 0.126695 0.110000
8.426526 0.432313 0.114346 0.030000
8.321781 -0.364834 0.111109 0.040000
8.066068 -1.114919 0.122653 0.030000
7.850891 -1.889140 0.109213 0.040000
7.490633 -2.661157 0.100403 0.090000
41.279613 19.648058 7.591609 0.050000
6.031188 1.312432 1.246376 0.400000
6.166333 0.784946 1.239768 0.140000
42.124195 -2.636386 6.605966 0.070000
43.582912 -21.210068 7.450737 0.070000
13.088944 5.428822 1.145100 0.020000
5.839079 1.225461 0.775547 0.400000
31.260437 1.794250 1.709028 0.040000
12.651162 -0.675182 0.996265 0.070000
11.708756 -1.858312 0.954407 0.340000
15.515051 -4.516325 1.074463 0.020000
13.528551 -5.754405 1.014675 0.010000
8.068355 2.940842 0.137736 0.130000
8.315557 2.045418 0.135053 0.050000
8.506536 1.213947 0.127460 0.090000
8.681849 0.417182 0.119956 0.030000
8.617781 -0.414174 0.111698 0.040000
8.372940 -1.209040 0.118104 0.030000
8.067959 -1.995001 0.109386 0.040000
7.683184 -2.792493 0.100417 0.080000
41.903355 19.684074 7.848374 0.030000
6.016644 1.287113 1.256244 0.420000
6.186577 0.770276 1.254767 0.140000
42.182720 -2.840852 6.755360 0.070000
44.214195 -21.834169 7.745069 0.090000
13.075267 5.353382 1.189784 0.020000
5.864323 1.210887 0.790559 0.420000
15.062498 2.385934 1.178941 0.020000
13.225779 0.645818 1.067676 0.010000
12.026048 -0.677210 1.009626 0.060000
11.679437 -1.899009 0.989179 0.270000
13.535061 -5.839460 1.059376 0.040000
8.336662 3.030978 0.143771 0.130000
8.644249 2.116725 0.136176 0.050000
8.806193 1.234689 0.128319 0.090000
8.972178 0.402740 0.120660 0.030000
8.888771 -0.464011 0.117220 0.040000
8.604417 -1.284638 0.123428 0.030000
8.315295 -2.115304 0.114585 0.030000
7.870723 -2.923943 0.105418 0.070000
41.773403 19.401058 7.976985 0.090000
6.181922 0.750128 1.269680 0.220000
42.120472 -3.002531 6.879598 0.070000
44.219128 -22.114731 7.909040 0.080000
5.854682 1.190662 0.800458 0.380000
15.198122 2.348360 1.224155 0.010000
31.309889 1.534418 1.908193 0.040000
11.956749 -0.718654 1.039291 0.070000
13.443421 -3.930951 1.086231 0.020000
8.649591 3.141991 0.145001 0.120000
8.928238 2.172174 0.137123 0.040000
9.110753 1.260527 0.129210 0.080000
9.282503 0.388680 0.121418 0.030000
9.149680 -0.509022 0.117734 0.040000
8.881090 -1.369355 0.123835 0.030000
8.507163 -2.211665 0.119728 0.040000
8.037966 -3.040797 0.115421 0.070000
41.177910 18.894436 8.008547 0.090000
6.032233 1.252295 1.286156 0.110000
6.251940 0.746377 1.294849 0.610000
41.689720 1.969548 7.046957 0.010000
42.213390 -3.176368 7.039196 0.070000
11.367505 -3.269515 2.153282 0.000000
45.248783 -22.921509 8.278732 0.050000
29.547289 13.091566 2.256557 0.140000
5.874831 1.180991 0.815475 0.430000
31.331936 1.414470 2.002805 0.040000
11.917349 -0.754525 1.069056 0.090000
13.532318 -5.969866 1.148885 0.020000
8.907901 3.231935 0.151010 0.130000
9.256918 2.243463 0.143246 0.050000
9.445293 1.286920 0.135182 0.080000
9.632820 0.375387 0.122283 0.030000
9.460868 -0.568073 0.118327 0.030000
9.152764 -1.454167 0.124229 0.030000
8.769605 -2.336661 0.119948 0.030000
8.220506 -3.172343 0.120408 0.070000
40.928951 18.564280 8.096671 0.100000
6.082254 1.248161 1.311271 0.410000
39.784378 1.733676 6.861105 0.040000
42.596657 -3.369759 7.229479 0.080000
11.348197 -3.310002 2.183082 0.000000
44.980518 -23.032125 8.402622 0.080000
13.088413 5.173180 1.304150 0.040000
5.875188 1.160958 0.825402 0.350000
13.236290 1.905765 1.202389 0.010000
31.343725 1.309366 2.087446 0.030000
11.887864 -0.785187 1.093865 0.090000
13.500706 -4.060152 1.160901 0.020000
13.558742 -6.049520 1.188658 0.020000
9.560711 2.309293 0.144284 0.040000
9.764864 1.313063 0.131113 0.090000
9.873146 0.359969 0.127853 0.030000
9.701768 -0.613485 0.123787 0.030000
9.394335 -1.534573 0.129560 0.030000
9.042141 -2.466464 0.120177 0.030000
8.443530 -3.328099 0.120411 0.070000
40.813721 18.301697 8.185394 0.080000
6.057724 1.222668 1.316113 0.550000
11.235021 1.553745 2.185867 0.490000
39.767200 1.572971 6.955464 0.020000
42.028805 -3.490747 7.252547 0.080000
11.338983 -3.355296 2.212890 0.010000
44.823479 -23.205622 8.526568 0.070000
13.074584 5.107794 1.333871 0.040000
5.895350 1.151306 0.835419 0.170000
31.350622 1.199185 2.167056 0.050000
11.878567 -0.825464 1.118691 0.110000
13.519424 -6.090409 1.223404 0.010000
9.553647 3.459324 0.158540 0.120000
10.044607 1.328405 0.136900 0.080000
10.148561 0.340222 0.133498 0.030000
9.977757 -0.663227 0.129322 0.030000
9.620812 -1.610267 0.134870 0.030000
9.334769 -2.600883 0.120441 0.030000
8.727036 -3.507683 0.115484 0.070000
41.133900 18.272219 8.351123 0.090000
6.067888 1.212824 1.326103 0.510000
11.230544 1.523581 2.205743 0.410000
39.169926 1.426543 6.943361 0.020000
42.486809 -3.667649 7.428087 0.100000
44.132717 -9.493550 7.790730 0.010000
44.782051 -23.411964 8.665695 0.080000
29.534866 12.660317 2.509924 0.070000
5.880710 1.130985 0.845305 0.110000
13.197865 1.814793 1.261951 0.010000
13.264462 0.430915 1.231980 0.000000
11.879172 -0.860550 1.143563 0.130000
13.390194 -2.477209 1.226498 0.010000
13.487347 -4.155681 1.230512 0.020000
13.565940 -6.174680 1.263212 0.020000
9.866576 3.570337 0.159770 0.110000
6.403990 1.292795 0.367267 0.030000
10.314339 1.343537 0.147661 0.080000
10.423879 0.325473 0.139162 0.030000
10.173666 -0.709501 0.134662 0.030000
9.887584 -1.700174 0.135232 0.030000
9.536827 -2.707051 0.125574 0.030000
8.929764 -3.648844 0.120488 0.070000
40.983128 18.038998 8.429863 0.070000
6.068137 1.197771 1.341048 0.520000
39.172058 1.301195 7.042902 0.030000
42.924908 -3.849932 7.603555 0.180000
44.044880 -9.620603 7.885030 0.010000
11.284943 -3.411488 2.252540 0.030000
44.775738 -23.622601 8.794897 0.040000
29.576675 12.555824 2.584646 0.140000
5.900775 1.126332 0.855340 0.100000
11.239408 1.467554 1.165547 0.030000
13.225183 0.390083 1.251726 0.010000
11.894679 -0.890350 1.168492 0.130000
13.390895 -2.517294 1.251351 0.040000
13.452863 -4.186439 1.255308 0.010000
13.556726 -6.219974 1.293020 0.040000
10.065555 3.624120 0.170489 0.120000
6.429151 1.283239 0.377298 0.060000
10.564100 1.358323 0.148368 0.070000
10.684310 0.305458 0.139768 0.030000
10.404568 -0.755106 0.140095 0.030000
10.053772 -1.762039 0.145436 0.020000
9.748882 -2.813027 0.130733 0.030000
9.137682 -3.799906 0.125469 0.060000
41.239029 17.973335 8.580288 0.080000
6.083299 1.188023 1.351051 0.560000
39.553787 1.192918 7.198497 0.040000
42.857056 -3.976621 7.702908 0.240000
43.967304 -9.762499 7.989301 0.020000
11.386243 -3.484726 2.297533 0.010000
29.657902 12.482092 2.659585 0.030000
5.896038 1.111202 0.865272 0.110000
11.205032 1.431816 1.185325 1.000000
11.920280 -0.924957 1.193431 0.100000
13.488928 -4.245869 1.285182 0.050000
6.419415 1.268013 0.387216 1.000000
10.843843 1.373665 0.154155 0.100000
10.939728 0.285327 0.145360 0.020000
10.620568 -0.805996 0.145470 0.030000
10.265265 -1.838001 0.145706 0.030000
9.961046 -2.923983 0.130875 0.030000
9.380908 -3.965259 0.120490 0.060000
41.613651 17.974943 8.736274 0.080000
6.093463 1.178180 1.361041 0.530000
39.351280 1.053832 7.247452 0.030000
42.724403 -4.109423 7.767068 0.210000
43.919868 -9.908745 8.073634 0.010000
11.386945 -3.524811 2.322386 0.020000
11.322812 -5.151730 2.426172 0.010000
29.664923 12.366949 2.729176 0.030000
5.911201 1.101454 0.875275 0.100000
11.115776 1.390044 1.199937 0.120000
11.985969 -0.963798 1.218458 0.110000
33.365112 -11.861082 2.543769 0.080000
10.716395 3.846606 0.178015 0.100000
6.399858 1.242579 0.402070 0.110000
11.028878 1.372172 0.164633 0.130000
11.225141 0.265772 0.151032 0.030000
10.861565 -0.856408 0.150911 0.030000
10.466735 -1.914193 0.155949 0.020000
10.132905 -3.020746 0.140964 0.030000
9.538248 -4.087304 0.130447 0.050000
41.517498 17.762789 8.810235 0.080000
6.108626 1.168432 1.371045 0.220000
11.217829 1.393021 2.285225 0.150000
38.858784 0.919394 7.240666 0.040000
42.396290 -4.215854 7.800817 0.100000
43.872314 -10.050029 8.167986 0.010000
11.342380 -3.550742 2.342173 0.030000
11.293340 -5.182373 2.445981 0.010000
29.632359 12.231082 2.788586 0.050000
5.916461 1.086515 0.885233 0.090000
11.131296 1.360263 1.219867 0.120000
31.393831 0.723682 2.505404 0.030000
13.033617 -1.104070 1.305672 0.110000
11.319510 -3.501973 1.197283 0.030000
10.999796 3.932030 0.184073 0.090000
6.434934 1.238232 0.407146 0.060000
11.144214 1.354341 0.174868 0.310000
11.495652 0.240930 0.156646 0.020000
11.072661 -0.912393 0.156254 0.030000
10.703511 -2.004674 0.156230 0.020000
10.324977 -3.127086 0.141070 0.020000
9.741180 -4.238444 0.130415 0.050000
5.908536 1.689600 1.397460 0.000000
6.098998 1.148225 1.375944 0.110000
11.178481 1.357224 2.294990 0.310000
38.801033 0.793046 7.300046 0.050000
42.283535 -4.343275 7.865049 0.170000
43.779804 -10.192119 8.247217 0.010000
11.348093 -3.590713 2.362040 0.050000
29.639801 12.095999 2.843104 0.150000
5.916735 1.071499 0.890178 0.200000
11.111932 1.324831 1.234684 0.150000
12.969261 -1.140364 1.320370 0.080000
11.395882 -3.575597 1.217209 0.050000
34.463425 -18.332401 2.852583 0.010000
11.025046 1.306977 0.194381 0.400000
11.706174 0.214939 0.162099 0.020000
11.288758 -0.968283 0.161611 0.030000
10.844813 -2.071999 0.161349 0.020000
10.471853 -3.224308 0.146092 0.020000
9.898629 -4.365470 0.135353 0.050000
5.928698 1.679948 1.407477 0.010000
6.104258 1.133287 1.385903 0.090000
11.054488 1.304877 2.284471 1.000000
38.663689 0.650317 7.319158 0.030000
42.406685 -4.516203 7.934729 0.200000
11.293570 -3.616781 2.366801 0.040000
29.652321 11.961123 2.867635 0.210000
5.961810 1.067344 0.895281 0.420000
11.047806 1.278594 1.234345 0.350000
31.512829 0.505647 2.579905 0.000000
12.965015 -1.180471 1.325209 0.080000
11.270714 -3.567993 1.216911 0.080000
20.210308 -10.340421 1.880077 0.000000
11.249422 3.951760 0.199798 0.080000
10.965907 1.260818 0.199055 0.440000
11.671961 0.174294 0.156858 0.030000
11.229275 -0.994390 0.151358 0.020000
10.825405 -2.102357 0.156186 0.020000
10.366790 -3.221302 0.140829 0.020000
9.702337 -4.299199 0.130087 0.050000
6.104572 1.118327 1.375848 0.090000
11.015244 1.269229 2.254236 0.450000
40.095291 0.557113 7.487550 0.020000
42.304031 -4.622748 7.814064 0.230000
11.263941 -3.632241 2.336666 0.040000
5.912241 1.046446 0.880073 0.500000
11.048254 1.258691 1.209272 0.420000
31.494312 0.440611 2.489614 0.010000
12.955492 -1.200528 1.290110 0.070000
17.037550 -3.653719 1.546648 0.000000
11.306456 -3.602205 1.186876 0.190000
10.724051 3.706691 0.187515 0.080000
10.936195 1.250375 0.163938 0.240000
11.077168 0.157900 0.155245 0.030000
10.723219 -0.944073 0.150224 0.030000
10.313023 -1.982131 0.150295 0.020000
9.948623 -3.059263 0.135340 0.020000
9.277626 -4.057290 0.129878 0.050000
5.968839 1.675789 1.387566 0.030000
6.099720 1.113306 1.355816 0.090000
11.030416 1.264629 2.224258 0.550000
40.335712 0.552101 7.383158 0.070000
42.209408 -4.618918 7.638829 0.250000
11.264045 -3.632092 2.296666 0.040000
5.922279 1.046693 0.865100 0.510000
11.018460 1.253266 1.169174 0.570000
13.249125 0.180394 1.281009 0.000000
13.000670 -1.204536 1.255212 0.100000
13.425423 -2.756767 1.275551 0.010000
11.256186 -3.583017 1.146816 0.170000
13.638723 -6.588579 1.321864 0.010000
10.267708 3.512954 0.175604 0.080000
10.411158 2.290485 0.171434 0.030000
10.647178 0.154701 0.144110 0.030000
10.297175 -0.892187 0.139305 0.030000
9.946200 -1.889103 0.139683 0.020000
9.545549 -2.901937 0.129872 0.020000
8.898397 -3.839496 0.124698 0.060000
5.949086 1.665482 1.367476 0.090000
6.094760 1.113266 1.340803 0.100000
11.025413 1.269662 2.189263 0.560000
40.370880 0.563290 7.243289 0.060000
42.204514 -4.603459 7.488872 0.250000
11.264053 -3.626944 2.256685 0.050000
11.331377 -5.331433 2.380526 0.000000
13.061943 4.717318 1.377387 0.010000
5.907320 1.046461 0.850060 1.020000
11.028440 1.258568 1.139219 0.530000
13.274129 0.186021 1.241095 0.000000
12.990681 -1.199579 1.215204 0.120000
13.420445 -2.751696 1.230557 0.010000
11.210724 -3.553736 1.106806 0.210000
11.272448 -5.212957 1.130799 0.010000
9.801353 3.319007 0.168666 0.090000
10.008080 2.187784 0.160000 0.030000
10.197919 1.156293 0.141661 0.080000
10.192181 0.151005 0.137909 0.030000
9.931298 -0.849168 0.133510 0.030000
9.594363 -1.795806 0.134111 0.030000
9.207750 -2.758362 0.124524 0.030000
8.584828 -3.655451 0.119563 0.050000
5.879657 1.639258 1.337197 0.090000
6.084802 1.113131 1.325776 0.180000
11.025409 1.274791 2.154282 0.510000
39.725777 0.596840 6.996728 0.040000
42.053669 -4.535676 7.308728 0.270000
11.299126 -3.626163 2.226779 0.060000
11.336193 -5.316191 2.340595 0.010000
13.116270 4.758512 1.337682 0.020000
11.038325 1.268869 1.109283 0.510000
16.373154 0.249962 1.364424 0.010000
13.005495 -1.184146 1.175300 0.100000
11.210624 -3.543608 1.071843 0.250000
11.236793 -5.173486 1.090853 0.010000
9.359707 3.140535 0.161849 0.090000
9.639695 2.100732 0.153715 0.030000
9.818769 1.109041 0.135496 0.070000
9.811964 0.158725 0.136945 0.030000
9.545125 -0.791553 0.132716 0.030000
9.252510 -1.702337 0.133567 0.020000
8.854751 -2.605096 0.124172 0.020000
8.245771 -3.446907 0.119453 0.060000
5.869698 1.639122 1.322170 0.140000
6.114535 1.128739 1.315912 0.410000
11.045196 1.290283 2.124391 0.510000
39.680286 0.641490 6.856774 0.030000
42.248333 -4.501557 7.204362 0.130000
11.319021 -3.615651 2.191869 0.050000
11.371279 -5.315391 2.305689 0.000000
13.046606 4.747359 1.287458 0.030000
5.907194 1.056553 0.825097 0.390000
11.043129 1.284092 1.074352 0.430000
13.243781 0.215756 1.156126 0.010000
13.015407 -1.173808 1.135364 0.110000
11.205346 -3.523559 1.031903 0.260000
13.622789 -6.518303 1.167082 0.010000
9.032081 3.014257 0.155525 0.090000
9.271406 2.008681 0.147411 0.030000
9.434512 1.066675 0.134335 0.080000
9.521852 0.163206 0.126204 0.030000
9.274326 -0.751714 0.127157 0.030000
8.950855 -1.618081 0.128092 0.020000
8.537127 -2.471155 0.123841 0.030000
8.012953 -3.301322 0.114387 0.050000
5.869545 1.649176 1.307207 0.190000
6.079690 1.123145 1.295800 0.410000
11.034988 1.305200 2.094419 0.520000
42.972397 0.768113 7.260842 0.040000
42.883606 -4.504244 7.166010 0.070000
11.358996 -3.609775 2.161995 0.060000
5.902139 1.061512 0.810102 0.420000
12.985024 -1.149257 1.100375 0.120000
13.444796 -2.700781 1.110808 0.010000
11.220135 -3.508163 1.001999 0.260000
13.612238 -6.483334 1.122184 0.020000
8.684650 2.877597 0.149110 0.100000
6.425458 1.223378 0.317065 0.010000
9.085153 1.029977 0.133287 0.070000
9.171726 0.166501 0.125303 0.030000
8.968438 -0.707546 0.121523 0.020000
8.624096 -1.529323 0.127569 0.020000
8.239691 -2.346829 0.123527 0.030000
7.785217 -3.160659 0.114315 0.060000
5.849588 1.648849 1.292153 0.160000
6.064649 1.127931 1.275778 0.250000
11.124532 1.331975 2.079753 0.410000
43.071484 0.835518 7.126350 0.060000
42.151188 -4.347253 6.894679 0.040000
11.363704 -3.589552 2.127083 0.060000
15.064050 5.681125 1.306195 0.020000
5.897083 1.066471 0.795107 0.470000
31.492426 0.627937 1.855299 0.010000
13.024834 -1.133345 1.060538 0.120000
13.439531 -2.680713 1.065869 0.020000
11.224937 -3.492940 0.967068 0.340000
13.606699 -6.448251 1.072300 0.010000
8.406632 2.772272 0.142992 0.100000
6.460217 1.239119 0.297214 0.030000
8.750790 0.993567 0.132279 0.080000
8.856594 0.170467 0.124495 0.030000
8.622449 -0.659164 0.120800 0.030000
8.327426 -1.444990 0.127108 0.030000
8.012734 -2.246140 0.118309 0.030000
7.582680 -3.029496 0.109274 0.060000
11.169109 1.357925 2.054965 0.500000
39.937332 0.847751 6.503208 0.020000
43.632786 -4.429223 6.988243 0.120000
11.383504 -3.574042 2.092191 0.030000
14.939587 5.658920 1.255787 0.040000
5.911832 1.081811 0.780203 0.300000
11.127198 1.346043 0.984801 0.130000
31.476469 0.693046 1.745498 0.030000
13.029554 -1.113105 1.020625 0.130000
13.601064 -6.408168 1.022434 0.020000
8.108796 2.656548 0.141785 0.100000
6.445163 1.243887 0.282192 0.060000
8.451324 0.962827 0.131383 0.070000
8.526368 0.179144 0.123665 0.030000
8.336544 -0.614632 0.120219 0.030000
8.071037 -1.374888 0.126700 0.030000
7.805870 -2.150066 0.113126 0.030000
7.395429 -2.913043 0.104218 0.070000
6.059440 1.142944 1.245820 0.100000
40.685669 0.947247 6.465530 0.030000
48.329830 -4.826262 7.524033 0.060000
11.398209 -3.553629 2.057306 0.020000
14.859745 5.657593 1.200573 0.060000
5.891875 1.081483 0.765149 0.250000
11.121907 1.366074 0.949861 0.120000
13.262650 0.296700 1.001474 0.000000
13.074254 -1.092116 0.985820 0.070000
13.413609 -2.620887 0.981022 0.060000
13.580240 -6.358375 0.972564 0.020000
7.850582 2.561604 0.135758 0.100000
6.420111 1.248463 0.267144 1.000000
8.166870 0.932392 0.125527 0.080000
8.281236 0.184468 0.118045 0.030000
8.090823 -0.579332 0.119709 0.030000
7.869842 -1.313712 0.121402 0.030000
7.593993 -2.054107 0.112930 0.030000
7.213080 -2.791496 0.099194 0.070000
6.034497 1.142539 1.225753 0.090000
40.669422 1.032482 6.320804 0.070000
40.599617 -3.924419 6.217194 0.150000
44.420696 -10.034629 6.834461 0.010000
11.317218 -3.494968 2.002311 0.030000
14.839331 5.687427 1.140630 0.090000
11.096716 1.380722 0.914849 0.130000
13.247277 0.321557 0.961526 0.000000
11.931597 -0.953701 0.908351 0.050000
11.369801 -3.469776 0.862531 0.190000
15.697446 -7.498046 0.978854 0.030000
7.577549 2.456357 0.134654 0.100000
6.400058 1.253135 0.252109 0.060000
7.927203 0.912799 0.124828 0.090000
8.001000 0.194103 0.117349 0.030000
7.895106 -0.543055 0.114333 0.030000
7.693751 -1.257038 0.111153 0.030000
7.402317 -1.967745 0.107750 0.040000
7.051015 -2.684562 0.094168 0.070000
6.054136 1.162955 1.215880 0.090000
11.073578 1.401543 1.934877 0.230000
44.055450 1.226173 6.655365 0.030000
40.618076 -3.823516 6.072616 0.230000
44.468914 -9.918079 6.670018 0.020000
11.321733 -3.464748 1.967435 0.030000
44.727932 -23.788027 7.289142 0.020000
14.868306 5.748176 1.090931 0.030000
6.339051 1.235130 0.751888 0.080000
11.051433 1.399987 0.879802 0.120000
31.473486 0.894216 1.421235 0.000000
11.901132 -0.924132 0.868381 0.080000
13.382494 -2.551159 0.896200 0.070000
11.344144 -3.430114 0.822611 0.270000
13.578873 -6.273019 0.872877 0.030000
7.354029 2.377062 0.133775 0.100000
7.707531 0.893588 0.124184 0.090000
7.795847 0.200175 0.116836 0.030000
7.674381 -0.507276 0.113889 0.030000
7.507540 -1.195593 0.110895 0.030000
7.225638 -1.881095 0.102611 0.040000
6.838359 -2.548630 0.099119 0.080000
6.024098 1.167454 1.195818 0.120000
11.083093 1.431859 1.900014 0.210000
44.093548 1.347492 6.500914 0.010000
40.506062 -3.694997 5.897799 0.230000
44.532169 -9.801188 6.490616 0.010000
11.306087 -3.424875 1.922542 0.040000
44.749958 -23.601765 7.069889 0.020000
14.827895 5.777627 1.030935 0.100000
6.309013 1.239629 0.731826 0.090000
11.066042 1.425400 0.844935 0.140000
13.316254 0.388220 0.871953 0.000000
11.895650 -0.894104 0.833478 0.090000
11.298299 -3.380836 0.782674 0.280000
13.562869 -6.213113 0.818057 0.020000
7.125605 2.292672 0.132866 0.110000
7.384272 1.582519 0.125901 0.040000
7.502774 0.879682 0.118597 0.100000
7.570602 0.210863 0.116288 0.030000
7.463654 -0.471305 0.113473 0.040000
7.276242 -1.130011 0.110535 0.030000
7.028854 -1.789847 0.102437 0.040000
6.706685 -2.461099 0.089100 0.090000
44.136883 19.338861 7.287915 0.100000
6.023959 1.177527 1.175855 0.250000
6.208685 0.670957 1.179454 0.100000
40.489349 -3.584747 5.748164 0.260000
44.595181 -9.674372 6.331250 0.000000
11.300426 -3.384830 1.882676 0.020000
45.984253 -24.073154 7.056358 0.060000
14.807180 5.822440 0.976047 0.170000
6.313764 1.254777 0.716894 0.150000
11.075460 1.460714 0.810090 0.130000
13.295704 0.422997 0.827028 0.010000
11.905190 -0.863751 0.788615 0.100000
11.348010 -3.359734 0.742882 0.270000
13.567054 -6.162823 0.763254 0.010000
6.926900 2.223873 0.127091 0.120000
7.189992 1.543810 0.120250 0.040000
7.278104 0.860376 0.117939 0.110000
7.380363 0.222240 0.110834 0.030000
7.257939 -0.435220 0.108070 0.040000
7.074938 -1.063855 0.110256 0.030000
6.877458 -1.717716 0.097309 0.040000
6.524323 -2.339570 0.089076 0.090000
44.084377 19.498653 7.078370 0.080000
6.008809 1.187293 1.160852 0.150000
6.253320 0.691852 1.169649 0.330000
40.802700 -3.478269 5.624376 0.160000
46.167046 -23.928913 6.862370 0.060000
14.781384 5.872175 0.916164 0.120000
6.298532 1.269562 0.696909 0.130000
11.209473 1.518420 0.775654 0.060000
11.919704 -0.833339 0.753765 0.080000
13.425839 -2.444797 0.756707 0.040000
11.382629 -3.333920 0.703068 0.230000
13.571130 -6.107552 0.713470 0.010000
6.748001 2.165455 0.121407 0.110000
6.970896 1.494605 0.119495 0.040000
7.113243 0.852236 0.112478 0.100000
7.155213 0.227929 0.110267 0.030000
7.067304 -0.403866 0.107689 0.040000
6.903820 -1.007122 0.110020 0.040000
6.700766 -1.631084 0.097170 0.040000
6.407716 -2.256789 0.089079 0.100000
41.529400 18.506563 6.518007 0.050000
6.003575 1.202269 1.140894 0.100000
6.218200 0.701273 1.144592 1.000000
57.254322 2.315552 7.673878 0.050000
12.071899 -0.839459 1.854151 0.060000
45.203407 -23.175915 6.502650 0.030000
14.785390 5.932482 0.856398 0.220000
6.308186 1.289805 0.682010 0.120000
11.179104 1.542989 0.735666 0.110000
14.929451 -1.050681 0.745814 0.630000
11.492713 -3.331665 0.663363 0.220000
15.722418 -7.191359 0.665056 0.020000
6.549284 2.096637 0.120632 0.110000
6.791517 1.461182 0.113902 0.050000
6.908473 0.838312 0.111892 0.110000
6.999859 0.244957 0.109925 0.030000
6.891570 -0.367225 0.107367 0.040000
6.762901 -0.959794 0.104828 0.040000
6.534155 -1.549279 0.102040 0.050000
6.255637 -2.149683 0.089081 0.100000
41.561031 18.707865 6.338836 0.070000
5.973537 1.206768 1.120832 0.110000
6.148182 0.705024 1.119423 0.700000
57.300961 2.522288 7.454766 0.080000
11.981089 -0.791006 1.804094 0.110000
45.310078 -22.973103 6.303680 0.130000
14.868410 6.044294 0.802029 0.100000
6.278052 1.299303 0.661966 0.100000
11.193426 1.583399 0.700853 0.210000
30.810951 1.363774 0.831245 0.000000
14.818452 -0.992613 0.695739 2.069000
13.348993 -2.335901 0.661910 0.010000
11.542329 -3.305563 0.623589 0.340000
13.553833 -5.972456 0.603926 0.040000
6.385273 2.043486 0.120007 0.110000
6.612126 1.427740 0.113310 0.050000
6.743600 0.830153 0.111431 0.110000
6.799705 0.251125 0.109425 0.040000
6.741036 -0.340085 0.102075 0.040000
6.621983 -0.912466 0.099636 0.030000
6.372653 -1.472358 0.101904 0.050000
6.128949 -2.062075 0.084075 0.090000
5.978192 1.226916 1.105919 0.120000
6.132937 0.719790 1.104437 0.890000
57.322041 2.758558 7.230697 0.070000
12.065480 -0.754273 1.774450 0.250000
45.396461 -22.755676 6.104712 0.090000
14.956525 6.151202 0.747656 0.170000
6.297704 1.319738 0.647093 0.100000
11.167948 1.613044 0.665896 0.170000
31.478539 1.512007 0.718538 0.000000
11.776644 -1.960783 0.614200 0.050000
11.607038 -3.284173 0.583837 0.460000
6.211360 1.985145 0.119336 0.110000
6.427722 1.394184 0.117704 0.040000
6.558826 0.816612 0.110899 0.110000
6.664456 0.263555 0.104119 0.040000
6.575383 -0.308270 0.106760 0.040000
6.476051 -0.865253 0.099431 0.030000
6.241349 -1.404843 0.096812 0.050000
5.971857 -1.955083 0.089063 0.100000
43.871670 20.267540 6.310665 0.080000
5.953057 1.236509 1.085889 0.110000
6.142591 0.740033 1.089538 0.880000
51.954361 2.703811 6.381474 0.010000
11.979765 -0.710724 1.724388 0.190000
11.683567 -1.951506 1.689002 0.000000
40.442818 -13.329977 5.061809 0.010000
44.735104 -22.127132 5.805319 0.050000
11.197075 1.663739 0.631160 0.150000
13.297158 0.638870 0.607832 0.000000
11.735785 -1.911428 0.579276 0.060000
11.666652 -3.257880 0.544090 0.170000
13.551424 -5.832092 0.499440 0.010000
6.042445 1.926900 0.118678 0.110000
6.263328 1.361030 0.117151 0.040000
6.418948 0.808931 0.110505 0.110000
6.484189 0.275086 0.108691 0.030000
6.424741 -0.276149 0.106487 0.040000
6.309920 -0.808443 0.104208 0.030000
6.110127 -1.342345 0.096702 0.040000
5.860344 -1.877205 0.089062 0.090000
47.265118 22.171949 6.576605 0.080000
5.962615 1.261752 1.071007 0.160000
6.157244 0.760372 1.074651 0.660000
52.230453 2.934781 6.208051 0.030000
11.974021 -0.665661 1.679540 0.410000
11.632545 -1.892307 1.644089 0.020000
40.212574 -13.028544 4.847326 0.020000
44.906693 -21.918039 5.596542 0.150000
11.206328 1.709090 0.586353 0.100000
11.730027 -1.866384 0.539428 0.260000
13.535025 -5.752209 0.449694 0.020000
5.893335 1.879036 0.118111 0.090000
6.089018 1.322667 0.121554 0.040000
6.234161 0.795372 0.114972 0.090000
6.329026 0.282116 0.108312 0.030000
6.259101 -0.244316 0.106173 0.040000
6.184081 -0.765845 0.104038 0.030000
5.983797 -1.274771 0.101623 0.050000
5.723536 -1.784827 0.094048 0.100000
47.789692 22.742664 6.425094 0.050000
5.972270 1.281995 1.056108 0.420000
6.171802 0.785711 1.059783 0.340000
57.384857 3.487310 6.573564 0.060000
11.983248 -0.620348 1.644732 0.490000
40.299488 -12.846316 4.703229 0.010000
45.103924 -21.748627 5.432685 0.030000
13.089762 5.465934 0.575234 0.030000
11.215555 1.754403 0.551545 0.140000
13.235488 0.738036 0.518039 0.000000
13.406388 -3.734242 0.436859 0.070000
13.533731 -5.677019 0.394969 0.060000
5.744308 1.826154 0.122526 0.100000
5.934526 1.294703 0.121047 0.040000
6.104198 0.792901 0.109624 0.090000
6.173768 0.294145 0.107952 0.040000
6.123551 -0.216907 0.105921 0.050000
6.068240 -0.723056 0.103895 0.040000
5.872776 -1.221869 0.096530 0.050000
5.642319 -1.721353 0.089072 0.110000
54.666931 26.517769 7.077086 0.030000
5.917236 1.286015 1.035979 0.520000
6.096785 0.789366 1.034601 0.710000
57.390160 3.763267 6.354601 0.070000
12.062462 -0.573694 1.610112 0.190000
11.530499 -1.773911 1.554261 0.040000
41.040268 -12.866784 4.610086 0.020000
51.847492 -24.811852 5.938906 0.060000
13.073580 5.535857 0.515451 0.020000
13.133340 3.721662 0.513863 0.070000
24.781925 1.585126 0.331325 0.010000
13.261581 -0.616520 0.463071 0.050000
13.425461 -3.678684 0.387115 0.050000
11.290661 -4.494786 0.398509 1.000000
5.629918 1.793976 0.117107 0.090000
5.814836 1.277408 0.120670 0.040000
5.949406 0.779915 0.114172 0.100000
6.058502 0.306940 0.107698 0.030000
6.003095 -0.194210 0.105691 0.050000
5.942401 -0.680458 0.103725 0.040000
5.781739 -1.168603 0.096491 0.060000
5.530807 -1.643475 0.089070 0.120000
46.506683 22.705139 5.861600 0.060000
5.911906 1.305990 1.016039 0.410000
6.076554 0.804055 1.014603 0.820000
57.420441 4.044814 6.105724 0.050000
12.692306 -0.561684 1.626801 0.170000
11.484571 -1.719616 1.509343 0.030000
41.121891 -12.664526 4.431049 0.020000
52.537666 -24.787931 5.750794 0.020000
17.742338 8.011185 0.406839 0.080000
22.957136 1.565395 0.266488 0.000000
11.622089 -1.698000 0.424771 0.030000
11.249144 -4.410420 0.358714 0.110000
5.525416 1.766970 0.116734 0.070000
5.690243 1.255018 0.120261 0.040000
5.849329 0.782999 0.113922 0.100000
5.923323 0.314334 0.112373 0.030000
5.897540 -0.166227 0.105519 0.060000
5.846665 -0.642267 0.098617 0.040000
5.670610 -1.110721 0.096416 0.060000
5.479871 -1.594423 0.084120 0.120000
47.358139 23.431887 5.781523 0.040000
6.086112 0.829297 0.999721 0.930000
57.425762 4.315660 5.916743 0.040000
12.776492 -0.514972 1.602194 0.210000
11.483704 -1.669495 1.474527 0.140000
39.437805 -11.900470 4.109490 0.030000
51.779709 -24.076204 5.446458 0.110000
13.060968 5.686008 0.415976 0.080000
13.136205 3.847106 0.414336 0.110000
13.155932 2.297247 0.398626 0.020000
11.285225 0.746017 0.422977 0.000000
12.999374 -0.491189 0.372852 0.030000
11.591146 -1.643436 0.384893 0.120000
16.397062 -4.491238 0.206849 0.020000
11.243017 -4.345361 0.313939 0.370000
5.406110 1.729678 0.116284 0.080000
5.600368 1.248314 0.115002 0.040000
5.724448 0.775606 0.113568 0.100000
5.848075 0.327932 0.102227 0.030000
5.797079 -0.143147 0.105343 0.060000
5.756011 -0.608997 0.098504 0.050000
5.609868 -1.071859 0.091402 0.060000
5.378535 -1.526370 0.089108 0.130000
47.481426 23.810011 5.593249 0.040000
5.881320 1.340521 0.986087 0.120000
6.060868 0.843871 0.984709 0.880000
51.446030 4.088830 5.155283 0.030000
12.655509 -0.457077 1.547093 0.440000
11.502942 -1.623972 1.434746 0.130000
38.342297 -11.325377 3.843765 0.020000
51.198215 -23.441166 5.157298 0.100000
16.901764 7.790524 0.273823 0.040000
18.713299 5.904995 0.241542 0.030000
11.304355 0.796521 0.388214 0.010000
12.643069 -0.422909 0.347175 0.050000
11.565188 -1.588795 0.350028 0.190000
14.830772 -3.916115 0.199899 0.030000
5.321426 1.713072 0.111001 0.060000
5.495675 1.231305 0.114665 0.030000
5.644381 0.779092 0.108372 0.100000
5.727893 0.335613 0.106942 0.030000
5.716711 -0.124683 0.105202 0.060000
5.670357 -0.575632 0.098404 0.050000
5.529021 -1.028400 0.091352 0.060000
5.332695 -1.482222 0.084153 0.120000
57.224709 29.359676 6.434320 0.030000
5.910682 1.376144 0.971296 0.370000
51.581337 4.362185 4.961650 0.030000
12.604499 -0.397860 1.497180 0.660000
11.522084 -1.573450 1.394983 0.130000
17.511713 -4.701180 1.913996 0.000000
52.715870 -23.811781 5.054881 0.050000
13.078077 5.851750 0.311635 0.090000
15.905267 4.991000 0.245815 0.060000
11.183784 0.829328 0.358021 1.000000
11.559322 -1.538770 0.315198 0.300000
13.994356 -3.587021 0.183939 0.020000
10.635103 -3.931765 0.268889 0.160000
5.226910 1.686239 0.115655 0.070000
5.420785 1.224870 0.114446 0.030000
5.544482 0.772159 0.113086 0.090000
5.667630 0.349480 0.101836 0.030000
5.641259 -0.101105 0.100092 0.060000
5.589701 -0.542170 0.098318 0.050000
5.478372 -0.994346 0.086346 0.060000
5.246561 -1.423861 0.084145 0.130000
54.917099 28.491941 5.985066 0.030000
5.860635 1.380241 0.956180 0.390000
31.129307 2.706950 3.062092 0.020000
12.558545 -0.343603 1.462261 0.780000
11.486115 -1.519019 1.365091 0.150000
19.213028 -7.904676 2.046530 0.000000
14.572894 4.580410 0.240810 0.050000
14.905739 2.871538 0.220327 0.010000
11.103208 0.862900 0.327935 0.070000
14.898339 -0.394144 0.198167 0.020000
11.578547 -1.493266 0.280417 0.210000
12.881502 -3.188282 0.187516 0.040000
10.634140 -3.876646 0.234091 0.170000
5.157223 1.669919 0.110412 0.050000
5.336006 1.213263 0.109181 0.030000
5.469413 0.775740 0.107903 0.090000
5.582454 0.357850 0.101645 0.020000
5.560891 -0.082641 0.099951 0.050000
5.529246 -0.518306 0.093249 0.040000
5.407619 -0.955694 0.086305 0.050000
5.195708 -1.379827 0.084176 0.140000
29.280890 14.848089 3.267402 0.010000
5.845390 1.395007 0.941195 0.390000
6.064835 0.904123 0.939943 0.100000
31.146759 2.852640 2.972678 0.010000
12.542681 -0.293769 1.427404 0.790000
11.585683 -1.492016 1.340451 0.120000
17.818798 -7.150603 1.870692 0.000000
12.709000 5.809931 0.240516 0.070000
13.469151 4.244231 0.231680 0.050000
13.953517 2.718293 0.212271 0.010000
11.057528 0.902142 0.297962 0.070000
13.976525 -0.306746 0.186086 0.010000
11.597856 -1.452779 0.250618 0.160000
12.286958 -2.954572 0.171833 0.040000
10.623167 -3.821736 0.204267 0.200000
5.067719 1.643201 0.110079 0.060000
5.261116 1.206827 0.108962 0.020000
5.394331 0.779303 0.107720 0.070000
5.507277 0.366411 0.101480 0.020000
5.490520 -0.063985 0.099837 0.060000
5.443579 -0.484959 0.098149 0.050000
5.372064 -0.926351 0.081322 0.050000
5.139856 -1.335889 0.084193 0.150000
29.262922 15.018179 3.157986 0.020000
5.850045 1.415155 0.926282 0.440000
6.029593 0.918506 0.924905 0.110000
31.124437 2.987603 2.873121 0.040000
12.541924 -0.248629 1.387570 0.870000
11.650079 -1.455666 1.310754 0.100000
19.216686 -4.938404 1.872564 0.000000
17.963160 -7.107611 1.811228 0.000000
12.019738 5.506751 0.217589 0.060000
12.728162 4.030057 0.213949 0.050000
13.046300 2.565928 0.199337 0.010000
11.111638 0.953298 0.268293 0.080000
13.190057 -0.236778 0.179293 0.020000
11.607070 -1.407484 0.220810 0.270000
11.752950 -2.749744 0.166200 0.040000
10.612084 -3.761846 0.179460 0.210000
5.027835 1.637454 0.104954 0.040000
5.186321 1.195393 0.108724 0.020000
5.304431 0.772562 0.112461 0.110000
5.452096 0.375356 0.101370 0.030000
5.425245 -0.050233 0.099717 0.050000
5.408215 -0.465614 0.093129 0.040000
5.296298 -0.887814 0.086267 0.040000
5.104205 -1.301548 0.079228 0.140000
29.225098 15.177813 3.068480 0.050000
5.824884 1.424711 0.916252 0.440000
6.004433 0.928062 0.914874 0.130000
12.571134 -0.202952 1.357816 0.500000
12.501758 -1.539480 1.342666 0.060000
19.496630 -4.927912 1.838334 0.000000
11.395486 -4.085933 1.280312 0.000000
11.385237 5.214565 0.209847 0.060000
12.126367 3.858538 0.201740 0.060000
11.105950 0.993306 0.238426 0.100000
12.493654 -0.170103 0.177723 0.020000
11.284410 -2.568667 0.160650 0.040000
10.636404 -3.721245 0.144674 0.120000
4.953220 1.616003 0.109679 0.040000
5.146342 1.194645 0.103617 0.020000
5.294171 0.787405 0.102489 0.270000
5.371919 0.383822 0.101192 0.020000
5.389882 -0.030889 0.094697 0.040000
5.322643 -0.437267 0.098011 0.040000
5.290942 -0.867876 0.076327 0.040000
5.068554 -1.267206 0.074262 0.160000
29.162304 15.337005 2.968907 0.050000
5.829443 1.449858 0.901357 0.370000
5.969191 0.942445 0.899836 0.190000
11.222486 1.031786 1.263884 0.010000
13.092497 -1.573190 1.349083 0.060000
19.676029 -4.889323 1.798945 0.000000
11.354231 -4.016601 1.250461 0.010000
10.849840 4.969268 0.207537 0.060000
11.628964 3.719006 0.194923 0.060000
6.428237 1.062999 0.426477 0.000000
11.150146 1.039252 0.213712 0.110000
12.002609 -0.119480 0.171630 0.020000
11.565496 -1.318063 0.166033 0.060000
10.926532 -2.420459 0.150267 0.040000
4.933058 1.625655 0.099662 0.040000
5.081437 1.188383 0.108424 0.020000
5.214269 0.780855 0.107256 0.070000
5.346745 0.393360 0.096161 0.010000
5.304597 -0.017538 0.099524 0.030000
5.292374 -0.422825 0.092985 0.040000
5.240376 -0.838840 0.076303 0.030000
5.037984 -1.237786 0.074292 0.140000
29.149353 15.502079 2.889486 0.030000
5.799283 1.459319 0.891313 0.330000
6.038616 0.973798 0.895133 0.530000
11.301661 1.078384 1.244264 0.030000
13.186860 -1.536303 1.329466 0.070000
11.373334 -3.966135 1.225698 0.100000
10.403482 4.775704 0.200653 0.060000
11.181169 3.600427 0.188314 0.050000
6.507591 1.099580 0.411820 0.010000
11.114437 1.078648 0.193765 0.110000
10.911297 -0.065481 0.198982 0.020000
11.208564 -1.219863 0.160466 0.060000
10.588816 -2.281902 0.149900 0.040000
10.024358 -3.357866 0.134427 0.060000
4.858442 1.604204 0.104388 0.030000
5.031446 1.187425 0.108290 0.010000
5.164196 0.784915 0.102141 0.070000
5.276567 0.402018 0.096010 0.010000
5.279327 -0.003001 0.094512 0.030000
5.241905 -0.398788 0.092943 0.040000
5.194810 -0.809707 0.076292 0.040000
5.007415 -1.208367 0.074321 0.140000
29.091494 15.661275 2.814926 0.030000
5.963573 0.977417 0.879951 0.570000
11.171189 1.106000 1.214025 0.080000
13.165984 -1.486584 1.299596 0.060000
11.201062 -3.844284 1.190701 0.060000
10.046341 4.623856 0.194156 0.060000
10.803169 3.493187 0.181928 0.060000
6.457434 1.108658 0.401723 1.000000
11.128817 1.114003 0.173934 0.080000
11.295754 -0.027965 0.160124 0.010000
10.902102 -1.145701 0.154942 0.050000
10.341863 -2.181595 0.144629 0.040000
9.756342 -3.202971 0.134303 0.070000
4.833460 1.603744 0.099321 0.030000
4.991549 1.181660 0.108165 0.020000
5.124107 0.789148 0.102052 0.050000
5.251379 0.411537 0.095980 0.010000
5.234048 0.011134 0.094446 0.030000
5.211623 -0.384365 0.092918 0.030000
5.154339 -0.785478 0.076277 0.040000
4.966752 -1.174139 0.074342 0.130000
29.128220 15.842266 2.745694 0.020000
5.958313 0.992355 0.869992 0.800000
11.195457 1.146527 1.199239 0.100000
12.989658 -1.414839 1.269402 0.060000
13.489862 -2.990647 1.294850 0.000000
11.205169 -3.794105 1.165898 0.250000
9.738890 4.487944 0.192848 0.070000
10.509565 3.417551 0.180881 0.060000
6.457078 1.128691 0.391796 1.000000
11.040050 0.007163 0.154588 0.020000
10.660709 -1.075312 0.154573 0.050000
10.125000 -2.085713 0.139419 0.040000
9.574089 -3.086423 0.129261 0.070000
4.793563 1.597979 0.099195 0.030000
4.946558 1.180798 0.108044 0.010000
5.099016 0.793668 0.102003 0.040000
5.201197 0.420577 0.095883 0.010000
5.193769 0.025365 0.094394 0.030000
5.171247 -0.365135 0.092884 0.020000
5.108855 -0.761363 0.081248 0.050000
4.961479 -1.159219 0.069384 0.130000
29.130215 16.007553 2.686313 0.030000
5.972940 1.012657 0.865106 0.800000
11.189839 1.181499 1.179355 0.280000
13.247205 0.020347 1.275409 0.030000
13.024046 -1.379082 1.244624 0.050000
13.458784 -2.931140 1.269990 0.010000
11.199264 -3.744136 1.146069 0.270000
9.500577 4.398382 0.186893 0.070000
10.270595 3.363001 0.170054 0.060000
6.407004 1.132751 0.386681 0.070000
10.829431 0.038153 0.149153 0.020000
10.449612 -1.019326 0.149230 0.060000
9.978603 -2.013486 0.134305 0.050000
9.432308 -2.994103 0.124234 0.080000
4.753666 1.592214 0.099070 0.030000
4.931478 1.185529 0.103022 0.010000
5.058928 0.797901 0.101914 0.040000
5.191020 0.430403 0.090893 0.010000
5.158570 0.034675 0.099337 0.030000
5.145964 -0.350617 0.092872 0.020000
5.093584 -0.746635 0.076263 0.050000
4.931005 -1.134799 0.069395 0.120000
29.067974 16.131586 2.631611 0.020000
5.942780 1.022118 0.855062 0.850000
11.049535 1.198888 1.159053 0.250000
13.306370 0.066544 1.260735 0.090000
13.048219 -1.333556 1.229857 0.100000
11.289177 -3.737376 1.136328 0.160000
9.302064 4.319584 0.181082 0.070000
10.041692 3.303607 0.169236 0.050000
10.598022 1.153937 0.147697 0.010000
10.628811 0.069335 0.143745 0.020000
10.303598 -0.967095 0.144043 0.050000
9.832207 -1.941259 0.129192 0.050000
9.315701 -2.911322 0.124237 0.070000
4.743490 1.602039 0.094080 0.020000
4.881583 1.179572 0.102870 0.010000
5.023839 0.802230 0.101839 0.030000
5.135922 0.434330 0.095763 0.010000
5.133397 0.044212 0.094307 0.030000
5.130693 -0.335888 0.087887 0.020000
5.048100 -0.722520 0.081234 0.040000
4.915529 -1.110091 0.069447 0.130000
16.031219 8.403992 1.628845 0.000000
5.947505 1.037229 0.850131 0.800000
11.073898 1.234416 1.144248 0.620000
13.027495 -1.293891 1.214950 0.130000
11.318540 -3.701752 1.121537 0.300000
9.128151 4.261243 0.180411 0.060000
9.852398 3.264975 0.168598 0.060000
10.412866 1.160392 0.147237 0.010000
10.463171 0.101168 0.143431 0.020000
10.162666 -0.919786 0.143851 0.060000
9.721077 -1.883377 0.129117 0.050000
9.163909 -2.819213 0.124183 0.070000
4.713578 1.596447 0.098981 0.020000
4.881309 1.194588 0.097925 0.010000
4.993845 0.801655 0.101758 0.030000
5.130744 0.444251 0.090787 0.010000
5.113209 0.053828 0.094290 0.030000
5.105410 -0.321370 0.087875 0.020000
5.042826 -0.707600 0.076275 0.040000
4.890151 -1.090573 0.069453 0.130000
13.029839 6.652008 1.394495 0.000000
13.048239 4.657246 1.322127 0.030000
5.962132 1.057531 0.845244 0.800000
11.018373 1.263413 1.129211 0.630000
13.249926 0.145587 1.230882 0.120000
13.006689 -1.249208 1.195061 0.150000
13.415965 -2.776731 1.215452 0.010000
11.247251 -3.633050 1.106606 0.280000
8.939528 4.187618 0.179645 0.060000
9.702822 3.242124 0.163123 0.050000
10.043073 2.188455 0.160094 0.020000
10.297503 1.178185 0.147002 0.010000
10.317527 0.133384 0.143171 0.020000
10.046742 -0.871979 0.138727 0.050000
9.640038 -1.829919 0.129104 0.040000
9.107782 -2.760259 0.119256 0.060000
4.678680 1.590777 0.098869 0.020000
4.836400 1.188708 0.102786 0.010000
4.973657 0.811270 0.101741 0.030000
5.120554 0.454057 0.090797 0.010000
5.097924 0.068537 0.094304 0.030000
5.075115 -0.306966 0.092849 0.020000
5.022530 -0.693004 0.081277 0.040000
4.899957 -1.080384 0.069517 0.110000
13.028620 6.717032 1.384734 0.000000
13.057114 4.717463 1.312374 0.030000
5.951859 1.072356 0.840273 0.500000
11.022715 1.298521 1.124353 0.500000
16.363377 0.234680 1.389341 0.130000
12.995841 -1.204390 1.190200 0.160000
11.216133 -3.573599 1.096746 0.470000
8.834930 4.165611 0.179290 0.060000
9.573121 3.224619 0.167719 0.050000
9.942913 2.196556 0.154862 0.020000
10.182142 1.195979 0.146767 0.010000
10.241980 0.161961 0.138080 0.020000
9.975989 -0.833327 0.138686 0.050000
9.564012 -1.776347 0.124104 0.040000
9.086937 -2.715632 0.114367 0.060000
4.648686 1.590203 0.098788 0.020000
4.831209 1.198611 0.102809 0.010000
4.968466 0.821173 0.101764 0.030000
5.080453 0.458272 0.095708 0.010000
5.102732 0.078631 0.094355 0.020000
5.064830 -0.292160 0.092877 0.020000
5.012148 -0.673200 0.081323 0.040000
4.889575 -1.060579 0.069563 0.100000
13.017402 6.781866 1.374945 0.000000
13.075877 4.782853 1.307666 0.030000
5.901882 1.071417 0.835139 0.440000
11.096838 1.344948 1.124719 0.210000
13.243350 0.230549 1.211180 0.060000
12.994992 -1.159380 1.185365 0.140000
13.388996 -2.672174 1.200770 0.000000
11.250565 -3.542916 1.091950 0.520000
8.764943 4.164270 0.179102 0.060000
9.512857 3.238486 0.162613 0.050000
10.136684 1.220131 0.141738 0.010000
10.211314 0.196380 0.138128 0.020000
9.965429 -0.803506 0.133769 0.050000
9.573530 -1.751161 0.124223 0.040000
9.066175 -2.676023 0.114460 0.070000
4.633580 1.594896 0.103766 0.020000
4.826018 1.208513 0.102832 0.010000
4.968178 0.836170 0.101819 0.030000
5.075167 0.473173 0.095749 0.010000
5.077532 0.088132 0.099324 0.020000
5.084647 -0.281760 0.087968 0.020000
5.006958 -0.663297 0.081346 0.050000
4.894383 -1.050485 0.069613 0.100000
13.021047 6.851930 1.380215 0.000000
13.040022 4.827174 1.307737 0.020000
5.906485 1.091490 0.840225 0.300000
11.111056 1.385210 1.129906 0.270000
31.370085 0.699305 2.210249 0.090000
12.979133 -1.114676 1.185490 0.130000
13.398132 -2.626992 1.200962 0.010000
8.838301 4.250690 0.179615 0.050000
9.576683 3.299700 0.168007 0.050000
6.474565 1.264160 0.362345 0.010000
10.225793 1.266828 0.147145 0.010000
10.315720 0.228385 0.138519 0.020000
10.095104 -0.786038 0.139172 0.050000
9.688414 -1.743959 0.124550 0.040000
9.221720 -2.703048 0.114766 0.060000
4.648098 1.620178 0.103898 0.020000
4.840632 1.228797 0.102946 0.010000
4.953073 0.840863 0.106797 0.030000
5.099874 0.488649 0.095871 0.010000
5.087338 0.098322 0.099388 0.020000
5.084443 -0.271781 0.093004 0.020000
5.041855 -0.657628 0.081459 0.050000
4.909271 -1.045217 0.074672 0.110000
11.085529 1.409652 1.149930 0.260000
13.301715 0.311553 1.246634 0.130000
12.998476 -1.084410 1.215653 0.120000
17.023720 -3.438542 1.437411 0.010000
9.898543 3.465876 0.174465 0.060000
6.439532 1.263434 0.377251 0.050000
10.559567 1.333213 0.153263 0.010000
10.740244 0.256502 0.144732 0.020000
10.440506 -0.804444 0.145005 0.050000
9.999588 -1.803028 0.130142 0.040000
9.503462 -2.792705 0.125168 0.060000
4.712237 1.666433 0.099238 0.020000
4.885145 1.254654 0.103158 0.010000
5.007679 0.861913 0.107018 0.030000
5.144661 0.499490 0.101029 0.010000
5.152230 0.104566 0.099580 0.020000
5.154525 -0.275439 0.093174 0.020000
5.102131 -0.671476 0.081564 0.040000
4.974643 -1.063969 0.074773 0.110000
28.959702 17.074421 2.704834 0.040000
29.616621 12.301636 2.558805 0.030000
5.906145 1.106413 0.860280 0.120000
11.110242 1.419998 1.185033 0.220000
13.013272 -1.079272 1.255711 0.100000
9.484996 4.688098 0.197929 0.050000
10.339807 3.664343 0.181355 0.050000
6.429495 1.263187 0.392224 1.000000
10.938416 1.395443 0.164483 0.020000
11.165043 0.269603 0.155889 0.020000
10.871358 -0.846237 0.155975 0.040000
10.381310 -1.890770 0.140813 0.040000
9.906440 -2.945033 0.130654 0.060000
4.751737 1.692176 0.104437 0.020000
4.929740 1.275493 0.108352 0.020000
5.092197 0.888554 0.102338 0.060000
5.229467 0.511135 0.096293 0.010000
5.227120 0.111001 0.099800 0.020000
5.254711 -0.283504 0.088405 0.030000
5.167407 -0.685228 0.081684 0.040000
5.025016 -1.083007 0.074833 0.110000
28.904985 17.042946 2.819575 0.080000
29.566727 12.280273 2.668597 0.080000
5.916008 1.111548 0.875325 0.120000
11.115163 1.419983 1.215047 0.230000
31.387421 0.798609 2.495666 0.300000
13.003170 -1.079612 1.295684 0.090000
33.381817 -11.961073 2.623441 0.140000
6.394641 1.252444 0.412094 0.070000
11.147737 1.429366 0.190156 0.060000
11.724830 0.285308 0.162409 0.020000
11.387398 -0.896381 0.162136 0.050000
10.858508 -2.001669 0.146646 0.040000
4.811055 1.728318 0.104726 0.020000
4.994249 1.301733 0.108618 0.020000
5.156898 0.904796 0.102567 0.080000
5.284348 0.517169 0.101459 0.010000
5.292204 0.107247 0.099956 0.030000
5.354993 -0.296567 0.083618 0.070000
5.237777 -0.703884 0.081798 0.050000
5.080485 -1.106949 0.074889 0.110000
28.895441 17.002317 2.939400 0.100000
29.586927 12.255271 2.773557 0.100000
5.906066 1.106301 0.890280 0.130000
11.140149 1.415314 1.255095 0.230000
31.402596 0.773474 2.610613 0.220000
12.928188 -1.086178 1.330464 0.070000
17.912457 -3.657404 1.668920 0.000000
33.402500 -12.016200 2.763292 0.160000
10.557407 5.353717 0.213203 0.050000
11.430939 4.135268 0.200954 0.050000
6.394698 1.247389 0.427075 0.060000
10.948436 1.385395 0.229473 0.070000
12.294901 0.286208 0.168901 0.020000
11.903726 -0.961523 0.168241 0.120000
10.682485 -3.255280 0.146527 0.060000
4.860554 1.754253 0.109951 0.030000
5.058758 1.327973 0.108884 0.020000
5.226584 0.921115 0.107810 0.080000
5.354239 0.523508 0.101665 0.010000
5.377284 0.103876 0.100165 0.030000
5.314949 -0.297408 0.103511 0.100000
5.308147 -0.722540 0.081912 0.030000
5.130942 -1.131006 0.079931 0.120000
28.916012 16.957300 3.049288 0.070000
29.587515 12.209889 2.878391 0.110000
5.931023 1.106724 0.905347 0.120000
31.408197 0.728206 2.710461 0.230000
12.938465 -1.106131 1.370417 0.070000
17.988243 -3.706181 1.728937 0.000000
11.334874 -3.531978 1.277213 0.020000
11.259418 5.777237 0.216610 0.080000
6.429652 1.248004 0.442169 0.020000
10.948632 1.370268 0.264417 0.090000
12.990032 0.284484 0.180709 0.020000
11.954008 -0.980691 0.203302 0.050000
11.893833 -2.271944 0.163344 0.030000
11.237062 -3.489719 0.152103 0.110000
4.929870 1.790586 0.110267 0.030000
5.133265 1.354405 0.109177 0.030000
5.286381 0.932263 0.108007 0.080000
5.419131 0.529752 0.101857 0.020000
5.447367 0.100217 0.100334 0.040000
5.425337 -0.315260 0.093732 0.070000
5.393706 -0.750906 0.082030 0.040000
5.206612 -1.164544 0.075004 0.120000
28.892372 16.871447 3.153908 0.050000
29.608292 12.154892 2.983242 0.090000
5.936174 1.096766 0.920323 0.130000
6.160223 0.625956 0.924158 0.120000
31.478977 0.674186 2.810446 0.080000
13.043903 -1.134282 1.415588 0.140000
17.908306 -3.717916 1.783685 0.000000
11.375445 -3.566335 1.312191 0.070000
11.378456 5.824415 0.247096 0.100000
12.745880 4.670491 0.221376 0.050000
10.943951 1.350083 0.289330 0.100000
11.989403 -1.005128 0.233303 0.060000
11.166780 -3.481210 0.191951 0.200000
4.989380 1.816731 0.110520 0.030000
5.197965 1.370647 0.109406 0.030000
5.351177 0.943506 0.108218 0.090000
5.509018 0.536475 0.102117 0.020000
5.512450 0.096463 0.100490 0.040000
5.525702 -0.333341 0.093927 0.060000
5.474170 -0.774369 0.082153 0.040000
5.247070 -1.188792 0.080020 0.110000
28.942924 16.826984 3.268876 0.020000
29.599277 12.089341 3.082976 0.030000
5.941230 1.091807 0.935318 0.290000
6.165278 0.620997 0.939153 0.260000
31.514668 0.624494 2.910355 0.050000
13.044195 -1.154408 1.450514 0.110000
17.853569 -3.739151 1.833464 0.000000
11.340552 -3.577134 1.347060 0.200000
11.482675 5.861289 0.282506 0.120000
10.934245 1.329765 0.324230 0.070000
14.760442 0.278352 0.195307 0.010000
13.185740 -2.622318 0.180414 0.040000
11.101592 -3.477604 0.231795 0.320000
5.048877 1.842857 0.115772 0.040000
5.272472 1.397078 0.109699 0.030000
5.425972 0.954940 0.108456 0.090000
5.589004 0.538007 0.102332 0.020000
5.597530 0.093092 0.100700 0.040000
5.580870 -0.342304 0.099038 0.040000
