# This PCD file was generated using the MATLAB® pcwrite function
# from Computer Vision Toolbox®.
# .PCD v.7 - Point Cloud Data file format
VERSION .7
FIELDS x y z intensity
SIZE 4 4 4 4
TYPE F F F F
COUNT 1 1 1 1
WIDTH 1287
HEIGHT 1
VIEWPOINT 0 0 0 1 0 0 0
POINTS 1287
DATA ascii
11.668557 -1.732873 1.994779 0.000000
6.583408 -1.412601 1.272688 0.000000
6.415967 -2.070961 1.279804 1.644000
15.276450 4.540688 1.112508 0.140000
31.233164 2.199477 1.525461 0.010000
12.603478 -0.525813 0.926695 0.120000
11.560709 -1.690861 0.884642 0.320000
13.483204 -3.634514 0.917435 0.040000
6.442398 -2.068438 0.729877 0.390000
7.437210 2.733718 0.135318 0.120000
7.727405 1.944154 0.128141 0.050000
7.862136 1.176599 0.125639 0.100000
7.980926 0.458765 0.118281 0.030000
7.895123 -0.283009 0.115299 0.030000
7.758948 -1.005744 0.112257 0.030000
7.537801 -1.730089 0.103987 0.030000
42.053143 20.538652 7.426938 0.020000
45.530079 14.989224 7.425385 0.040000
41.108810 7.841807 6.427264 0.050000
51.656475 -2.802432 7.605240 0.130000
11.714681 -1.786889 1.964698 0.010000
6.629193 -1.451695 1.262662 0.010000
6.406404 -2.091075 1.259704 1.692000
13.081575 5.569146 1.025601 0.050000
13.131729 3.739911 0.983932 0.060000
31.256144 2.060315 1.410002 0.010000
12.659627 -0.579600 0.886641 0.100000
11.636949 -1.749264 0.844624 0.240000
6.610440 -1.440035 0.712651 0.020000
6.453132 -2.103147 0.704775 0.260000
7.210031 2.584341 0.134170 0.120000
7.509362 1.839960 0.127184 0.050000
7.668431 1.107895 0.119878 0.090000
7.746832 0.409273 0.117486 0.030000
7.700460 -0.301722 0.109722 0.030000
7.548699 -0.994769 0.111749 0.030000
6.647336 -1.462334 0.167659 0.060000
41.395672 19.922089 7.112926 0.070000
44.934380 14.538799 7.132152 0.080000
41.292110 7.690804 6.287180 0.070000
49.584255 -2.900394 7.124462 0.080000
11.610323 -1.813691 1.909325 0.020000
6.624629 -1.471713 1.242576 1.000000
6.391842 -2.111284 1.239591 2.129000
15.234920 4.375285 0.996784 0.180000
13.232391 2.151852 0.898290 0.020000
13.239465 0.741812 0.873067 0.000000
12.865925 -0.640531 0.851953 0.090000
11.713367 -1.817685 0.809568 0.360000
6.641158 -1.474380 0.692603 1.000000
6.433475 -2.118453 0.684667 0.260000
7.017476 2.455648 0.128189 0.130000
7.301234 1.740975 0.121273 0.050000
7.444719 1.038599 0.119037 0.100000
7.557455 0.375659 0.111866 0.030000
7.470599 -0.311126 0.109087 0.040000
7.318276 -0.974160 0.106224 0.030000
7.085968 -1.638727 0.103147 0.040000
6.753501 -2.295192 0.094839 0.130000
41.124313 19.502716 6.865656 0.090000
44.944679 14.289668 6.936251 0.070000
42.422119 7.702485 6.280173 0.030000
44.243263 -2.774397 6.220980 0.210000
11.626466 -1.868263 1.874164 0.010000
6.589988 -1.487287 1.217427 1.000000
6.402550 -2.146030 1.224489 1.110000
13.094613 5.424736 0.925097 0.020000
13.099584 3.604639 0.883344 0.100000
30.712429 1.760729 1.167467 0.010000
11.729331 -1.862240 0.769444 0.310000
6.636690 -1.499396 0.672499 1.000000
6.444196 -2.153180 0.664566 0.250000
6.849628 2.342432 0.122330 0.110000
7.117911 1.652467 0.115465 0.050000
7.250822 0.979893 0.113312 0.090000
7.348178 0.336662 0.106175 0.030000
7.260735 -0.320147 0.108505 0.040000
7.097838 -0.953378 0.105726 0.030000
6.895251 -1.602354 0.097785 0.050000
6.587395 -2.238344 0.089617 0.120000
41.000744 19.196083 6.649192 0.090000
46.072285 14.431453 6.894721 0.040000
41.255482 7.301280 5.945632 0.100000
12.033762 -0.680271 1.884644 0.020000
6.600504 -1.512035 1.202363 1.000000
6.392987 -2.166143 1.204389 0.980000
13.096003 5.359953 0.869860 0.020000
11.291104 1.695014 0.776524 0.020000
13.231522 0.646973 0.782693 0.000000
12.141884 -0.684057 0.754900 0.020000
11.725299 -1.907178 0.729266 0.340000
6.642111 -1.519241 0.657439 1.000000
6.439715 -2.178216 0.649461 0.250000
6.676769 2.229102 0.121457 0.110000
6.939477 1.569035 0.114689 0.050000
7.061912 0.921265 0.112601 0.100000
7.148777 0.302819 0.110529 0.030000
7.055869 -0.329072 0.107937 0.040000
6.917585 -0.941828 0.105299 0.030000
6.709423 -1.560906 0.097454 0.040000
6.401089 -2.171901 0.089378 0.110000
44.022034 20.428284 6.901661 0.070000
45.162994 13.910156 6.560406 0.050000
42.076660 7.257257 5.877612 0.040000
57.231853 2.970347 7.646254 0.090000
11.969563 -0.716342 1.839342 0.060000
6.565768 -1.522610 1.177232 1.000000
6.383425 -2.186257 1.184289 1.692000
14.910780 6.174945 0.852626 0.020000
11.217180 1.643736 0.736140 0.040000
12.112773 -0.724457 0.709674 0.080000
6.597281 -1.525009 0.632300 1.000000
6.440259 -2.203118 0.624369 0.690000
6.508717 2.125865 0.120635 0.130000
6.755949 1.490506 0.113918 0.050000
6.897900 0.868114 0.111975 0.100000
6.949294 0.273994 0.109901 0.040000
6.875998 -0.337518 0.107436 0.040000
6.762340 -0.929781 0.099938 0.030000
6.508490 -1.514764 0.102101 0.050000
6.275263 -2.129285 0.084208 0.110000
43.953014 20.147757 6.670436 0.070000
46.896759 14.248329 6.591189 0.060000
43.156372 7.288086 5.840544 0.040000
57.271267 2.771892 7.420616 0.070000
12.020411 -0.755246 1.804330 0.180000
6.535934 -1.528091 1.152134 0.720000
6.399049 -2.215889 1.164220 2.254000
14.902375 6.099991 0.792325 0.100000
13.127819 3.455666 0.742862 0.030000
11.237951 1.609274 0.696065 0.120000
30.845039 1.414509 0.811522 0.000000
12.088552 -0.759780 0.669479 0.090000
6.572612 -1.540429 0.617178 1.090000
6.425602 -2.218328 0.604274 0.240000
6.370467 2.033201 0.119930 0.120000
6.592321 1.417359 0.113219 0.050000
6.713797 0.819580 0.111314 0.100000
6.799814 0.246144 0.104407 0.040000
6.706030 -0.340774 0.106981 0.040000
6.602082 -0.917848 0.099564 0.030000
6.362763 -1.477530 0.096859 0.050000
6.083752 -2.052957 0.088991 0.090000
51.260090 23.390392 7.486572 0.040000
45.117180 13.485653 6.163704 0.090000
41.346340 6.804748 5.449019 0.060000
57.326157 2.548728 7.194928 0.070000
12.001298 -0.795455 1.759130 0.210000
6.536453 -1.553031 1.137042 0.730000
6.379296 -2.226196 1.144130 2.320000
16.106733 4.328000 0.718881 0.050000
11.198913 1.563647 0.660793 0.110000
13.299353 0.518744 0.647392 0.000000
14.884267 -1.026138 0.635786 0.450000
18.863417 -3.550286 0.611789 0.030000
6.441226 -2.247961 0.584205 0.210000
6.222124 1.945344 0.119216 0.100000
6.418682 1.344002 0.117494 0.040000
6.574603 0.776925 0.105792 0.100000
6.635228 0.222988 0.103892 0.030000
6.556154 -0.348646 0.106560 0.040000
6.441716 -0.900935 0.104208 0.030000
6.192016 -1.440812 0.101550 0.050000
5.937630 -1.995746 0.088823 0.120000
45.478855 20.407776 6.470383 0.070000
45.006939 13.264235 5.962591 0.030000
41.354641 6.655486 5.283484 0.080000
57.325371 2.359487 6.974220 0.060000
6.551872 -1.572684 1.122009 0.410000
6.389826 -2.250925 1.124065 2.129000
14.781243 5.913060 0.676313 0.030000
13.129887 3.361037 0.647515 0.030000
11.189690 1.528611 0.620639 0.130000
30.799660 1.204428 0.585621 0.020000
11.919847 -0.817728 0.588822 0.100000
13.340790 -2.415706 0.561591 0.060000
6.568388 -1.575370 0.577037 0.270000
6.431664 -2.268074 0.564105 0.200000
6.088695 1.862793 0.113561 0.100000
6.269860 1.281141 0.116871 0.040000
6.375476 0.728066 0.115091 0.100000
6.480640 0.200024 0.103403 0.030000
6.381091 -0.346998 0.106109 0.050000
6.266269 -0.879291 0.103831 0.030000
6.061382 -1.408290 0.096330 0.050000
5.771211 -1.923938 0.093655 0.100000
50.002422 22.303478 6.834242 0.080000
57.207977 16.809113 7.212630 0.050000
11.212106 1.520280 1.645677 0.020000
57.354797 2.160858 6.743556 0.040000
11.882609 -0.852408 1.668607 0.320000
6.527134 -1.583068 1.096906 0.430000
6.385262 -2.270943 1.103979 1.010000
14.792439 5.858466 0.621138 0.080000
16.566755 4.347235 0.605152 0.060000
11.195355 1.498842 0.585542 0.190000
11.880521 -0.848359 0.553605 0.130000
18.785904 -3.661276 0.471173 0.040000
6.543636 -1.585772 0.556933 0.410000
6.442193 -2.292803 0.544040 0.180000
5.925437 1.769631 0.117788 0.100000
6.115942 1.223183 0.116254 0.040000
6.251088 0.695697 0.109646 0.080000
6.295936 0.181446 0.112852 0.030000
6.246116 -0.349583 0.105747 0.050000
6.130911 -0.861880 0.103542 0.040000
5.925628 -1.370902 0.101114 0.050000
5.660369 -1.881054 0.093525 0.100000
46.087437 20.275690 6.121477 0.060000
48.603481 13.998190 5.989708 0.040000
11.257737 1.491241 1.620688 0.050000
37.064739 1.255655 4.357203 0.010000
11.868292 -0.882541 1.628457 0.260000
45.039375 -9.716344 5.097241 0.010000
6.542553 -1.602721 1.081873 0.690000
6.380590 -2.285980 1.088910 1.307000
14.739043 5.782650 0.560717 0.070000
16.806498 4.372069 0.540869 0.050000
11.056334 1.451300 0.550002 0.100000
13.281804 0.408865 0.516936 0.010000
11.886199 -0.878108 0.513509 0.120000
18.877399 -3.729298 0.406158 0.020000
6.589351 -1.619829 0.536926 0.850000
6.422345 -2.298111 0.523968 0.500000
5.806705 1.702345 0.117228 0.100000
5.977010 1.165494 0.120677 0.030000
6.091775 0.657620 0.114089 0.090000
6.171260 0.164074 0.107461 0.030000
6.096048 -0.347457 0.105364 0.040000
6.005647 -0.849277 0.103262 0.040000
5.820181 -1.347899 0.095924 0.050000
5.549540 -1.838150 0.088395 0.110000
46.364330 20.206697 5.926941 0.070000
57.222279 16.391073 6.731108 0.070000
11.143668 1.449250 1.565233 0.130000
35.108330 1.099460 3.996513 0.040000
11.858890 -0.907560 1.583339 0.280000
45.077507 -9.854996 4.921823 0.020000
6.532799 -1.612836 1.061810 0.630000
6.375943 -2.300980 1.063842 1.384000
14.715259 5.727405 0.500448 0.110000
13.117555 3.241293 0.507036 0.040000
11.012105 1.415575 0.514754 0.090000
24.713062 0.743695 0.318018 0.000000
13.368354 -2.529685 0.421238 0.040000
6.544412 -1.620617 0.516805 1.080000
6.453157 -2.337455 0.503902 0.710000
5.692973 1.635155 0.116682 0.100000
5.867810 1.123413 0.115236 0.030000
5.977385 0.625442 0.108670 0.100000
6.036572 0.146491 0.107045 0.040000
5.986069 -0.349564 0.105069 0.050000
5.885286 -0.831579 0.103014 0.050000
5.704533 -1.315108 0.095744 0.050000
5.453792 -1.799977 0.088287 0.100000
46.477009 20.094532 5.736817 0.060000
57.236065 16.227188 6.490532 0.070000
11.174233 1.424960 1.530222 0.320000
35.170372 1.011091 3.871345 0.060000
45.105137 -9.968882 4.756470 0.020000
6.533139 -1.627759 1.041755 0.690000
11.042587 1.396302 0.474761 0.160000
22.874987 0.633675 0.257810 0.010000
13.343955 -2.554991 0.376079 0.050000
6.559735 -1.635271 0.501791 0.920000
6.418025 -2.328052 0.483845 0.360000
5.608960 1.583556 0.111270 0.090000
5.763596 1.081410 0.114807 0.030000
5.867871 0.598322 0.113284 0.090000
5.931784 0.134482 0.106726 0.030000
5.865995 -0.346863 0.104765 0.050000
5.795125 -0.823286 0.097809 0.050000
5.599073 -1.292124 0.095555 0.060000
5.337855 -1.752189 0.088162 0.110000
51.020885 21.985935 6.015711 0.070000
57.239712 16.073185 6.229967 0.070000
11.129838 1.399270 1.485011 0.390000
34.957443 0.922566 3.715458 0.060000
13.167470 -1.087677 1.626086 0.340000
45.157993 -10.092232 4.576148 0.010000
6.533383 -1.637683 1.021718 0.730000
13.090707 4.916424 0.418192 0.060000
13.148838 3.187213 0.416916 0.050000
11.013164 1.370862 0.439590 0.110000
13.328790 0.325264 0.376747 0.010000
13.295939 -1.090579 0.361398 0.020000
5.500021 1.526441 0.115774 0.090000
5.644384 1.039119 0.114339 0.030000
5.783283 0.576716 0.107983 0.090000
5.836993 0.122665 0.106435 0.040000
5.765918 -0.343779 0.104516 0.050000
5.709853 -0.809917 0.097636 0.030000
5.498421 -1.259045 0.095415 0.050000
5.282399 -1.728229 0.083107 0.110000
50.845955 21.753424 5.774388 0.080000
57.242970 15.934029 6.009456 0.070000
11.165293 1.380056 1.455031 0.460000
34.739193 0.848886 3.574613 0.050000
13.142975 -1.107985 1.580946 0.430000
6.523615 -1.647817 1.006655 0.680000
19.123154 4.872662 0.238774 0.010000
10.963730 1.345021 0.409364 0.100000
15.621008 -3.140917 0.224843 0.030000
6.560319 -1.660118 0.461700 0.250000
5.420802 1.484916 0.115413 0.090000
5.589887 1.013090 0.109100 0.030000
5.673687 0.554613 0.107614 0.090000
5.752118 0.116056 0.101189 0.030000
5.685933 -0.345311 0.104301 0.060000
5.599491 -0.792027 0.097415 0.040000
5.438158 -1.245179 0.090309 0.050000
5.186555 -1.685057 0.083017 0.130000
45.633820 19.305775 5.041677 0.070000
57.246105 15.799835 5.798963 0.060000
11.135774 1.359615 1.419878 0.460000
34.765663 0.789841 3.449461 0.060000
13.098389 -1.123677 1.535771 0.580000
18.099360 -3.794894 1.953899 0.000000
6.538952 -1.662452 0.986641 0.530000
15.046001 5.724600 0.266299 0.040000
10.944208 1.324772 0.374238 0.100000
15.944402 0.340965 0.218631 0.010000
14.471196 -2.897822 0.202746 0.030000
6.550468 -1.665234 0.441655 0.240000
5.361497 1.448792 0.110123 0.090000
5.490480 0.981180 0.108722 0.030000
5.613999 0.538486 0.102399 0.090000
5.667325 0.104430 0.100924 0.030000
5.600866 -0.341921 0.099092 0.050000
5.559524 -0.792756 0.087308 0.040000
5.332507 -1.212196 0.090156 0.060000
5.126087 -1.661211 0.082948 0.110000
43.425388 18.214735 4.636852 0.070000
30.262451 8.006064 3.139529 0.040000
11.166146 1.345322 1.384904 0.580000
31.428646 0.657339 3.050254 0.020000
13.078879 -1.143907 1.495644 0.470000
17.803665 -3.750255 1.873293 0.000000
6.519008 -1.662761 0.966587 0.370000
14.302709 5.370376 0.243042 0.030000
14.861731 3.600787 0.232923 0.030000
10.959476 1.315172 0.344241 0.160000
14.910113 0.296203 0.200764 0.010000
14.580456 -1.290390 0.194006 0.010000
13.260852 -2.630973 0.205578 0.040000
6.560793 -1.679983 0.426627 0.210000
5.282291 1.407287 0.104762 0.100000
5.455788 0.965531 0.103573 0.030000
5.504389 0.516364 0.107030 0.080000
5.612444 0.098397 0.095759 0.030000
5.530784 -0.338263 0.098922 0.050000
5.464146 -0.774598 0.092126 0.050000
5.277230 -1.198252 0.090063 0.060000
5.045335 -1.622750 0.082880 0.110000
29.673838 12.100441 3.173213 0.020000
30.328192 7.982704 3.034612 0.020000
11.146516 1.330054 1.354795 0.650000
31.454670 0.618197 2.950176 0.010000
13.059179 -1.154139 1.455554 0.610000
17.502890 -3.700695 1.787691 0.000000
6.519239 -1.672703 0.951551 0.420000
13.018777 4.780682 0.237498 0.060000
13.703094 3.258556 0.223626 0.040000
10.959854 1.300305 0.309187 0.150000
13.910614 0.262092 0.188029 0.010000
13.067441 -1.149397 0.205581 0.010000
12.648335 -2.502608 0.184456 0.040000
6.561037 -1.689907 0.406590 0.220000
10.742989 -4.849476 0.160758 0.050000
5.198061 1.365648 0.109388 0.100000
5.366379 0.933813 0.103222 0.030000
5.444592 0.505217 0.106833 0.070000
5.537554 0.091961 0.095539 0.030000
5.435706 -0.335083 0.098686 0.060000
5.373779 -0.756325 0.091958 0.030000
5.211872 -1.179482 0.084963 0.060000
4.984772 -1.593905 0.082829 0.130000
29.670492 12.030805 3.052944 0.070000
30.364347 7.938810 2.919542 0.080000
11.047132 1.303311 1.309436 0.640000
31.565689 0.580701 2.845325 0.010000
13.039588 -1.169352 1.410446 0.720000
6.519374 -1.677646 0.936532 0.510000
12.384301 4.488534 0.219756 0.060000
12.877777 3.007742 0.210539 0.050000
10.975121 1.290706 0.279191 0.100000
13.081165 0.226219 0.180730 0.010000
12.741992 -1.125534 0.179820 0.010000
11.965314 -2.350643 0.178238 0.040000
6.561268 -1.699850 0.391554 0.370000
10.293307 -4.608009 0.150482 0.060000
5.153562 1.339809 0.104176 0.100000
5.306774 0.912668 0.102988 0.030000
5.394806 0.494280 0.101662 0.060000
5.472662 0.085717 0.095347 0.030000
5.350517 -0.326732 0.103495 0.140000
5.313599 -0.747476 0.091834 0.050000
5.146501 -1.160731 0.084862 0.070000
4.929316 -1.569945 0.077773 0.110000
29.706430 11.996872 2.947911 0.140000
30.305796 7.878082 2.809163 0.270000
11.047510 1.288444 1.274382 0.910000
31.546747 0.540735 2.735126 0.010000
13.059976 -1.183818 1.370445 0.500000
17.187534 -3.666234 1.651994 0.000000
6.529616 -1.687379 0.916523 0.430000
11.685412 4.165147 0.201729 0.060000
12.261286 2.820957 0.193236 0.060000
11.000400 1.281317 0.244221 0.080000
12.336510 0.201972 0.173696 0.010000
12.030702 -1.064127 0.173191 0.020000
11.397859 -2.226453 0.167219 0.040000
6.546310 -1.700081 0.376514 0.600000
9.919571 -4.415096 0.140224 0.050000
5.084149 1.308474 0.103878 0.100000
5.232267 0.886236 0.102695 0.030000
5.330106 0.478038 0.101433 0.040000
5.382775 0.078995 0.095087 0.020000
5.335641 -0.331981 0.093436 0.280000
5.243325 -0.733820 0.091701 0.050000
5.081034 -1.136981 0.084779 0.070000
4.883941 -1.550810 0.077726 0.120000
29.667601 11.951543 2.832639 0.090000
30.326546 7.853860 2.704126 0.190000
11.057682 1.283748 1.244390 0.990000
31.537516 0.515957 2.625009 0.010000
13.000092 -1.184818 1.330285 0.460000
17.067440 -3.653293 1.586728 0.000000
6.519657 -1.687514 0.901496 0.670000
11.055717 3.883056 0.194037 0.060000
11.609788 2.633483 0.180838 0.060000
10.990588 1.276256 0.209177 0.120000
11.761752 0.186016 0.157136 0.010000
11.399408 -1.001170 0.161777 0.020000
10.830296 -2.097281 0.161217 0.040000
6.561551 -1.709718 0.356517 0.310000
9.464590 -4.158746 0.134989 0.060000
5.029652 1.282444 0.098639 0.090000
5.172565 0.870090 0.102479 0.030000
5.260324 0.466718 0.096209 0.030000
5.322799 0.077864 0.089926 0.020000
5.183157 -0.724952 0.086577 0.050000
5.020662 -1.118134 0.084691 0.080000
4.828390 -1.521851 0.072689 0.130000
29.678366 11.927148 2.722576 0.030000
30.317217 7.834081 2.594027 0.150000
11.067855 1.279052 1.214399 0.860000
31.518272 0.490969 2.519864 0.020000
12.980295 -1.190052 1.290213 0.450000
13.420442 -2.761973 1.305519 0.000000
6.544979 -1.701977 0.886508 0.500000
13.658463 -6.578290 1.346954 0.010000
10.604578 3.679435 0.177102 0.060000
11.117397 2.494065 0.169034 0.050000
10.980873 1.266197 0.174114 0.090000
11.236959 0.170981 0.150710 0.010000
10.938454 -0.954971 0.155746 0.020000
10.403280 -1.995423 0.155481 0.050000
6.551605 -1.709835 0.336491 0.230000
9.040083 -3.926816 0.129743 0.050000
4.960239 1.251109 0.098341 0.090000
5.117876 0.854058 0.097277 0.010000
5.190528 0.455379 0.095984 0.040000
5.237802 0.076218 0.094698 0.010000
5.175275 -0.315067 0.098080 0.060000
5.102776 -0.706507 0.091436 0.040000
4.970301 -1.099076 0.079631 0.070000
4.782919 -1.497717 0.072660 0.110000
11.073041 1.274279 1.179394 0.840000
31.518654 0.486379 2.409847 0.020000
13.035582 -1.198848 1.250325 0.590000
13.410452 -2.757017 1.265511 0.010000
6.545031 -1.701903 0.866508 0.610000
13.648499 -6.573297 1.296946 0.010000
10.178038 3.496270 0.165308 0.070000
10.619995 2.354533 0.162217 0.060000
10.812064 0.162879 0.139571 0.010000
10.512505 -0.908084 0.144808 0.020000
10.011463 -1.902874 0.144802 0.050000
6.531456 -1.700164 0.321474 0.200000
8.741702 -3.752482 0.124612 0.060000
4.905729 1.225061 0.098102 0.080000
5.048273 0.832722 0.097016 0.010000
5.125636 0.449135 0.095792 0.040000
5.177814 0.075069 0.094537 0.020000
5.110191 -0.311313 0.097925 0.060000
5.042500 -0.692659 0.091330 0.050000
4.904726 -1.070346 0.084566 0.070000
4.727259 -1.463777 0.072641 0.110000
13.066802 4.727486 1.357437 0.000000
13.128940 3.058583 1.296395 0.020000
11.038138 1.273738 1.144301 1.150000
13.298810 0.201459 1.251217 0.010000
13.020593 -1.193987 1.210303 0.680000
13.385383 -2.747330 1.220481 0.010000
6.529894 -1.692117 0.846505 0.420000
13.618060 -6.543692 1.246976 0.020000
9.771194 3.328467 0.158622 0.070000
10.152204 2.235571 0.155554 0.060000
10.392199 1.195002 0.147312 0.020000
10.361957 0.164259 0.138401 0.010000
10.126440 -0.855450 0.138996 0.020000
9.709821 -1.818599 0.134328 0.050000
6.526305 -1.690206 0.306497 0.400000
8.422929 -3.558553 0.124501 0.050000
4.855930 1.214105 0.097931 0.080000
4.993474 0.821670 0.096831 0.010000
5.060731 0.442873 0.100599 0.040000
5.107731 0.078727 0.094368 0.010000
5.034822 -0.292753 0.097797 0.050000
4.997125 -0.673524 0.091283 0.060000
4.874361 -1.050905 0.079559 0.070000
4.671490 -1.424857 0.077640 0.100000
13.051117 4.767303 1.327544 0.010000
13.123335 3.093573 1.271510 0.050000
11.027714 1.298616 1.124366 0.460000
12.989897 -1.154476 1.185370 0.660000
6.524525 -1.672198 0.841565 0.450000
13.637055 -6.488245 1.227232 0.010000
9.507571 3.253387 0.162655 0.070000
9.957527 2.216840 0.154976 0.050000
10.207042 1.201457 0.146853 0.020000
10.161420 0.190423 0.137975 0.010000
10.005601 -0.812757 0.138839 0.020000
9.618784 -1.765333 0.134289 0.050000
6.561215 -1.684518 0.301610 0.870000
8.351409 -3.479908 0.124607 0.060000
4.835838 1.218721 0.097896 0.080000
4.968274 0.831171 0.101801 0.010000
5.060457 0.457889 0.095654 0.030000
5.102540 0.088629 0.094391 0.010000
5.054736 -0.287353 0.092869 0.040000
4.986839 -0.658719 0.091311 0.040000
4.869074 -1.036004 0.079601 0.060000
4.681309 -1.414648 0.072703 0.120000
13.059978 4.827501 1.322791 0.010000
13.107475 3.138277 1.271635 0.050000
11.156623 1.356077 1.129916 0.460000
13.227356 0.280196 1.226323 0.010000
13.004019 -1.109216 1.190575 0.670000
13.378615 -2.652370 1.200816 0.020000
6.539235 -1.656914 0.841660 0.550000
6.402676 -2.359653 0.838692 0.010000
9.561411 3.314429 0.163022 0.080000
10.056359 2.278743 0.155464 0.060000
10.281261 1.242886 0.147200 0.020000
10.305722 0.228193 0.138492 0.010000
10.115196 -0.790654 0.139208 0.020000
9.738666 -1.758036 0.134629 0.050000
6.535536 -1.650022 0.306671 1.080000
8.477069 -3.512489 0.119813 0.050000
4.845453 1.238909 0.097996 0.080000
4.977985 0.846359 0.101883 0.010000
5.070263 0.468078 0.095718 0.030000
5.137246 0.104297 0.094540 0.010000
5.074540 -0.276971 0.092959 0.050000
5.006644 -0.648337 0.091401 0.050000
4.894070 -1.035525 0.079668 0.080000
4.711304 -1.414074 0.072784 0.100000
29.671980 12.298080 2.453935 0.020000
13.116477 3.188403 1.286845 0.040000
11.111017 1.385154 1.144905 0.460000
13.316507 0.321820 1.251711 0.030000
13.033291 -1.073723 1.210783 0.620000
6.528745 -1.632129 0.846725 0.390000
6.442546 -2.353925 0.848817 0.050000
9.783891 3.448732 0.159102 0.070000
10.244695 2.367366 0.156285 0.060000
10.440260 1.295922 0.152813 0.020000
10.515108 0.262209 0.139165 0.010000
10.300066 -0.782112 0.139722 0.020000
9.903922 -1.769873 0.135016 0.050000
6.560314 -1.639582 0.316774 0.950000
6.484384 -2.371074 0.288857 0.100000
4.879967 1.264575 0.098182 0.080000
4.997694 0.861740 0.101992 0.020000
5.089959 0.483440 0.100826 0.030000
5.172048 0.114965 0.094671 0.010000
5.094332 -0.266609 0.098049 0.050000
5.046637 -0.647571 0.091509 0.040000
4.924064 -1.034951 0.079748 0.090000
4.746489 -1.423402 0.072841 0.120000
29.693932 12.448290 2.519552 0.020000
11.165188 1.426125 1.165199 0.440000
11.910347 -0.925056 1.168404 0.390000
6.518337 -1.612361 0.856772 0.240000
6.396667 -2.309833 0.858861 0.100000
9.971639 3.567330 0.165033 0.080000
10.477818 2.466830 0.162263 0.060000
10.683969 1.365602 0.153708 0.020000
10.769485 0.297087 0.139959 0.010000
10.529915 -0.772727 0.145357 0.020000
10.109254 -1.785962 0.140492 0.050000
6.565012 -1.624508 0.321843 0.920000
6.473880 -2.346308 0.298921 0.380000
4.889678 1.279763 0.098263 0.080000
5.047122 0.892710 0.097236 0.020000
5.114667 0.498916 0.100948 0.040000
5.196852 0.125442 0.094774 0.010000
5.134229 -0.260844 0.098175 0.050000
5.066537 -0.642189 0.091581 0.040000
4.974151 -1.038992 0.079864 0.100000
4.776483 -1.422827 0.072921 0.130000
29.602163 12.531326 2.579621 0.060000
31.398560 1.014227 2.396496 0.140000
11.884642 -0.890597 1.183465 0.620000
13.360970 -2.522905 1.261252 0.000000
6.517928 -1.592402 0.866845 0.200000
6.467010 -2.328526 0.868976 0.220000
10.193997 3.706595 0.171131 0.080000
10.710953 2.566312 0.163242 0.060000
10.852870 1.423828 0.159365 0.030000
11.028753 0.337041 0.145784 0.010000
10.769856 -0.768149 0.151000 0.020000
10.309587 -1.802146 0.145955 0.050000
6.579696 -1.609261 0.331938 0.540000
6.443094 -2.306927 0.308988 0.210000
4.924097 1.310428 0.098467 0.080000
5.056916 0.902881 0.102299 0.030000
5.169287 0.519984 0.096169 0.030000
5.236557 0.141205 0.094936 0.010000
5.189136 -0.254773 0.093341 0.040000
5.121527 -0.641136 0.091728 0.050000
4.999133 -1.038532 0.084931 0.110000
4.816667 -1.432059 0.072992 0.110000
29.594408 12.665963 2.645102 0.050000
31.381475 1.113679 2.461822 0.100000
11.863923 -0.856061 1.203540 0.690000
13.365150 -2.482891 1.281412 0.000000
6.517519 -1.572443 0.876918 0.410000
6.456411 -2.298760 0.879059 0.760000
10.470879 3.871927 0.172469 0.080000
11.023582 2.692303 0.169526 0.060000
11.181358 1.505116 0.165525 0.030000
11.293019 0.377091 0.151623 0.010000
11.059802 -0.762595 0.151778 0.020000
10.570100 -1.827180 0.151542 0.060000
6.569289 -1.589493 0.341984 0.310000
6.447670 -2.286891 0.324074 0.190000
4.958515 1.341092 0.098671 0.080000
5.096430 0.928642 0.102498 0.020000
5.208992 0.535747 0.096331 0.040000
5.266359 0.151778 0.095054 0.010000
5.229033 -0.249008 0.093466 0.040000
5.161519 -0.640370 0.091835 0.060000
5.039125 -1.037766 0.085038 0.090000
4.866945 -1.446099 0.073071 0.130000
29.651287 12.816750 2.735812 0.020000
31.359285 1.218016 2.532152 0.130000
11.878184 -0.820873 1.228708 0.770000
19.274282 -3.741374 1.682162 0.000000
6.537297 -1.562099 0.887008 0.700000
6.435719 -2.264187 0.889133 1.110000
10.767444 4.052602 0.183914 0.090000
11.365917 2.833867 0.175946 0.060000
11.155640 1.539556 0.185586 0.080000
11.682180 0.424553 0.152815 0.010000
11.444909 -0.765238 0.157773 0.020000
10.941072 -1.875102 0.157332 0.050000
6.563868 -1.569649 0.357044 0.270000
6.447152 -2.261951 0.339166 0.190000
4.988018 1.366644 0.103843 0.080000
5.136039 0.949405 0.102679 0.030000
5.248684 0.551492 0.101493 0.040000
5.316158 0.162734 0.095224 0.010000
5.293924 -0.242764 0.093659 0.040000
5.206415 -0.634509 0.091974 0.060000
5.079214 -1.041999 0.085127 0.120000
4.896926 -1.445543 0.078151 0.130000
29.568998 12.924917 2.811000 0.120000
31.342068 1.322411 2.612496 0.140000
11.887446 -0.785782 1.253863 0.680000
32.532837 -6.536209 2.596391 0.030000
6.567156 -1.556581 0.902107 0.600000
6.405014 -2.229824 0.904181 1.345000
11.108629 4.254153 0.190554 0.080000
11.762859 2.996479 0.182587 0.060000
11.060196 1.557621 0.215404 0.120000
12.101130 0.482568 0.159125 0.010000
11.869912 -0.762117 0.163894 0.020000
11.311947 -1.918025 0.163141 0.050000
6.608737 -1.563825 0.367183 0.790000
6.441648 -2.237089 0.349244 0.200000
5.037351 1.402613 0.099106 0.080000
5.175552 0.975166 0.102877 0.030000
5.288293 0.572254 0.101674 0.030000
5.390870 0.179186 0.090480 0.010000
5.313716 -0.232401 0.098749 0.040000
5.266500 -0.638359 0.092117 0.060000
5.134299 -1.045944 0.085256 0.110000
4.947122 -1.454565 0.073249 0.130000
29.551014 13.069305 2.891491 0.140000
16.669226 4.585151 1.721315 0.010000
31.329695 1.436956 2.677890 0.140000
11.881616 -0.745978 1.278996 0.690000
32.469875 -6.392664 2.671761 0.060000
6.551558 -1.526912 0.912176 0.700000
6.409604 -2.209769 0.914268 1.741000
11.603267 4.538677 0.192903 0.090000
12.209409 3.180045 0.189435 0.060000
11.204076 1.615332 0.230995 1.000000
12.550076 0.541158 0.165514 0.010000
12.149642 -0.746793 0.174681 0.060000
11.722911 -1.965181 0.169038 0.050000
6.562940 -1.524750 0.382209 1.345000
6.456223 -2.216861 0.364357 0.240000
5.066757 1.433163 0.104296 0.080000
5.224968 1.006118 0.103121 0.030000
5.347803 0.598398 0.101926 0.050000
5.420564 0.194739 0.095616 0.020000
5.393618 -0.225852 0.093982 0.040000
5.316394 -0.632402 0.092269 0.050000
5.194384 -1.049794 0.085399 0.100000
5.012493 -1.473316 0.073350 0.160000
29.543072 13.208811 2.991990 0.040000
16.613256 4.628922 1.766332 0.030000
16.931004 2.664734 1.739860 0.010000
31.292276 1.550948 2.763217 0.130000
11.925954 -0.715233 1.309227 0.650000
11.694800 -1.959825 1.288996 0.020000
6.566229 -1.511683 0.927272 0.820000
6.398992 -2.180022 0.929351 1.741000
12.152197 4.859210 0.205528 0.080000
12.760256 3.400597 0.201693 0.060000
11.153419 1.644238 0.265970 0.230000
12.123693 -0.702411 0.209779 0.050000
11.727065 -1.925205 0.199198 0.070000
6.582705 -1.514425 0.397299 1.210000
6.440611 -2.187210 0.379427 0.270000
5.130800 1.484417 0.099654 0.080000
5.279370 1.037147 0.108379 0.030000
5.402410 0.619448 0.102147 0.070000
5.495263 0.211172 0.095872 0.030000
5.443404 -0.214914 0.099153 0.060000
5.416580 -0.640467 0.087501 0.050000
5.264562 -1.058452 0.085550 0.100000
5.057663 -1.482471 0.078434 0.140000
16.720972 4.740785 1.827030 0.030000
17.118883 2.768112 1.805735 0.020000
31.269625 1.675170 2.863621 0.030000
11.960090 -0.674701 1.344467 0.720000
11.613505 -1.896463 1.314020 0.040000
6.570806 -1.491647 0.942358 0.530000
11.182487 1.689711 0.291215 0.190000
13.932095 0.707601 0.184741 0.010000
6.572093 -1.484678 0.412382 0.840000
6.470362 -2.176712 0.399544 0.210000
5.165205 1.515063 0.104857 0.090000
5.343592 1.078384 0.108700 0.030000
5.461919 0.645592 0.102400 0.080000
5.554964 0.227319 0.096088 0.030000
5.543303 -0.207982 0.094439 0.060000
5.471461 -0.634433 0.092666 0.050000
5.339740 -1.067014 0.085714 0.090000
5.122939 -1.496223 0.078553 0.130000
29.496592 13.517205 3.203017 0.020000
30.732721 5.405088 3.001086 0.020000
12.014221 -0.633785 1.379760 0.500000
11.557396 -1.842619 1.339074 0.080000
6.595461 -1.476245 0.962480 0.390000
6.413048 -2.134855 0.959556 0.380000
13.442900 5.613970 0.236703 0.080000
14.393125 4.046928 0.223358 0.050000
11.176642 1.729496 0.321348 0.120000
14.890081 0.820949 0.192663 0.010000
13.898898 -2.258596 0.183628 0.040000
6.581669 -1.464546 0.427482 0.670000
6.444561 -2.137254 0.414623 0.220000
5.239138 1.571489 0.105260 0.080000
5.402910 1.114527 0.108989 0.030000
5.531318 0.676908 0.107697 0.090000
5.634566 0.248847 0.096376 0.030000
5.607990 -0.191758 0.099668 0.060000
5.566539 -0.637613 0.092903 0.040000
5.404906 -1.075786 0.090852 0.100000
5.188105 -1.504995 0.083690 0.120000
47.250854 22.602196 5.093152 0.040000
30.046280 9.367091 3.164024 0.040000
30.674967 5.533619 3.106414 0.070000
31.239222 1.928899 3.064487 0.020000
11.511259 -1.788622 1.374155 0.070000
6.579850 -1.446594 0.977550 0.520000
6.432705 -2.119549 0.979664 0.380000
14.600392 6.276218 0.252186 0.070000
13.114549 3.687048 0.308683 0.020000
13.257545 -0.640923 0.277968 0.010000
14.896547 -2.389568 0.200745 0.030000
6.469217 -2.121852 0.434745 0.210000
5.288349 1.612420 0.110541 0.080000
5.482128 1.156051 0.109350 0.030000
5.605825 0.703340 0.107990 0.070000
5.699157 0.270069 0.101623 0.030000
5.687784 -0.180228 0.099919 0.060000
5.626432 -0.631464 0.093082 0.040000
5.505188 -1.088849 0.086065 0.090000
5.278663 -1.533266 0.083822 0.130000
46.675022 22.620659 5.231719 0.030000
47.189842 15.370337 4.906107 0.030000
44.294567 8.370173 4.457523 0.030000
53.859653 3.659942 5.169989 0.040000
11.460136 -1.734701 1.404222 0.130000
6.457361 -2.104148 0.999786 1.230000
13.123198 3.752079 0.348948 0.070000
18.763182 1.220269 0.184257 0.000000
6.463495 -2.087029 0.454860 0.290000
5.352283 1.668655 0.110917 0.080000
5.541337 1.197174 0.114658 0.030000
5.695138 0.740057 0.108360 0.110000
5.798660 0.296980 0.101983 0.030000
5.757579 -0.168889 0.100144 0.070000
5.726510 -0.634548 0.093332 0.040000
5.580256 -1.092430 0.091248 0.100000
5.369029 -1.551538 0.083990 0.110000
57.283085 28.380072 6.580832 0.030000
46.384995 15.339514 5.013893 0.050000
42.805931 8.281556 4.478309 0.090000
57.439030 4.176714 5.691258 0.030000
12.792073 -0.539531 1.562143 0.100000
11.464182 -1.689744 1.439400 0.150000
6.436559 -2.064594 1.014879 1.060000
17.637466 8.019600 0.291595 0.020000
13.116848 3.816822 0.389173 0.060000
13.166449 2.272499 0.383561 0.040000
11.395532 0.733182 0.408217 0.010000
13.044954 -0.520303 0.367862 0.010000
11.626727 -1.672742 0.379877 0.040000
6.533634 -2.095742 0.470011 0.840000
5.436104 1.730253 0.116365 0.070000
5.630458 1.243889 0.115064 0.030000
5.789449 0.776870 0.108743 0.100000
5.873249 0.318394 0.107257 0.030000
5.872366 -0.156689 0.100489 0.070000
5.801386 -0.628132 0.098551 0.050000
5.670432 -1.100705 0.091452 0.100000
5.454493 -1.574906 0.084126 0.120000
47.315838 23.561356 5.711894 0.060000
45.073425 15.139122 5.074725 0.070000
42.124168 8.353145 4.576796 0.070000
57.418308 4.445595 5.902206 0.050000
12.740937 -0.485630 1.597210 0.300000
11.468132 -1.639788 1.474596 0.140000
6.430933 -2.034770 1.034975 0.480000
13.084858 5.741402 0.436244 0.060000
13.160273 3.892483 0.439568 0.030000
11.324674 0.771686 0.448176 0.030000
12.688453 -0.452302 0.417185 0.020000
11.585577 -1.618667 0.419971 0.100000
6.467336 -2.032092 0.495074 0.670000
5.524650 1.806962 0.116881 0.080000
5.714485 1.295507 0.115475 0.040000
5.873667 0.818490 0.109117 0.120000
6.002663 0.350896 0.102716 0.030000
5.967144 -0.144890 0.105780 0.080000
5.921364 -0.625833 0.098873 0.050000
5.760593 -1.108998 0.096657 0.100000
5.534752 -1.588389 0.089285 0.170000
47.264198 23.874561 5.947926 0.030000
44.268276 15.123278 5.187566 0.090000
41.945251 8.534182 4.732004 0.060000
57.392551 4.714324 6.128140 0.060000
12.694883 -0.436650 1.637273 0.340000
11.482258 -1.599657 1.514783 0.170000
6.445508 -2.014542 1.050088 0.380000
17.420403 8.104926 0.436347 0.020000
14.907436 4.575992 0.466670 0.140000
13.179008 2.387429 0.474022 0.020000
11.258815 0.810284 0.488147 1.000000
12.687390 -0.402460 0.457368 0.050000
11.599607 -1.573537 0.460175 1.000000
6.486910 -2.011769 0.510201 0.450000
5.613388 1.873673 0.117360 0.080000
5.818411 1.352508 0.115958 0.040000
6.007779 0.866067 0.109644 0.130000
6.097153 0.377692 0.108062 0.030000
6.086846 -0.127576 0.101157 0.070000
6.021345 -0.623918 0.099141 0.050000
5.885966 -1.126581 0.091919 0.090000
5.665507 -1.625873 0.084487 0.140000
48.216854 24.741730 6.288639 0.040000
44.386787 15.434869 5.389036 0.070000
57.314610 12.117673 6.555462 0.070000
11.250448 0.836205 1.558233 0.000000
12.728801 -0.386156 1.682549 0.210000
11.476210 -1.549892 1.549952 0.170000
6.444868 -1.984641 1.075198 0.370000
13.076901 5.880889 0.541743 0.060000
14.851153 4.634723 0.521742 0.110000
11.163071 0.843328 0.523021 0.090000
12.656321 -0.353212 0.502470 0.040000
6.471189 -1.977137 0.530289 0.360000
5.731737 1.960955 0.117994 0.080000
5.942142 1.419889 0.116532 0.040000
6.111993 0.908070 0.110072 0.120000
6.246563 0.410578 0.103574 0.030000
6.191622 -0.115586 0.106475 0.070000
6.176508 -0.630948 0.099520 0.040000
6.001219 -1.139395 0.097172 0.070000
5.776048 -1.653780 0.089672 0.120000
47.562145 24.698616 6.441772 0.040000
44.466133 15.700647 5.605233 0.110000
57.308781 12.386692 6.806449 0.080000
11.234592 0.875780 1.593339 0.010000
6.454430 -1.964527 1.095298 0.390000
14.814866 4.693836 0.576867 0.250000
13.181568 2.502169 0.564456 0.000000
11.142203 0.882789 0.563113 0.100000
13.280716 -0.321395 0.544219 0.020000
6.490737 -1.956851 0.555416 0.590000
5.830185 2.042855 0.118555 0.090000
6.085678 1.497652 0.117196 0.040000
6.271005 0.961125 0.110685 0.130000
6.390962 0.443349 0.104073 0.030000
6.386407 -0.101834 0.102035 0.060000
6.311579 -0.633361 0.099863 0.040000
6.146671 -1.161613 0.097469 0.060000
5.921896 -1.695976 0.084896 0.120000
46.536160 24.463503 6.553220 0.040000
44.694168 16.034229 5.837070 0.090000
57.262592 12.674960 7.052403 0.080000
12.632662 -1.643513 1.757625 0.100000
6.453816 -1.934589 1.110408 0.900000
13.078670 6.035584 0.642324 0.030000
14.803384 4.763427 0.632096 0.160000
29.994278 6.434909 0.607962 0.040000
11.151261 0.927860 0.593305 0.110000
13.337183 -1.705649 0.564221 0.120000
6.510311 -1.936527 0.570543 1.140000
5.988156 2.150918 0.114369 0.080000
6.229227 1.575433 0.112859 0.050000
6.429935 1.019197 0.106315 0.130000
6.560259 0.481598 0.104657 0.030000
6.551102 -0.083659 0.097532 0.060000
6.521853 -0.644300 0.090371 0.030000
6.297135 -1.183717 0.092780 0.060000
6.057638 -1.733383 0.085111 0.180000
46.252769 24.612442 6.733036 0.030000
44.917336 16.362774 6.053877 0.080000
57.276733 12.949454 7.278462 0.080000
11.167793 0.959259 1.663476 0.030000
35.608540 -0.792853 4.415788 0.210000
12.636682 -1.598593 1.802803 0.100000
39.399315 -10.789000 4.928530 0.010000
6.463475 -1.919475 1.130490 0.420000
13.052382 6.094890 0.697476 0.020000
14.772179 4.817619 0.692217 0.360000
30.613770 6.711382 0.730608 0.010000
11.125395 0.967225 0.633384 0.100000
13.436038 -3.214114 0.583872 0.020000
6.494674 -1.906913 0.595612 1.741000
6.091495 2.237894 0.119962 0.090000
6.397566 1.663673 0.113627 0.050000
6.583852 1.077155 0.106933 0.130000
6.724653 0.514752 0.105210 0.040000
6.710880 -0.070596 0.097998 0.050000
6.666908 -0.646540 0.095742 0.040000
6.452585 -1.205744 0.093104 0.050000
6.117683 -1.737288 0.100254 0.200000
51.226467 27.729874 7.677617 0.010000
43.314083 15.997041 6.038332 0.040000
57.235966 13.217877 7.509356 0.070000
36.020611 -0.660579 4.592357 0.260000
12.645726 -1.553540 1.837995 0.080000
40.395737 -10.890906 5.195755 0.010000
6.447755 -1.884843 1.150577 0.460000
13.060812 6.169881 0.747777 0.030000
14.735905 4.876751 0.742343 0.260000
13.193051 2.666923 0.700100 0.010000
11.124537 1.007088 0.668530 0.100000
13.257506 -0.172289 0.674714 0.010000
6.484062 -1.877166 0.610695 0.860000
6.254369 2.351052 0.115808 0.090000
6.541198 1.736436 0.114272 0.050000
6.742768 1.135209 0.107563 0.140000
6.898867 0.558115 0.100825 0.040000
6.855553 -0.052841 0.103441 0.060000
6.821975 -0.648571 0.096139 0.030000
6.623128 -1.232482 0.093449 0.050000
6.152446 -1.726676 0.115384 0.160000
49.142208 26.894974 7.624073 0.020000
43.512203 16.325031 6.275071 0.060000
57.244930 13.497164 7.765420 0.070000
11.181062 1.039252 1.738809 0.030000
36.062241 -0.505304 4.743045 0.210000
39.044655 -10.326718 5.204325 0.020000
6.462412 -1.869633 1.170672 0.430000
13.049425 6.234473 0.802988 0.050000
14.714602 4.936134 0.802508 0.240000
11.093767 1.041358 0.708578 0.110000
14.962222 -0.149857 0.739248 0.010000
13.318851 -1.551486 0.704748 0.020000
13.453774 -3.109104 0.679309 0.020000
6.503706 -1.861879 0.635804 0.490000
6.372500 2.448295 0.126478 0.110000
6.709442 1.829675 0.115058 0.050000
6.906588 1.198358 0.108226 0.150000
7.063153 0.596250 0.106396 0.040000
7.050229 -0.034109 0.104019 0.060000
6.987027 -0.650429 0.101563 0.040000
6.833855 -1.268453 0.093866 0.050000
6.555515 -1.878873 0.085870 0.120000
50.302406 27.875698 8.085752 0.030000
43.576920 16.570507 6.496155 0.060000
57.214493 13.745708 8.016268 0.070000
11.254959 1.090493 1.789192 0.020000
36.584297 -0.376053 4.954890 0.290000
38.573544 -10.026054 5.304214 0.010000
6.461881 -1.844712 1.190764 0.480000
13.052843 6.309350 0.858276 0.020000
13.155976 2.760863 0.800354 0.010000
11.147803 1.087272 0.743890 0.060000
13.260437 -0.077565 0.770075 0.010000
15.027469 -1.734053 0.778530 0.010000
6.493080 -1.832151 0.655887 0.430000
6.535266 2.566433 0.127342 0.100000
6.872769 1.917800 0.120812 0.060000
7.065395 1.261392 0.113875 0.150000
7.267252 0.645167 0.107111 0.040000
7.229908 -0.015665 0.104557 0.060000
7.167089 -0.651980 0.102027 0.040000
6.974199 -1.285787 0.099168 0.050000
6.741630 -1.935319 0.086146 0.120000
48.768219 27.296196 8.084593 0.030000
43.731060 16.847721 6.712590 0.060000
57.154266 13.983699 8.261997 0.130000
11.289069 1.130989 1.834432 0.080000
44.945984 -0.295373 6.197029 0.190000
40.288746 -10.334653 5.687548 0.010000
6.471539 -1.829598 1.210845 0.430000
13.036661 6.363866 0.908437 0.050000
29.980379 7.077593 1.200321 0.010000
11.157040 1.122327 0.779045 0.070000
12.920719 -1.404415 0.794256 0.030000
13.391143 -2.985631 0.774606 0.010000
6.543032 -1.831249 0.671020 1.040000
6.707838 2.694761 0.128270 0.100000
7.070828 2.021630 0.116715 0.060000
7.274014 1.335400 0.114694 0.140000
7.436550 0.683416 0.107695 0.030000
7.449579 0.003546 0.105201 0.060000
7.377242 -0.657957 0.102554 0.040000
7.194924 -1.321566 0.099611 0.040000
6.927649 -1.986765 0.086440 0.110000
49.468735 28.008417 8.449073 0.030000
43.671852 17.040941 6.898155 0.040000
57.094379 14.206766 8.487673 0.090000
11.193556 1.154090 1.854269 0.130000
44.952484 -0.135825 6.362641 0.260000
39.993778 -10.095718 5.812667 0.020000
6.455928 -1.799946 1.225915 0.920000
13.117706 4.479993 0.926646 0.020000
15.273871 0.005552 0.900641 0.000000
12.964923 -1.368728 0.839504 0.090000
13.425240 -2.945154 0.824846 0.020000
6.487128 -1.787385 0.691038 1.598000
6.885314 2.828183 0.129229 0.100000
7.229157 2.109660 0.122455 0.060000
7.472635 1.409217 0.115487 0.110000
7.650634 0.732507 0.113436 0.030000
7.659253 0.022565 0.105819 0.050000
7.617484 -0.668357 0.103142 0.030000
7.455943 -1.371557 0.095106 0.040000
6.564098 -1.813936 0.151134 0.120000
45.345779 25.835649 8.000229 0.030000
43.538338 17.197752 7.078392 0.050000
11.197780 1.189031 1.894411 0.210000
44.953960 0.023590 6.538239 0.230000
39.788338 -4.853672 5.816617 0.020000
40.884632 -10.169661 6.084721 0.020000
6.495760 -1.794274 1.251040 0.480000
13.028897 6.493355 1.013899 0.020000
14.773721 5.211472 1.033689 0.030000
13.182827 2.905889 0.940964 0.010000
11.075709 1.180505 0.854050 0.170000
13.262701 0.047024 0.900545 0.010000
12.923964 -1.324651 0.879562 1.000000
16.550358 -3.720861 0.945121 0.080000
6.511879 -1.776982 0.711141 1.466000
7.077677 2.966873 0.135247 0.090000
7.456910 2.229043 0.123494 0.060000
7.686241 1.483303 0.121320 0.110000
7.834820 0.776023 0.119079 0.030000
7.888922 0.041967 0.106491 0.040000
7.787535 -0.670119 0.108579 0.030000
7.676668 -1.407336 0.095549 0.040000
6.608954 -1.808131 0.166273 0.460000
45.444164 26.146671 8.251644 0.050000
11.127235 1.212574 1.924314 0.220000
40.591766 0.156629 6.102343 0.130000
45.362778 -5.425460 6.769053 0.010000
40.891598 -10.035127 6.255241 0.020000
6.480231 -1.769641 1.271092 0.440000
14.812228 5.282020 1.089052 0.030000
18.659519 4.405272 1.170836 0.010000
11.080042 1.210465 0.889173 0.300000
13.236918 0.081371 0.945606 0.010000
12.903084 -1.285209 0.924654 0.230000
6.506444 -1.757156 0.731201 0.870000
7.284860 3.115868 0.136341 0.090000
7.659943 2.332931 0.129410 0.050000
7.904763 1.562502 0.122185 0.090000
8.088910 0.825898 0.119927 0.030000
8.088475 0.065756 0.117101 0.040000
8.017767 -0.680730 0.114141 0.030000
7.852088 -1.429017 0.105927 0.030000
6.598425 -1.783401 0.186338 0.760000
45.073380 26.164042 8.395742 0.040000
45.711746 18.501875 7.833920 0.060000
11.031805 1.230658 1.949133 0.290000
40.519100 0.274726 6.247593 0.280000
45.445072 -5.309542 6.954700 0.010000
40.898701 -9.905536 6.410743 0.020000
6.494985 -1.759430 1.291168 0.420000
13.041417 6.608230 1.119360 0.010000
14.801225 5.326615 1.144190 0.090000
18.494106 4.416886 1.230448 0.010000
11.034480 1.234468 0.924143 0.340000
12.927386 -1.254903 0.969831 0.260000
13.402482 -2.821081 0.965249 0.020000
6.521102 -1.741946 0.751296 0.560000
7.516737 3.280319 0.142558 0.090000
7.892682 2.452391 0.135462 0.060000
8.138173 1.646969 0.128108 0.110000
8.352807 0.885963 0.120840 0.030000
8.388145 0.086517 0.112960 0.050000
8.242903 -0.686438 0.119708 0.030000
8.092906 -1.469412 0.106405 0.030000
6.562792 -1.754170 0.211354 1.466000
44.935307 26.295706 8.590874 0.020000
44.250183 18.053970 7.783440 0.020000
11.041137 1.260713 1.984269 0.350000
40.491550 0.388724 6.382947 0.400000
43.352615 -4.918997 6.800689 0.020000
6.484564 -1.739681 1.306215 0.420000
13.020524 6.647654 1.169452 0.010000
14.879533 5.407928 1.199697 0.070000
13.145387 3.014715 1.071273 0.010000
11.058809 1.264811 0.959320 0.630000
31.417967 0.356958 1.719096 0.000000
12.991791 -1.228812 1.010096 0.240000
6.515777 -1.727101 0.766337 0.470000
7.753531 3.449884 0.143806 0.080000
8.145240 2.582251 0.136604 0.050000
8.391580 1.731818 0.134085 0.090000
8.656696 0.946794 0.121859 0.030000
8.662793 0.106762 0.118752 0.050000
8.518235 -0.701167 0.120371 0.030000
8.343804 -1.514634 0.111892 0.020000
6.577558 -1.743940 0.226431 1.384000
44.090961 25.984261 8.647512 0.020000
44.311119 18.239454 7.979290 0.030000
11.030581 1.285406 2.014334 0.300000
40.469177 0.492800 6.523277 0.290000
43.270061 -4.806071 6.940895 0.020000
6.489333 -1.729643 1.321265 0.440000
13.024543 6.692574 1.214630 0.010000
18.268082 4.452142 1.344990 0.000000
11.043350 1.284408 0.989353 0.400000
13.299759 0.177133 1.071127 0.000000
13.001205 -1.203773 1.050215 0.310000
6.515437 -1.712178 0.786392 0.430000
7.990407 3.614431 0.150036 0.090000
8.402782 2.712188 0.142759 0.050000
8.664804 1.827068 0.135152 0.090000
8.900775 0.996459 0.127681 0.030000
8.947453 0.127217 0.119571 0.040000
8.818562 -0.715418 0.121102 0.030000
6.577219 -1.729018 0.246485 0.890000
11.176273 5.637681 2.380897 0.000000
41.541897 17.172369 7.658092 0.060000
50.480099 13.543893 8.762946 0.010000
11.060005 1.310845 2.049505 0.280000
40.512077 0.583125 6.663726 0.180000
42.020348 -4.564779 6.888529 0.000000
6.478995 -1.714911 1.341293 0.740000
13.023550 6.737379 1.264795 0.020000
13.092299 4.723542 1.202488 0.020000
13.249186 0.201022 1.111084 0.010000
13.015633 -1.178621 1.085346 0.260000
13.450518 -2.735604 1.090693 0.010000
6.510111 -1.697332 0.801434 0.450000
8.232091 3.789073 0.156317 0.090000
8.655436 2.837049 0.143883 0.050000
8.943027 1.922413 0.136233 0.090000
9.199665 1.057194 0.128687 0.030000
9.237111 0.147768 0.120404 0.040000
9.129079 -0.739476 0.121824 0.030000
8.915888 -1.618714 0.117999 0.020000
6.561786 -1.709383 0.266518 1.070000
11.195386 5.677890 2.426096 0.010000
41.474781 17.260530 7.813246 0.070000
50.472221 13.668086 8.948389 0.030000
11.089417 1.336266 2.089677 0.280000
43.053661 0.709842 7.210837 0.190000
42.990341 -4.597308 7.190943 0.010000
6.493857 -1.709681 1.356351 1.466000
13.002971 6.761843 1.304833 0.020000
11.082324 1.329943 1.049624 0.100000
13.010063 -1.153852 1.120424 0.240000
13.389671 -2.696891 1.125679 0.030000
6.529973 -1.692006 0.816505 0.740000
8.942686 2.982557 0.150173 0.050000
9.271049 2.028714 0.137485 0.090000
9.548450 1.123885 0.129845 0.030000
9.581758 0.169373 0.121384 0.030000
9.252275 -1.687265 0.113622 0.020000
6.566554 -1.699345 0.281568 1.250000
11.150125 5.686914 2.456012 0.030000
41.407593 17.353727 7.958419 0.080000
50.449646 13.777013 9.128737 0.050000
11.148822 1.362262 2.129929 0.270000
43.028339 -4.512079 7.331360 0.020000
6.498625 -1.699643 1.371401 2.010000
12.997279 6.791574 1.349929 0.010000
13.086037 4.778138 1.282675 0.030000
13.217463 3.145532 1.231949 0.000000
11.106845 1.350288 1.084764 0.090000
31.422047 0.610632 2.115054 0.010000
13.009588 -1.133986 1.155497 0.230000
13.368996 -2.667428 1.165735 0.050000
6.509650 -1.677448 0.831507 1.000000
8.745370 4.143947 0.163976 0.090000
9.244850 3.133371 0.151523 0.050000
9.564160 2.129327 0.143624 0.090000
9.812429 1.178932 0.135739 0.030000
9.851408 0.189522 0.127162 0.030000
9.739814 -0.772803 0.128294 0.020000
9.518158 -1.732218 0.124149 0.020000
6.571322 -1.689307 0.296618 1.307000
11.085250 5.675560 2.485801 0.030000
41.365475 17.442369 8.113640 0.060000
50.426964 13.890920 9.314103 0.060000
11.173233 1.387587 2.170088 0.210000
39.052380 0.789545 6.840685 0.120000
42.971317 -4.428724 7.486523 0.020000
44.014065 -10.091038 7.818200 0.010000
6.488383 -1.689910 1.391411 2.678000
13.055637 4.792393 1.327649 0.020000
13.147289 3.149060 1.266779 0.010000
11.116382 1.370364 1.114864 0.100000
31.395750 0.664790 2.210187 0.060000
13.029193 -1.118754 1.195605 0.250000
6.519513 -1.672313 0.846552 0.990000
9.051274 4.359825 0.170577 0.080000
9.586707 3.299929 0.158034 0.050000
9.892169 2.235610 0.149875 0.090000
10.176198 1.245893 0.141937 0.030000
10.196043 0.211108 0.133142 0.030000
10.005121 -0.787762 0.138931 0.020000
6.581186 -1.684172 0.311663 1.345000
11.050082 5.679777 2.515725 0.180000
41.268894 17.505035 8.248622 0.050000
50.424660 13.985214 9.499450 0.070000
11.167855 1.402359 2.205129 0.160000
39.026001 0.843591 6.965818 0.160000
42.143295 -4.279574 7.489916 0.020000
43.992237 -10.016993 7.968420 0.010000
6.483153 -1.680064 1.406434 2.388000
28.962448 16.934542 2.679321 0.030000
29.669960 12.132756 2.523316 0.040000
13.107001 3.158143 1.306708 0.000000
11.106018 1.385058 1.144892 0.110000
13.262162 0.285736 1.261435 0.030000
13.028801 -1.103906 1.235660 0.280000
17.029720 -3.493510 1.457223 0.010000
6.509271 -1.662580 0.866561 0.650000
10.012973 3.498110 0.164884 0.050000
10.289878 2.358230 0.156369 0.080000
10.579864 1.318618 0.148261 0.030000
10.575754 0.228347 0.144198 0.030000
10.355605 -0.811090 0.149759 0.020000
10.110403 -1.845950 0.140272 0.020000
6.575943 -1.674344 0.331686 1.270000
11.019900 5.684072 2.550663 0.140000
41.247314 17.564028 8.413787 0.030000
50.452625 14.065067 9.689821 0.070000
38.774940 0.883442 7.060312 0.100000
42.723015 -4.294391 7.741377 0.040000
43.925793 -9.963824 8.123446 0.010000
6.548446 -1.698927 1.436534 1.170000
28.926662 16.958420 2.799317 0.110000
29.638994 12.166747 2.638363 0.060000
11.100736 1.394830 1.179915 0.090000
31.398750 0.739072 2.425474 0.040000
13.033504 -1.093961 1.275709 0.210000
6.524216 -1.662368 0.886601 0.550000
9.836506 4.874900 0.189541 0.070000
10.429323 3.691081 0.176688 0.040000
