# This PCD file was generated using the MATLAB® pcwrite function
# from Computer Vision Toolbox®.
# .PCD v.7 - Point Cloud Data file format
VERSION .7
FIELDS x y z intensity
SIZE 4 4 4 4
TYPE F F F F
COUNT 1 1 1 1
WIDTH 1287
HEIGHT 1
VIEWPOINT 0 0 0 1 0 0 0
POINTS 1287
DATA ascii
9.762083 4.063386 0.171330 0.080000
10.422862 2.985869 0.164049 0.070000
10.724283 1.871463 0.155694 0.020000
10.865159 0.783987 0.147019 0.010000
10.776244 -0.317929 0.147690 0.020000
10.346148 -1.361368 0.147689 0.060000
9.895244 -2.360125 0.127799 0.050000
9.303945 -3.341623 0.122607 0.080000
4.840963 1.473883 0.093858 0.040000
5.003777 1.066911 0.097770 0.020000
5.116326 0.673997 0.096603 0.030000
5.198497 0.300505 0.095429 0.010000
5.191069 -0.094708 0.093941 0.030000
5.153467 -0.480477 0.087409 0.070000
5.086172 -0.881801 0.075741 0.070000
4.903694 -1.275347 0.068802 0.140000
29.298077 14.560659 2.641372 0.130000
6.491719 1.597549 0.908635 0.460000
6.493722 0.972514 0.896317 0.300000
31.172106 2.650088 2.426986 0.150000
12.594604 -0.367091 1.237265 0.800000
11.592384 -1.556257 1.165228 0.190000
13.417690 -3.397028 1.273151 0.010000
9.963965 4.227263 0.177466 0.100000
10.650328 3.120249 0.165143 0.080000
10.942505 1.965641 0.161613 0.020000
11.118962 0.848859 0.147922 0.020000
11.000628 -0.283625 0.148404 0.020000
10.571010 -1.352060 0.148310 0.050000
10.115668 -2.380926 0.133297 0.050000
9.514863 -3.387592 0.122987 0.080000
4.870286 1.509451 0.094067 0.050000
5.013379 1.087080 0.102870 0.020000
5.135926 0.694357 0.101730 0.040000
5.248118 0.321477 0.090637 0.010000
5.200767 -0.079537 0.099023 0.030000
5.198363 -0.474617 0.087547 0.070000
5.111072 -0.876323 0.075826 0.080000
4.933592 -1.269773 0.068900 0.130000
29.284363 14.745192 2.707023 0.130000
6.471422 1.612145 0.913636 0.430000
6.483424 0.987301 0.901345 0.210000
31.144476 2.779380 2.482395 0.110000
12.628684 -0.321504 1.257524 0.810000
10.170848 4.391236 0.183616 0.090000
10.897681 3.259993 0.171308 0.060000
11.255338 2.081652 0.162861 0.020000
11.202949 0.900422 0.163333 0.060000
11.320075 -0.252520 0.154353 0.020000
10.896318 -1.365851 0.154108 0.050000
10.341188 -2.406630 0.138790 0.050000
9.766145 -3.452809 0.128400 0.070000
4.879793 1.534619 0.099185 0.040000
5.052796 1.117840 0.103087 0.020000
5.165442 0.719927 0.101902 0.050000
5.272813 0.336934 0.095759 0.010000
5.265576 -0.068276 0.094234 0.030000
5.213060 -0.459351 0.092643 0.070000
5.181167 -0.879963 0.070996 0.090000
4.973585 -1.269007 0.069008 0.170000
29.245905 14.914191 2.787551 0.130000
6.480806 1.642275 0.928773 0.450000
6.468018 1.006973 0.911378 0.190000
12.592571 -0.267277 1.282632 0.510000
12.518291 -1.608900 1.267450 0.130000
10.466467 4.621920 0.190245 0.090000
11.214338 3.436052 0.182789 0.060000
11.573061 2.202740 0.169141 0.020000
11.187037 0.945052 0.183458 0.080000
11.619431 -0.216799 0.160267 0.020000
11.261538 -1.373858 0.155032 0.050000
10.621985 -2.446277 0.144376 0.050000
10.062897 -3.542160 0.133843 0.070000
4.914115 1.570283 0.099407 0.050000
5.062398 1.138009 0.108187 0.020000
5.239866 0.751377 0.097213 0.050000
5.322420 0.357888 0.095966 0.010000
5.305281 -0.052513 0.094396 0.040000
5.293058 -0.457800 0.087857 0.070000
5.200946 -0.869619 0.081086 0.070000
5.023658 -1.273067 0.074123 0.160000
29.222332 15.088459 2.873138 0.130000
6.465400 1.661947 0.938806 0.430000
6.477498 1.032104 0.926496 0.340000
12.551556 -0.218146 1.307707 0.570000
12.577532 -1.572869 1.297739 0.130000
11.355789 -4.096549 1.240168 0.000000
10.826692 4.873845 0.197122 0.070000
11.615526 3.638771 0.184590 0.060000
11.960485 2.340166 0.175663 0.010000
11.156307 0.979378 0.208506 0.090000
12.123857 -0.182132 0.161713 0.020000
11.556552 -1.373244 0.165804 0.060000
10.450315 -3.664762 0.134398 0.080000
4.938523 1.600737 0.104584 0.040000
5.131536 1.184360 0.103540 0.020000
5.289377 0.777329 0.097439 0.110000
5.372027 0.378842 0.096173 0.010000
5.365078 -0.041366 0.094593 0.030000
5.322848 -0.447246 0.092974 0.070000
5.286039 -0.872971 0.076295 0.050000
5.053544 -1.267512 0.079222 0.140000
29.173944 15.252232 2.963622 0.070000
6.464881 1.686886 0.953897 0.270000
6.486990 1.057253 0.936614 0.670000
19.551109 -4.896771 1.813591 0.000000
11.389952 -4.055979 1.265408 0.010000
11.325274 5.213454 0.199686 0.070000
12.091016 3.877901 0.191720 0.060000
12.467215 2.514884 0.182635 0.010000
11.115482 1.018511 0.233545 0.100000
12.613275 -0.147771 0.168118 0.020000
11.641006 -1.346695 0.186124 0.050000
11.464976 -2.595177 0.151023 0.040000
10.630914 -3.696364 0.149752 0.160000
5.007469 1.657086 0.099974 0.040000
5.161051 1.209930 0.103712 0.020000
5.328891 0.803091 0.097638 0.260000
5.421731 0.394796 0.096363 0.020000
5.414782 -0.025411 0.094782 0.040000
5.412844 -0.445504 0.088216 0.070000
5.336030 -0.872014 0.076429 0.060000
5.128926 -1.286053 0.074350 0.140000
29.155155 15.436556 3.059259 0.020000
6.459473 1.706749 0.963957 0.180000
6.476570 1.077002 0.951661 1.000000
11.172143 1.045733 1.288805 0.000000
32.139194 -4.283918 2.758738 0.070000
19.574333 -4.811513 1.868970 0.000000
11.439276 -4.025157 1.300652 0.080000
11.818722 5.557910 0.217255 0.070000
12.635988 4.143330 0.209129 0.060000
13.003913 2.690138 0.199688 0.010000
11.019835 1.046556 0.268400 0.100000
11.961774 -2.685715 0.161983 0.030000
10.665145 -3.660830 0.184974 0.240000
5.031781 1.692539 0.105169 0.040000
5.225273 1.251167 0.104033 0.030000
5.358476 0.823624 0.107792 0.080000
5.481337 0.415942 0.096597 0.030000
5.479565 -0.014186 0.099993 0.050000
5.462630 -0.434567 0.093386 0.070000
5.396114 -0.875864 0.076572 0.050000
5.163810 -1.280402 0.079462 0.160000
29.102112 15.580180 3.164656 0.040000
6.468844 1.736861 0.984094 0.260000
6.466245 1.091752 0.966689 1.150000
11.236164 1.091820 1.329144 0.040000
13.858961 2.956561 0.202910 0.010000
11.009088 1.081246 0.298501 0.110000
14.147003 -0.068421 0.182417 0.020000
13.554698 -1.520039 0.180475 0.040000
10.694294 -3.620375 0.215201 0.210000
5.070994 1.733279 0.110423 0.050000
5.254666 1.281699 0.114224 0.030000
5.432804 0.860072 0.103121 0.100000
5.550831 0.442259 0.101876 0.020000
5.554276 0.002266 0.095249 0.050000
5.542615 -0.433035 0.093601 0.050000
5.456090 -0.874733 0.081733 0.040000
5.254272 -1.303674 0.079611 0.150000
29.053864 15.733880 3.275102 0.020000
6.468422 1.756801 0.999167 0.310000
6.475725 1.116883 0.981807 1.070000
11.185437 1.125763 1.354138 0.120000
13.029825 -1.449772 1.459379 0.010000
17.304379 -4.044650 1.810894 0.000000
11.225448 -3.834402 1.350803 0.180000
13.235690 6.510160 0.239493 0.060000
10.928436 1.109578 0.333396 0.060000
15.156418 -0.029100 0.190198 0.010000
14.516326 -1.596654 0.187700 0.030000
13.427690 -2.982748 0.179706 0.030000
10.748919 -3.604436 0.245403 0.140000
5.105208 1.773923 0.115663 0.050000
5.328803 1.328145 0.109590 0.030000
5.497217 0.891312 0.103405 0.100000
5.615436 0.463500 0.102124 0.030000
5.619059 0.013490 0.100460 0.050000
5.602508 -0.426886 0.093780 0.050000
5.536266 -0.883199 0.081911 0.040000
5.324547 -1.317331 0.079744 0.140000
57.095398 32.473263 6.305555 0.040000
6.472890 1.781818 1.019272 0.300000
6.470399 1.131729 0.996849 0.990000
11.204576 1.166008 1.389338 1.000000
34.906952 -0.042160 3.326736 0.120000
13.048841 -1.404565 1.504597 0.040000
17.483862 -4.026484 1.886431 0.000000
11.194213 -3.775118 1.385943 0.130000
15.168384 5.341913 0.255196 0.040000
6.844853 1.235807 0.483208 0.000000
10.887791 1.138695 0.363399 0.090000
13.186740 -1.382410 0.275027 0.100000
10.803433 -3.583517 0.280623 0.110000
5.193958 1.840653 0.111143 0.050000
5.393012 1.369364 0.114911 0.040000
5.571615 0.922724 0.108716 0.100000
5.700037 0.485124 0.102425 0.020000
5.688759 0.029828 0.100703 0.050000
5.692491 -0.425163 0.094021 0.050000
5.636452 -0.891263 0.077142 0.040000
5.404915 -1.335795 0.079885 0.110000
57.064316 32.756836 6.546531 0.030000
6.447664 1.791281 1.034241 0.210000
11.149042 1.189857 1.414281 0.270000
34.964413 0.073503 3.452317 0.270000
13.042972 -1.364817 1.544730 0.050000
39.295193 -9.636720 3.822530 0.010000
11.203353 -3.735064 1.421116 0.280000
17.196535 6.240932 0.258832 0.010000
6.809616 1.245060 0.503150 0.020000
10.971930 1.180204 0.393773 0.150000
18.874969 0.082154 0.195318 0.000000
13.155766 -1.338161 0.320111 0.140000
10.923512 -3.591347 0.315908 0.100000
5.248073 1.886679 0.116455 0.040000
5.492048 1.421288 0.110362 0.030000
5.631112 0.948849 0.113969 0.120000
5.794540 0.511939 0.102771 0.030000
5.788548 0.041741 0.101008 0.050000
5.772367 -0.418650 0.099254 0.050000
5.721615 -0.899652 0.082333 0.030000
5.490269 -1.354182 0.085040 0.120000
52.115246 30.087500 6.273687 0.050000
6.454736 1.161306 1.031918 0.170000
11.053490 1.212903 1.449118 0.240000
37.056652 0.192420 3.778224 0.130000
13.042089 -1.324992 1.589876 0.080000
40.372379 -9.777068 4.084823 0.000000
11.288206 -3.733622 1.471343 0.160000
13.048788 6.586026 0.394289 0.010000
13.116874 4.596923 0.402073 0.040000
6.809289 1.260002 0.518205 1.000000
11.061055 1.221790 0.429160 0.320000
13.308105 0.099828 0.375855 0.010000
13.179986 -1.302837 0.360306 0.170000
16.374943 -3.601596 0.235099 0.010000
11.008404 -3.589849 0.351136 0.140000
5.361436 1.973884 0.112075 0.040000
5.556256 1.462507 0.115683 0.040000
5.740325 0.990948 0.114410 0.120000
5.889043 0.538753 0.103118 0.030000
5.878327 0.053444 0.106286 0.050000
5.897453 -0.421237 0.094571 0.050000
5.786685 -0.903425 0.087489 0.030000
5.585731 -1.377357 0.085203 0.120000
51.906872 30.232784 6.478685 0.040000
6.436903 1.825953 1.069342 0.110000
6.464312 1.181438 1.047018 0.190000
11.022951 1.237231 1.474129 0.420000
35.004631 0.288394 3.703224 0.190000
13.116573 -1.303727 1.635150 0.040000
40.309151 -9.628766 4.225210 0.020000
11.327711 -3.713009 1.511523 0.400000
13.032798 6.630544 0.444413 0.040000
6.769040 1.269141 0.543134 1.000000
11.015480 1.245775 0.469131 0.960000
13.184197 -1.267915 0.405447 0.130000
13.448944 -2.812989 0.365394 0.020000
11.078094 -3.578659 0.391360 0.150000
5.415550 2.019910 0.117388 0.040000
5.665086 1.524602 0.116198 0.040000
5.804725 1.022169 0.119695 0.130000
6.003542 0.565951 0.103518 0.030000
5.993114 0.065645 0.106631 0.050000
5.972426 -0.419819 0.099772 0.050000
5.917045 -0.920932 0.087764 0.030000
5.681192 -1.400533 0.085366 0.110000
51.886463 30.476427 6.754540 0.050000
6.446357 1.851047 1.094461 0.120000
6.444072 1.190978 1.067001 0.190000
11.047267 1.267555 1.514306 0.420000
35.077282 0.389217 3.863790 0.280000
142.085297 -34.936111 14.501904 0.030000
11.327032 -3.683163 1.551633 0.420000
14.742096 5.372911 0.484201 0.080000
6.733912 1.273414 0.558059 0.120000
11.069721 1.281710 0.499406 0.880000
13.251636 0.163428 0.465944 0.000000
13.188504 -1.237993 0.450570 0.110000
11.243739 -3.615621 0.426655 0.190000
5.518998 2.101906 0.117963 0.050000
5.749195 1.571203 0.121591 0.050000
5.958751 1.075147 0.115294 0.130000
6.103032 0.592843 0.108877 0.030000
6.102902 0.077749 0.106962 0.050000
6.102497 -0.422328 0.100102 0.050000
6.032406 -0.938725 0.087999 0.030000
5.817029 -1.442939 0.085563 0.100000
48.299191 28.503147 6.527839 0.040000
6.451030 1.866084 1.109529 0.100000
6.448731 1.205997 1.087069 0.200000
11.016798 1.286847 1.549298 0.410000
35.155273 0.475212 4.004314 0.170000
11.311260 -3.648606 1.591721 0.520000
11.661731 5.873712 0.558022 0.030000
6.718766 1.278051 0.578036 0.130000
13.235932 0.192949 0.516014 0.010000
13.127631 -1.199317 0.495555 0.120000
13.371999 -2.724778 0.455522 0.020000
11.197685 -3.566641 0.466717 0.210000
5.607818 2.163599 0.123424 0.050000
5.902741 1.649175 0.117281 0.040000
6.067964 1.117246 0.115735 0.110000
6.257441 0.625824 0.104403 0.030000
6.227687 0.090141 0.107334 0.050000
6.237664 -0.429741 0.100427 0.040000
6.162861 -0.961231 0.088256 0.030000
5.897384 -1.461422 0.090704 0.100000
48.181313 28.620066 6.757968 0.040000
6.440788 1.875816 1.129539 0.090000
6.433503 1.215652 1.102065 0.410000
11.066096 1.317631 1.594542 0.330000
36.132942 0.573092 4.242233 0.230000
13.149572 -1.218593 1.775554 0.020000
11.355929 -3.637932 1.641877 0.240000
11.616335 5.887680 0.602956 0.080000
13.103493 4.745978 0.597594 0.030000
6.554320 1.244823 0.597484 0.320000
10.988965 1.309893 0.574301 0.050000
18.839500 0.320289 0.531114 0.000000
13.132033 -1.174393 0.540660 0.070000
13.361296 -2.695161 0.505605 0.030000
11.136525 -3.512968 0.511758 0.340000
5.740973 2.261167 0.124134 0.060000
6.016571 1.711366 0.117810 0.050000
6.221990 1.170223 0.111334 0.120000
6.396936 0.653501 0.104870 0.030000
6.417473 0.103797 0.102880 0.050000
6.392730 -0.431772 0.100825 0.040000
6.293220 -0.978737 0.088531 0.030000
6.038220 -1.503732 0.090914 0.090000
43.879608 26.103392 6.422381 0.030000
6.440435 1.890721 1.154593 0.090000
6.443257 1.225767 1.122129 0.510000
11.160277 1.354258 1.644924 0.190000
36.101135 0.646964 4.387426 0.300000
13.113887 -1.189436 1.820570 0.030000
39.676804 -9.072942 4.815632 0.000000
11.571225 5.886651 0.647835 0.110000
6.494375 1.238600 0.617305 0.310000
11.008391 1.335141 0.609446 0.060000
30.911234 0.601458 0.583670 0.030000
13.405882 -2.679469 0.550780 0.070000
11.146144 -3.497910 0.546839 0.330000
5.869236 2.353658 0.119813 0.060000
6.199920 1.799912 0.113617 0.050000
6.390904 1.228468 0.111992 0.140000
6.571328 0.686846 0.105449 0.030000
6.587249 0.117051 0.103372 0.050000
6.572997 -0.443303 0.096252 0.040000
6.453861 -1.010667 0.088832 0.020000
6.194258 -1.555735 0.086128 0.090000
43.920887 26.268442 6.633104 0.030000
6.435205 1.900567 1.169616 0.110000
6.428030 1.235422 1.137125 0.600000
11.169801 1.374316 1.680024 0.260000
36.074638 0.705972 4.522578 0.310000
13.098307 -1.164877 1.860621 0.060000
39.725025 -9.002611 4.981021 0.000000
11.390126 -3.607583 1.727080 0.100000
11.550812 5.901080 0.697836 0.160000
14.704120 5.496380 0.709563 0.010000
6.494131 1.248524 0.637341 0.430000
11.042897 1.355659 0.649613 0.090000
31.469927 0.656691 0.715336 0.030000
13.191104 -1.138603 0.635948 0.160000
13.375170 -2.650254 0.605809 0.040000
11.190923 -3.492216 0.591978 0.340000
6.032194 2.461798 0.120640 0.060000
6.338648 1.867581 0.114231 0.050000
6.540014 1.276332 0.112559 0.130000
6.730723 0.719905 0.105988 0.030000
6.732126 0.124827 0.103780 0.060000
6.718162 -0.450524 0.096604 0.040000
6.599408 -1.037884 0.089111 0.030000
6.355378 -1.612659 0.086337 0.080000
43.928162 26.382868 6.833550 0.030000
6.425059 1.905300 1.189608 0.130000
6.457671 1.250901 1.162260 0.770000
11.139619 1.378610 1.714962 0.240000
36.008366 0.754253 4.647585 0.250000
13.107900 -1.149856 1.905702 0.060000
40.265869 -9.073091 5.207173 0.010000
11.404815 -3.597465 1.772157 0.080000
11.510701 5.900146 0.742728 0.150000
14.748106 5.542029 0.764848 0.060000
6.503898 1.258658 0.652404 0.500000
11.052529 1.370736 0.679694 0.100000
31.483774 0.701561 0.825540 0.030000
13.145624 -1.119618 0.675900 0.140000
11.271091 -3.505830 0.632137 0.420000
6.175346 2.559557 0.121377 0.070000
6.516986 1.956012 0.115025 0.060000
6.694027 1.329291 0.113158 0.150000
6.915127 0.753461 0.101594 0.030000
6.921899 0.138464 0.104326 0.060000
6.858410 -0.462859 0.101925 0.050000
6.775046 -1.069526 0.089452 0.030000
6.511403 -1.664680 0.086551 0.090000
43.717857 26.368086 7.037949 0.030000
6.434705 1.920396 1.214689 0.140000
6.432637 1.250366 1.177193 0.820000
35.977154 0.798168 4.782669 0.200000
39.993473 -8.968765 5.336851 0.020000
11.379344 -3.578078 1.807163 0.070000
11.485589 5.899500 0.787661 0.120000
14.692972 5.540771 0.819700 0.070000
6.503750 1.263582 0.672422 0.460000
11.077133 1.386063 0.719816 0.100000
13.248522 0.287381 0.741400 0.000000
13.135221 -1.104979 0.720928 0.240000
11.260701 -3.491173 0.672164 0.480000
6.318390 2.662296 0.127132 0.080000
6.640800 2.018375 0.120580 0.060000
6.887841 1.393015 0.113900 0.150000
7.084507 0.786692 0.107160 0.040000
7.096771 0.146814 0.104813 0.060000
7.063659 -0.473930 0.102419 0.040000
6.915582 -1.096857 0.094717 0.030000
6.702709 -1.731028 0.086804 0.080000
44.777664 27.117104 7.428504 0.020000
6.424667 1.920149 1.229662 0.170000
6.467278 1.265941 1.202341 0.830000
40.648212 0.944957 5.530415 0.250000
39.711159 -8.869650 5.471484 0.030000
11.404209 -3.577785 1.857229 0.060000
13.090925 4.844839 0.847931 0.030000
6.503603 1.268507 0.692441 0.370000
11.062044 1.385646 0.754775 0.090000
13.253212 0.297308 0.786450 0.010000
13.119806 -1.090455 0.770942 0.250000
11.260391 -3.481342 0.717201 0.520000
6.466638 2.755152 0.127865 0.080000
6.853940 2.117475 0.121505 0.050000
7.056838 1.446242 0.119539 0.160000
7.268898 0.820230 0.107766 0.030000
7.286639 0.155452 0.105341 0.050000
7.218904 -0.485977 0.107780 0.050000
7.106409 -1.138210 0.095061 0.030000
6.843627 -1.778356 0.091996 0.080000
11.184608 5.763890 2.101385 0.000000
6.439408 1.930341 1.254739 0.200000
6.447338 1.260503 1.217269 0.450000
11.113762 1.407717 1.825004 0.030000
40.652317 0.969454 5.690518 0.280000
40.617516 -3.997036 5.656965 0.030000
39.830788 -8.872982 5.641786 0.020000
11.383834 -3.563301 1.892230 0.060000
13.021359 6.898594 0.930385 0.050000
13.080701 4.849460 0.897922 0.080000
6.498551 1.268337 0.712427 0.220000
11.071746 1.395687 0.794838 0.100000
13.222909 0.306564 0.831405 0.010000
13.139686 -1.090240 0.815996 0.240000
13.423898 -2.610010 0.796088 0.000000
11.255096 -3.471588 0.757223 0.500000
6.649304 2.878672 0.128801 0.070000
7.012568 2.190526 0.122191 0.060000
7.463369 0.848941 0.113380 0.030000
7.471496 0.163975 0.110855 0.040000
7.414347 -0.507238 0.108211 0.040000
7.322422 -1.189082 0.095436 0.030000
7.040028 -1.849607 0.092244 0.080000
11.154604 5.758168 2.141285 0.010000
6.434260 1.935170 1.274744 0.240000
11.088675 1.407108 1.859936 0.030000
40.691494 0.989602 5.855697 0.300000
40.531658 -3.974226 5.806827 0.030000
11.408794 -3.568007 1.942279 0.040000
13.021120 6.903389 0.985403 0.040000
13.085378 4.859368 0.947972 0.070000
6.498416 1.273280 0.727445 0.110000
11.046659 1.395078 0.829771 0.110000
13.242787 0.306780 0.876459 0.020000
13.104396 -1.081061 0.855938 0.200000
13.438873 -2.614889 0.841109 0.000000
11.280179 -3.481256 0.797253 0.470000
6.832149 2.992176 0.134700 0.070000
7.210889 2.279321 0.128038 0.050000
7.672755 0.882957 0.114053 0.030000
7.726448 0.168859 0.111539 0.040000
7.664779 -0.527445 0.108789 0.040000
7.553433 -1.239667 0.095851 0.030000
7.191136 -1.906741 0.097426 0.080000
11.124793 5.742447 2.181149 0.030000
6.434221 1.935115 1.289744 0.230000
6.422251 1.259894 1.252202 0.150000
11.123373 1.417628 1.900066 0.020000
40.686104 0.988949 6.005682 0.340000
40.656479 -3.987461 5.977106 0.030000
44.509968 -9.967155 6.629942 0.000000
11.408786 -3.573154 1.982260 0.040000
13.075358 4.854010 0.992926 0.060000
6.493461 1.268111 0.747413 0.070000
11.061470 1.400234 0.864829 0.090000
13.227591 0.311343 0.916436 0.010000
13.114277 -1.081036 0.900964 0.160000
13.413568 -2.605537 0.886078 0.000000
11.274980 -3.476502 0.837258 0.370000
7.024799 3.115869 0.140663 0.070000
7.414222 2.368231 0.128900 0.050000
7.693461 1.628467 0.121879 0.060000
7.877129 0.916859 0.119713 0.030000
7.896307 0.177095 0.117013 0.040000
7.865208 -0.548629 0.114234 0.030000
7.719142 -1.276536 0.106147 0.030000
7.387620 -1.983010 0.102655 0.070000
11.104788 5.736917 2.221077 0.040000
6.424267 1.929850 1.309698 0.240000
6.437100 1.265106 1.272260 0.140000
11.133266 1.417671 1.940093 0.020000
40.680676 0.988240 6.170667 0.340000
40.590992 -3.984283 6.131948 0.020000
44.449333 -9.958957 6.804816 0.000000
11.398588 -3.568496 2.022251 0.060000
13.025749 6.908093 1.090433 0.010000
13.095033 4.864205 1.043016 0.040000
6.488422 1.267960 0.762400 0.080000
11.056379 1.400008 0.899815 0.100000
13.252468 0.311655 0.961503 0.010000
13.089164 -1.081682 0.945897 0.130000
13.463717 -2.619763 0.936157 0.010000
11.264782 -3.471843 0.877249 0.290000
7.232365 3.244867 0.141684 0.080000
7.647249 2.472694 0.134896 0.050000
7.902355 1.687459 0.127643 0.080000
8.111497 0.951335 0.125453 0.030000
8.166270 0.182285 0.112737 0.040000
8.090740 -0.574314 0.114727 0.030000
7.940156 -1.327313 0.106535 0.020000
7.589116 -2.059165 0.102898 0.070000
11.075086 5.716216 2.255923 0.090000
6.429214 1.929871 1.329711 0.220000
6.422160 1.259764 1.287202 0.140000
11.188043 1.423556 1.985258 0.020000
40.660599 0.972339 6.310557 0.280000
44.439358 -9.984794 6.979696 0.000000
11.403674 -3.578547 2.062227 0.070000
13.006005 6.887528 1.140306 0.020000
14.825514 5.622059 1.165352 0.070000
6.493369 1.267981 0.782413 0.110000
11.066381 1.395071 0.934824 0.110000
13.247543 0.301394 1.006452 0.010000
13.099154 -1.086639 0.985905 0.140000
13.383422 -2.611464 0.980979 0.030000
11.239682 -3.472470 0.917182 0.320000
7.509151 3.415198 0.143040 0.070000
7.900285 2.577559 0.135947 0.050000
8.170962 1.762617 0.128624 0.080000
8.375873 0.986404 0.126273 0.030000
8.456299 0.182821 0.118496 0.040000
8.321259 -0.599922 0.120234 0.030000
8.156252 -1.383202 0.111891 0.020000
7.810882 -2.149952 0.108139 0.060000
11.080063 5.711145 2.300918 0.090000
6.424272 1.924720 1.344680 0.250000
6.432106 1.259881 1.307228 0.140000
11.168159 1.413063 2.015167 0.050000
40.655987 0.931712 6.455395 0.220000
48.265263 -4.857724 7.583748 0.010000
44.319397 -10.007608 7.119299 0.000000
11.398762 -3.588789 2.102177 0.120000
13.001259 6.867250 1.190219 0.030000
14.934762 5.653937 1.225756 0.040000
6.488427 1.262830 0.797381 0.260000
11.071481 1.385038 0.969800 0.130000
31.420578 0.736928 1.760516 0.080000
13.054249 -1.097647 1.025747 0.200000
13.413682 -2.631053 1.025985 0.010000
11.239782 -3.482599 0.952145 0.350000
7.746506 3.554750 0.149178 0.080000
8.188110 2.693073 0.142127 0.050000
8.429751 1.827566 0.134541 0.090000
8.680145 1.027239 0.127219 0.030000
8.746340 0.183376 0.119255 0.030000
8.611959 -0.634379 0.125864 0.030000
8.437719 -1.457843 0.117348 0.020000
8.002449 -2.231334 0.118337 0.050000
11.075233 5.695885 2.345849 0.090000
6.419316 1.919551 1.364648 0.220000
6.412275 1.249463 1.317138 0.180000
11.198146 1.408490 2.055229 0.090000
39.901817 0.877149 6.483224 0.180000
43.652447 -4.419046 7.043333 0.020000
11.373867 -3.599396 2.137073 0.200000
13.016331 6.857372 1.235222 0.010000
6.483567 1.252662 0.817331 0.300000
11.091578 1.375293 1.004817 0.100000
31.411182 0.691374 1.860323 0.070000
13.054432 -1.112793 1.065692 0.170000
13.388787 -2.641660 1.060881 0.020000
11.224981 -3.498013 0.987049 0.410000
8.008678 3.704797 0.150420 0.080000
8.446145 2.798033 0.143191 0.050000
8.723355 1.903203 0.135588 0.080000
8.969503 1.062768 0.133107 0.030000
9.016468 0.178530 0.124942 0.040000
8.922872 -0.678414 0.121512 0.020000
8.259604 -2.341429 0.118599 0.050000
11.090414 5.681026 2.385834 0.110000
6.414469 1.909402 1.379597 0.200000
6.417414 1.239486 1.337114 0.340000
11.188344 1.393171 2.090147 0.150000
43.085606 0.880778 7.131555 0.200000
42.145638 -4.327594 6.959738 0.010000
11.379145 -3.619445 2.177012 0.300000
13.001873 6.821906 1.285053 0.020000
6.458833 1.237149 0.827209 0.350000
11.096786 1.360280 1.034775 0.100000
31.436752 0.646452 1.970224 0.030000
13.024633 -1.128495 1.100556 0.230000
13.394148 -2.666727 1.105803 0.060000
11.235271 -3.517948 1.022002 0.450000
8.280740 3.860017 0.156707 0.090000
8.758883 2.919044 0.144457 0.050000
9.032051 1.974127 0.136658 0.070000
9.318876 1.099484 0.129155 0.030000
9.346611 0.174870 0.120790 0.030000
9.213762 -0.722869 0.127106 0.020000
9.051163 -1.631107 0.113306 0.020000
8.496655 -2.446926 0.123826 0.050000
11.080899 5.650711 2.420696 0.110000
6.409719 1.894253 1.394529 0.160000
6.402582 1.229164 1.347037 0.520000
11.148765 1.367317 2.114948 0.200000
42.921913 0.792132 7.265800 0.160000
43.023716 -4.521912 7.261311 0.010000
11.339361 -3.635320 2.206850 0.290000
13.012329 6.791935 1.329969 0.020000
13.086280 4.768214 1.262639 0.010000
6.478873 1.232459 0.847244 0.400000
11.092092 1.340077 1.064688 0.080000
16.417412 0.296001 1.314710 0.010000
13.024925 -1.148621 1.135482 0.240000
13.359350 -2.682524 1.140653 0.020000
11.220675 -3.543342 1.051870 0.400000
8.617228 4.046494 0.158279 0.100000
9.056802 3.029751 0.150647 0.050000
9.380536 2.055797 0.142871 0.070000
9.658224 1.135971 0.135177 0.030000
9.666825 0.165983 0.126593 0.030000
9.332726 -1.710747 0.118745 0.020000
6.409871 1.884199 1.409492 0.120000
6.412719 1.219283 1.367027 0.510000
11.074410 1.330831 2.129618 0.210000
39.705311 0.642006 6.846841 0.150000
43.025402 -4.627357 7.385925 0.020000
11.319671 -3.655811 2.236722 0.410000
12.993282 6.736414 1.369713 0.010000
13.111746 4.738550 1.302595 0.030000
6.479025 1.222405 0.862207 0.160000
11.082494 1.314778 1.094569 0.080000
13.238870 0.205514 1.196075 0.010000
13.010494 -1.184050 1.175313 0.260000
11.216063 -3.568563 1.086764 0.410000
8.904368 4.196983 0.169588 0.100000
9.409423 3.156508 0.157038 0.050000
6.739128 1.294361 0.328148 0.100000
9.987766 1.162269 0.141135 0.030000
9.967236 0.146715 0.132306 0.030000
9.815744 -0.821376 0.133312 0.020000
9.599484 -1.800672 0.124107 0.020000
9.112303 -2.735168 0.119361 0.060000
6.395231 1.863878 1.419378 0.140000
6.407886 1.209152 1.376977 0.590000
11.034941 1.299997 2.149401 0.250000
39.771889 0.542805 6.971647 0.270000
42.110241 -4.624810 7.363545 0.040000
11.325262 -3.690820 2.266607 0.410000
13.072633 4.687682 1.332304 0.020000
6.484190 1.212465 0.872183 0.070000
11.013125 1.278370 1.114253 0.180000
16.373732 0.214838 1.399295 0.010000
13.000910 -1.209330 1.200195 0.250000
11.241842 -3.613187 1.116666 0.310000
9.206533 4.347796 0.170937 0.090000
9.742252 3.272903 0.158340 0.050000
6.774178 1.289976 0.343223 0.240000
10.277520 1.177821 0.141949 0.030000
10.222558 0.131584 0.137916 0.030000
10.061740 -0.871692 0.138767 0.020000
9.820963 -1.876462 0.129403 0.020000
9.344450 -2.845760 0.124556 0.050000
6.400478 1.848921 1.434337 0.200000
6.418145 1.194309 1.386949 0.680000
11.025369 1.274736 2.169282 0.260000
40.308605 0.432386 7.157640 0.230000
42.127575 -4.759850 7.458089 0.040000
16.123209 8.555615 1.674649 0.010000
6.479548 1.192336 0.882097 0.080000
11.018538 1.253378 1.139174 0.240000
13.309945 0.141644 1.256024 0.030000
13.026498 -1.243956 1.230133 0.260000
13.401381 -2.802107 1.240319 0.020000
11.323091 -3.681753 1.146624 0.290000
10.020558 3.363231 0.164402 0.040000
6.754539 1.269560 0.353096 0.390000
10.547265 1.192971 0.147709 0.030000
10.513079 0.107143 0.138584 0.030000
10.272741 -0.922678 0.144128 0.020000
10.047632 -1.962155 0.134676 0.020000
9.506310 -2.942713 0.134618 0.050000
6.415641 1.839173 1.444340 0.200000
6.398410 1.178892 1.396840 0.680000
11.055778 1.250222 2.194271 0.230000
40.355648 0.312918 7.252319 0.410000
42.250008 -4.902989 7.582878 0.040000
11.170403 -3.703898 2.296155 0.240000
29.049101 16.320927 2.722266 0.070000
6.479809 1.177302 0.892041 0.060000
11.029073 1.223519 1.154091 0.290000
13.037197 -1.283850 1.255013 0.260000
13.381990 -2.837576 1.265137 0.030000
11.298617 -3.712301 1.166446 0.240000
9.741807 4.598055 0.183265 0.090000
10.289167 3.438389 0.165383 0.050000
6.739899 1.249239 0.362982 1.000000
10.802205 1.197836 0.153393 0.030000
10.728601 0.081248 0.144050 0.030000
10.488838 -0.978568 0.149484 0.020000
9.652994 -3.029938 0.139677 0.050000
6.406000 1.818948 1.454240 0.220000
6.408670 1.164049 1.406812 0.700000
11.106169 1.226073 2.224313 0.180000
40.362888 0.182685 7.346855 0.310000
42.077168 -5.026559 7.646968 0.030000
11.196388 -3.758502 2.321020 0.200000
29.051640 16.180750 2.776752 0.120000
6.475071 1.162172 0.901973 0.070000
11.014598 1.193163 1.173940 0.680000
13.007916 -1.324491 1.274786 0.110000
13.387882 -2.887564 1.289967 0.020000
11.208691 -3.719079 1.181187 0.240000
10.034357 4.728682 0.184514 0.080000
10.542956 3.503242 0.171286 0.050000
6.710357 1.223632 0.372810 0.420000
10.927551 1.180216 0.158655 0.020000
10.999221 0.051425 0.144645 0.030000
10.669845 -1.030129 0.154765 0.020000
10.385513 -2.110747 0.145006 0.020000
44.168777 25.411304 9.830598 0.020000
6.406370 1.798934 1.459166 0.200000
6.404041 1.143938 1.411725 0.440000
11.186567 1.202517 2.249435 0.230000
40.395683 0.028047 7.411366 0.100000
41.614017 -5.125392 7.630392 0.030000
11.182105 -3.798856 2.340833 0.150000
29.069260 16.035841 2.836260 0.140000
6.460540 1.136871 0.906841 0.070000
11.164901 1.175965 1.194269 0.340000
12.983553 -1.360019 1.289590 0.160000
11.199420 -3.759319 1.196013 0.250000
10.257769 4.812957 0.190411 0.100000
10.762040 3.552428 0.177041 0.050000
11.077881 1.163055 0.168983 0.040000
11.174941 0.014766 0.149968 0.030000
10.881051 -1.091095 0.155090 0.020000
10.562097 -2.192398 0.150163 0.020000
10.047711 -3.272422 0.139806 0.060000
42.794991 24.325701 9.577974 0.020000
6.406836 1.773920 1.464075 0.170000
11.197280 1.162642 2.269315 0.210000
41.667274 -5.304660 7.699865 0.030000
29.082136 15.880933 2.870718 0.050000
6.460815 1.121855 0.911786 0.080000
11.175544 1.141126 1.204167 0.140000
12.964297 -1.400432 1.299390 0.150000
11.185163 -3.799636 1.205826 0.240000
10.481098 4.902249 0.191326 0.090000
10.991135 3.601825 0.177823 0.050000
11.173328 1.139861 0.174146 0.140000
11.017067 -1.143517 0.160250 0.020000
10.723708 -2.274299 0.145281 0.020000
10.129217 -3.350893 0.144727 0.040000
42.883663 24.127163 9.632468 0.030000
6.407206 1.753905 1.469001 0.210000
6.384894 1.098545 1.416506 0.170000
11.247807 1.133549 2.284339 0.190000
44.845768 -0.320051 8.311698 0.080000
40.412380 -5.298069 7.526612 0.020000
29.100395 15.706122 2.905117 0.040000
6.478755 1.747199 0.944158 0.000000
6.515970 1.112873 0.921897 0.240000
11.166286 1.100905 1.213994 0.070000
16.314211 -0.091888 1.543001 0.000000
10.665201 4.950784 0.191987 0.110000
11.111113 3.604123 0.178144 0.040000
11.129078 1.098969 0.183879 0.160000
10.891149 -0.055810 0.183965 0.030000
11.133100 -1.196304 0.160357 0.020000
10.774739 -2.328349 0.150213 0.020000
10.266121 -3.448270 0.139722 0.060000
43.026775 23.959709 9.677219 0.010000
6.392688 1.728623 1.468869 0.320000
6.415054 1.089085 1.426550 0.160000
44.858959 -0.489920 8.336101 0.240000
40.460453 -5.462287 7.556128 0.010000
41.349346 -10.927586 7.908135 0.000000
11.457088 -4.068967 2.430547 0.040000
29.108435 15.546212 2.914543 0.040000
6.509024 1.732758 0.949183 0.010000
6.471566 1.082036 0.916666 0.350000
11.147056 1.060530 1.213794 0.070000
13.236742 -1.530365 1.334618 0.100000
11.318140 -3.957208 1.230588 0.220000
10.750377 4.942414 0.192178 0.100000
11.211272 3.596021 0.183376 0.040000
11.455976 2.310517 0.169236 0.080000
11.134830 1.059054 0.188746 0.190000
10.876809 -0.091109 0.188796 0.030000
11.209139 -1.249858 0.160356 0.020000
10.840864 -2.387112 0.155167 0.020000
10.317439 -3.517317 0.144600 0.060000
52.799511 29.349977 11.862789 0.060000
6.398153 1.703704 1.473791 0.340000
6.400536 1.063802 1.426418 0.160000
44.887394 -0.674555 8.375489 0.250000
44.488911 -6.233059 8.323786 0.020000
41.212494 -11.095291 7.922155 0.010000
11.437929 -4.114379 2.440329 0.150000
29.146345 15.391837 2.934068 0.060000
6.471937 1.062021 0.921593 0.370000
11.172791 1.020979 1.223714 0.090000
12.640293 -0.151435 1.308187 0.000000
13.142430 -1.567178 1.334235 0.190000
19.736973 -4.933035 1.763941 0.000000
11.334260 -4.016947 1.240408 0.170000
10.815735 4.923644 0.197279 0.110000
11.286641 3.577461 0.183503 0.040000
11.476725 2.270889 0.174143 0.080000
11.150594 1.019349 0.188639 0.180000
11.307835 -0.137789 0.169748 0.030000
11.229998 -1.294466 0.160245 0.020000
10.861818 -2.436719 0.155038 0.020000
10.333490 -3.572020 0.144438 0.060000
53.038483 29.139370 11.902630 0.030000
6.413534 1.683996 1.473758 0.360000
6.400919 1.043806 1.426345 0.170000
45.116081 -0.870357 8.415359 0.070000
40.236629 -5.786631 7.554338 0.010000
40.607979 -11.111486 7.815516 0.020000
11.358271 -4.130852 2.425059 0.190000
29.179310 15.237441 2.933581 0.190000
6.519788 1.692957 0.949063 0.060000
6.467320 1.041929 0.921506 0.150000
12.601163 -0.197192 1.307915 0.000000
12.631933 -1.541840 1.302997 0.090000
19.628157 -4.995111 1.758426 0.000000
10.871204 4.899702 0.197334 0.110000
11.277698 3.522280 0.183275 0.040000
11.512498 2.231586 0.169090 0.080000
11.201255 0.985313 0.188645 0.200000
11.468693 -0.179679 0.160012 0.030000
11.200674 -1.330034 0.160036 0.020000
10.862694 -2.481692 0.149873 0.020000
10.304167 -3.607588 0.144229 0.060000
6.394125 1.653637 1.468594 0.410000
6.421203 1.029192 1.426343 0.180000
48.625584 -1.160505 9.053448 0.060000
40.355373 -5.984484 7.578912 0.030000
40.521358 -11.288158 7.809633 0.030000
11.349313 -4.186052 2.429831 0.450000
29.217848 15.053147 2.932996 0.190000
6.535169 1.673248 0.949030 0.220000
6.487700 1.022316 0.921486 0.090000
12.627116 -0.246704 1.307798 0.010000
12.567725 -1.583059 1.297676 0.230000
19.514244 -5.052285 1.752916 0.000000
10.852549 4.829332 0.197024 0.100000
11.288653 3.472481 0.183118 0.040000
11.493446 2.181194 0.173853 0.080000
11.177122 0.939843 0.188413 0.200000
11.504549 -0.224000 0.159941 0.020000
11.091147 -1.357173 0.169649 0.020000
10.808266 -2.512758 0.154615 0.020000
10.234563 -3.628924 0.143968 0.060000
6.399508 1.633736 1.468534 0.410000
6.411684 1.004005 1.426225 0.420000
42.062866 -1.176886 7.861244 0.060000
40.233517 -6.146773 7.557991 0.040000
40.510181 -11.488426 7.813859 0.020000
11.269751 -4.207524 2.414543 0.380000
29.260822 14.898961 2.927535 0.200000
6.505845 1.637680 0.948821 1.000000
6.463184 0.996842 0.921328 0.100000
12.587998 -0.292443 1.302526 0.010000
12.548700 -1.633414 1.292439 0.270000
19.516077 -5.147248 1.747568 0.000000
10.829086 4.748868 0.196664 0.100000
11.195287 3.385659 0.187552 0.050000
11.434621 2.120075 0.168472 0.070000
11.182900 0.899965 0.183280 0.190000
11.395336 -0.266099 0.159499 0.030000
11.056947 -1.397798 0.159409 0.020000
10.693479 -2.524959 0.154270 0.020000
10.134678 -3.635839 0.143682 0.060000
52.436008 27.733538 11.635829 0.050000
6.400000 1.608760 1.463443 0.330000
6.446964 0.989678 1.426264 0.650000
11.237599 0.883309 2.283382 0.000000
41.941673 -1.369040 7.805212 0.150000
39.891403 -6.288020 7.466572 0.050000
40.439121 -11.689694 7.777925 0.010000
29.259665 14.704051 2.886807 0.200000
6.476548 1.602150 0.938613 0.480000
6.483576 0.977247 0.916308 0.090000
31.140661 2.709074 2.542124 0.050000
12.704031 -0.345230 1.302633 0.060000
11.671830 -1.534952 1.225515 0.170000
10.701519 4.621421 0.190857 0.110000
11.116860 3.304180 0.177044 0.040000
11.315984 2.047790 0.167894 0.060000
11.243682 0.861159 0.173294 0.110000
11.246035 -0.303966 0.158969 0.030000
10.887156 -1.411071 0.163917 0.020000
10.583800 -2.542044 0.148920 0.020000
10.004415 -3.623331 0.143388 0.060000
53.022030 27.679586 11.682158 0.030000
6.410490 1.583975 1.458378 0.220000
6.402574 0.958859 1.416033 0.610000
11.213506 0.837895 2.268150 0.010000
41.825287 -1.551099 7.749231 0.100000
39.729546 -6.445946 7.410562 0.040000
29.302801 14.544959 2.856328 0.190000
6.472136 1.572078 0.933489 0.570000
6.508872 0.962747 0.911320 0.350000
31.168406 2.569673 2.516678 0.050000
12.584968 -0.392445 1.282146 0.080000
11.587556 -1.571517 1.210159 0.180000
13.463880 -3.466357 1.328014 0.000000
10.578842 4.499050 0.190082 0.110000
10.968901 3.196327 0.176257 0.040000
11.172544 1.965028 0.167212 0.070000
11.264566 0.816587 0.163183 0.080000
11.076736 -0.342215 0.158385 0.030000
10.732486 -1.429018 0.158446 0.020000
10.423734 -2.540109 0.148510 0.020000
9.843979 -3.601382 0.138051 0.060000
53.217487 27.403463 11.631641 0.070000
6.396093 1.553730 1.448228 0.380000
11.154527 0.786830 2.247806 0.040000
41.524067 -1.736516 7.642755 0.120000
39.763599 -6.650146 7.359891 0.020000
29.326653 14.350547 2.810667 0.160000
6.497432 1.557578 0.928501 0.410000
6.474480 0.932120 0.901116 0.370000
31.181202 2.430058 2.471192 0.050000
12.585965 -0.442380 1.266963 0.130000
11.563461 -1.616932 1.194927 0.210000
13.495350 -3.540713 1.312820 0.010000
10.406652 4.350727 0.189081 0.120000
10.815845 3.093378 0.175475 0.040000
10.984113 1.881404 0.166409 0.070000
10.897358 -0.375638 0.152792 0.030000
10.502529 -1.433423 0.157829 0.020000
10.258586 -2.533252 0.143104 0.020000
9.658259 -3.564914 0.132702 0.060000
51.785381 26.257465 11.178638 0.020000
6.396599 1.528772 1.438136 0.450000
11.190409 0.742546 2.237735 1.000000
41.403049 -1.933557 7.556705 0.090000
29.365143 14.176455 2.755120 0.210000
6.488035 1.527430 0.918365 0.270000
6.464973 0.906952 0.895998 0.490000
31.213997 2.290827 2.425760 0.050000
12.576964 -0.492506 1.251753 0.130000
11.554365 -1.662059 1.179736 0.270000
13.496648 -3.605626 1.292582 0.010000
13.557849 -5.499935 1.325700 0.010000
10.229491 4.202344 0.178067 0.100000
10.603294 2.964302 0.169440 0.040000
10.750895 1.786940 0.160449 0.070000
10.916670 0.704942 0.151859 0.030000
10.677878 -0.404846 0.152111 0.030000
10.317659 -1.441965 0.157315 0.020000
10.068252 -2.516876 0.137668 0.030000
9.457339 -3.518753 0.132349 0.070000
51.974991 26.031387 11.088292 0.060000
6.397104 1.503814 1.428045 0.590000
11.191323 0.697629 2.217570 0.130000
39.761112 -7.024802 7.233490 0.000000
45.970322 -21.795242 9.034810 0.060000
29.398933 13.987288 2.694504 0.200000
6.473626 1.497167 0.913215 0.460000
6.490365 0.887453 0.890992 0.440000
31.236984 2.141405 2.380264 0.040000
12.593067 -0.547134 1.231592 0.130000
11.545268 -1.707186 1.164544 0.270000
13.412399 -3.642154 1.267226 0.030000
13.594797 -5.599190 1.310427 0.020000
10.022596 4.038352 0.176917 0.130000
10.375746 2.834940 0.163365 0.040000
10.532577 1.697761 0.154547 0.070000
10.682863 0.640452 0.151009 0.030000
10.458508 -0.439035 0.146411 0.030000
10.112724 -1.445854 0.146766 0.020000
9.857825 -2.495884 0.132197 0.030000
9.276427 -3.472191 0.127050 0.060000
52.338432 25.863539 11.028617 0.020000
6.417496 1.484219 1.423025 0.640000
11.217124 0.658171 2.202491 0.070000
42.135849 -2.329482 7.527146 0.110000
45.778831 -21.963499 8.913684 0.080000
29.407360 13.817658 2.628895 0.200000
6.494031 1.477591 0.903195 0.440000
6.470874 0.862112 0.880846 0.430000
13.262772 0.775834 1.263258 0.030000
12.594078 -0.597050 1.211409 0.110000
11.551277 -1.757006 1.144374 0.230000
13.433898 -3.716664 1.242005 0.030000
13.500577 -5.635873 1.275045 0.030000
9.805812 3.869189 0.170722 0.110000
10.128187 2.705176 0.162237 0.040000
10.284252 1.607989 0.153565 0.080000
10.428978 0.580598 0.145124 0.030000
10.203952 -0.463896 0.140654 0.030000
9.907775 -1.449761 0.141216 0.020000
9.596915 -2.450873 0.131683 0.030000
8.994659 -3.382572 0.126647 0.070000
52.014469 25.318117 10.785741 0.020000
6.393128 1.453821 1.402848 0.680000
42.340099 -2.540370 7.461895 0.170000
45.612881 -22.156179 8.767532 0.080000
29.440725 13.653562 2.548371 0.210000
6.489550 1.452556 0.888090 0.460000
6.501195 0.847745 0.865872 0.420000
31.252426 1.877168 2.239321 0.030000
12.649995 -0.640895 1.186392 0.100000
11.577200 -1.801426 1.119277 0.250000
13.542290 -5.719961 1.239841 0.040000
9.549130 3.694261 0.164402 0.120000
9.860646 2.575047 0.156055 0.040000
10.040857 1.523350 0.142615 0.070000
10.150002 0.525264 0.139190 0.030000
9.999304 -0.482782 0.130049 0.030000
9.652452 -1.434630 0.135606 0.020000
9.351016 -2.405556 0.126210 0.030000
8.763279 -3.311972 0.121306 0.070000
52.264156 25.093317 10.660556 0.050000
6.428422 1.439512 1.397887 0.480000
41.062695 -2.643697 7.143173 0.090000
44.104012 -21.653576 8.380459 0.080000
13.073974 5.397760 1.354948 0.030000
6.494959 1.432692 0.878030 0.440000
6.476705 0.822308 0.855713 0.430000
31.310089 1.748506 2.168992 0.060000
12.656114 -0.695696 1.161204 0.050000
11.623394 -1.860479 1.099177 0.240000
13.451447 -3.841130 1.181587 0.020000
9.297353 3.524427 0.158113 0.120000
9.578094 2.444613 0.154832 0.050000
9.762538 1.433003 0.141553 0.070000
9.900924 0.475503 0.133355 0.030000
9.729641 -0.502950 0.129271 0.030000
9.412210 -1.424229 0.135017 0.020000
9.004439 -2.327198 0.130596 0.020000
8.466117 -3.202662 0.125937 0.070000
50.844639 24.072565 10.213052 0.030000
6.418942 1.414382 1.382769 0.220000
41.401806 7.288691 7.415983 0.050000
42.768337 -2.946727 7.321501 0.050000
44.048618 -21.874146 8.234492 0.080000
13.070420 5.327826 1.314678 0.040000
6.490478 1.407657 0.862925 0.450000
6.502014 0.807827 0.845725 0.220000
13.230900 0.625545 1.167615 0.010000
12.001118 -0.693002 1.094503 0.070000
11.669518 -1.914495 1.069097 0.210000
13.525064 -5.855058 1.169293 0.030000
8.985957 3.333430 0.156591 0.110000
9.305554 2.314389 0.148637 0.040000
9.459224 1.342178 0.140424 0.080000
9.626755 0.430262 0.127471 0.030000
9.504888 -0.517239 0.123631 0.030000
9.116608 -1.394867 0.129355 0.030000
8.738352 -2.272266 0.125106 0.030000
8.189074 -3.097932 0.120603 0.070000
41.739033 19.329380 8.251631 0.060000
6.424364 1.394537 1.367709 0.440000
41.445614 7.110012 7.275432 0.060000
42.731873 -3.111941 7.180790 0.030000
45.296288 -22.795706 8.314324 0.040000
29.540623 13.176398 2.271855 0.160000
6.500898 1.387908 0.847879 0.240000
31.325348 1.499414 1.988104 0.050000
11.936879 -0.729128 1.064201 0.080000
13.453737 -3.950849 1.111185 0.020000
13.546601 -5.929512 1.129072 0.020000
8.699268 3.157908 0.155190 0.120000
9.002911 2.188570 0.147379 0.040000
9.165730 1.261562 0.134358 0.080000
9.302582 0.384046 0.126453 0.030000
9.129766 -0.514423 0.122662 0.030000
8.835990 -1.365236 0.128732 0.030000
8.477073 -2.207240 0.119665 0.030000
7.972486 -3.017065 0.120338 0.070000
41.169346 18.824389 7.973264 0.090000
6.409884 1.369310 1.352577 0.650000
43.227661 7.258580 7.440637 0.020000
40.232460 1.852664 6.757716 0.020000
42.099411 -3.218229 6.948741 0.100000
11.357751 -3.279630 2.133219 0.000000
44.210079 -22.435217 7.977826 0.110000
13.087830 5.213433 1.234297 0.040000
31.317871 1.379561 1.902638 0.040000
11.922631 -0.764297 1.034033 0.070000
15.539329 -4.751213 1.158654 0.010000
13.527763 -5.984735 1.088817 0.010000
8.452203 3.003167 0.148970 0.110000
8.700280 2.062771 0.141121 0.040000
8.842323 1.175353 0.133193 0.070000
8.983313 0.342924 0.125467 0.030000
8.854914 -0.524688 0.121906 0.030000
8.525281 -1.331180 0.128048 0.030000
8.230968 -2.151944 0.119229 0.030000
7.776111 -2.945777 0.110090 0.070000
40.961147 18.496096 7.766498 0.050000
6.415306 1.349465 1.337518 0.820000
11.155035 1.567619 2.075708 0.010000
43.134151 -3.458528 6.970549 0.060000
11.403970 -3.338645 2.103120 0.000000
44.093624 -22.596834 7.801919 0.080000
6.481843 1.342645 0.817661 0.130000
31.355137 1.275623 1.802348 0.020000
11.893398 -0.799735 0.998824 0.090000
13.476146 -4.065146 1.030817 0.020000
13.559407 -6.063979 1.043604 0.030000
8.219847 2.863711 0.142845 0.100000
6.856031 1.466887 0.259093 0.010000
8.583617 1.105386 0.132258 0.080000
8.699037 0.302473 0.124574 0.030000
8.524784 -0.521010 0.121058 0.030000
8.284668 -1.300765 0.122533 0.030000
7.929300 -2.067706 0.118754 0.030000
7.569630 -2.869699 0.104834 0.070000
40.970531 18.291880 7.590761 0.070000
6.410742 1.329448 1.317431 0.920000
11.265450 1.549804 2.055930 0.080000
43.265640 1.690065 6.945031 0.010000
44.194088 -3.708327 6.987388 0.160000
44.694183 -9.470318 7.117275 0.000000
11.389639 -3.368797 2.067970 0.010000
43.930984 -22.694250 7.606131 0.020000
13.080270 5.098598 1.143850 0.020000
6.492167 1.327895 0.802633 0.140000
31.362230 1.181128 1.697014 0.040000
11.894065 -0.829599 0.963715 0.110000
15.571979 -4.875243 1.058277 0.030000
15.819108 -7.336036 1.074775 0.020000
7.957592 2.718681 0.136621 0.100000
6.871367 1.452251 0.239079 0.050000
8.284932 1.034671 0.126215 0.080000
8.414678 0.267039 0.118700 0.040000
8.249643 -0.516279 0.120358 0.030000
7.983862 -1.261519 0.121894 0.030000
7.753592 -2.031028 0.108432 0.030000
7.357957 -2.783720 0.099601 0.070000
41.108620 18.155106 7.425611 0.060000
11.236326 1.509386 2.015703 0.120000
40.211624 1.433749 6.331100 0.000000
43.996727 -3.821430 6.796450 0.060000
44.546814 -9.582463 6.926472 0.010000
11.395496 -3.408563 2.032837 0.020000
45.102306 -23.537022 7.621055 0.080000
14.959892 5.914629 1.181790 0.100000
6.487508 1.312877 0.782564 0.140000
11.129837 1.476300 0.935291 0.080000
13.250213 0.426558 0.981924 0.000000
11.889841 -0.864540 0.923573 0.090000
13.478106 -4.154795 0.940488 0.010000
11.186806 -4.883604 0.876797 0.010000
7.720223 2.579111 0.135482 0.100000
6.826990 1.421451 0.223848 0.020000
8.051029 0.975181 0.125384 0.080000
8.130101 0.241566 0.122863 0.030000
8.009593 -0.515876 0.119733 0.030000
7.793336 -1.235145 0.116494 0.030000
7.537387 -1.970158 0.108094 0.040000
7.171459 -2.707278 0.099398 0.070000
6.443035 1.990110 1.339972 0.000000
6.411504 1.294585 1.282303 0.150000
11.152239 1.467951 1.965329 0.280000
40.478935 -3.616346 6.128023 0.170000
44.534740 -9.712112 6.760956 0.010000
11.350909 -3.424255 1.987662 0.060000
44.974987 -23.648710 7.410306 0.060000
14.871885 5.818147 1.121201 0.050000
6.492834 1.298031 0.767523 0.310000
11.070705 1.435289 0.899984 0.110000
11.910503 -0.894021 0.888517 0.100000
13.381771 -2.516240 0.916328 0.020000
11.408983 -3.423944 0.842803 0.050000
7.442958 2.433775 0.134218 0.110000
6.827330 1.406528 0.203794 0.010000
7.822031 0.920786 0.124584 0.090000
7.900636 0.212184 0.117155 0.030000
7.799549 -0.514880 0.114188 0.030000
7.602906 -1.213770 0.111077 0.030000
7.336384 -1.918980 0.102759 0.030000
6.949392 -2.601512 0.099212 0.080000
6.463262 1.980550 1.324989 0.000000
6.431731 1.285025 1.267320 0.160000
11.108036 1.432263 1.920081 0.330000
44.083626 1.332006 6.580832 0.020000
40.606647 -3.738445 5.997901 0.280000
44.517677 -9.841839 6.590428 0.020000
11.331496 -3.449485 1.947517 0.040000
6.483175 1.282917 0.747441 0.390000
11.046376 1.404946 0.864807 0.120000
30.863579 0.892773 1.354637 0.000000
11.906170 -0.923981 0.853394 0.080000
13.392558 -2.550875 0.871227 0.050000
11.329103 -3.425328 0.802589 0.100000
13.604220 -6.287445 0.847889 0.030000
7.269824 2.335460 0.128401 0.110000
6.802757 1.386109 0.188653 0.010000
7.617848 0.876886 0.118887 0.090000
7.690976 0.193184 0.111537 0.030000
7.574317 -0.504174 0.108640 0.040000
7.392274 -1.182798 0.110642 0.030000
7.109989 -1.848304 0.102431 0.040000
6.767906 -2.524956 0.094023 0.080000
6.527989 1.996830 1.315218 0.020000
6.422086 1.269930 1.242239 0.140000
11.078625 1.406842 1.879909 0.270000
44.106091 1.228060 6.405502 0.020000
40.633976 -3.837352 5.837603 0.210000
44.530254 -9.950957 6.410053 0.020000
11.276720 -3.455370 1.902352 0.020000
13.069231 4.919069 0.948152 0.020000
6.493404 1.273166 0.732432 0.310000
11.061849 1.385367 0.829775 0.140000
13.247360 0.331945 0.856564 0.000000
11.365063 -3.469500 0.762518 0.280000
13.584943 -6.317617 0.792726 0.020000
7.061875 2.226458 0.127453 0.110000
6.857716 1.392254 0.163819 0.020000
7.403751 0.827777 0.118146 0.100000
7.476303 0.174069 0.110905 0.030000
7.354167 -0.498389 0.108087 0.040000
7.156360 -1.137308 0.110195 0.030000
6.959167 -1.806166 0.097194 0.040000
6.571122 -2.433709 0.093848 0.080000
6.488745 1.961182 1.284983 1.000000
6.437218 1.265273 1.227261 0.190000
40.715809 1.035333 5.785930 0.050000
40.606014 -3.922334 5.682213 0.190000
39.887257 -8.946859 5.626658 0.030000
11.307489 -3.489640 1.862305 0.030000
43.393387 -23.205952 6.597815 0.040000
13.094918 4.889721 0.903109 0.050000
6.488744 1.258147 0.712363 0.280000
11.087222 1.370979 0.794787 0.150000
13.262966 0.307423 0.806513 0.010000
13.104757 -1.090817 0.790902 0.100000
11.285087 -3.465885 0.722323 0.280000
13.606136 -6.372020 0.737578 0.030000
6.898548 2.138333 0.121699 0.130000
7.027214 1.425653 0.124386 0.030000
7.204568 0.783973 0.112463 0.090000
7.276628 0.155242 0.110314 0.040000
7.143919 -0.487413 0.107579 0.040000
6.965725 -1.105954 0.109814 0.040000
6.757959 -1.745009 0.096896 0.040000
6.409619 -2.356788 0.093713 0.090000
6.454296 1.935609 1.259798 0.230000
6.477345 1.261096 1.212350 0.520000
11.194335 1.379273 1.820108 0.060000
40.652882 0.949718 5.620445 0.070000
40.928555 -4.035755 5.567632 0.180000
39.698444 -8.984803 5.441022 0.040000
11.333151 -3.519025 1.827262 0.040000
43.406086 -23.320032 6.407422 0.020000
14.677231 5.570237 0.884769 0.070000
6.503890 1.253510 0.692386 0.260000
11.057812 1.345558 0.754615 0.130000
31.467911 0.720582 1.010571 0.020000
13.130336 -1.115185 0.750878 0.100000
13.379446 -2.630645 0.735894 0.020000
11.280479 -3.480829 0.682255 0.320000
6.700406 2.039521 0.120814 0.120000
6.838399 1.362025 0.123656 0.040000
7.025176 0.750531 0.111871 0.100000
7.081856 0.141509 0.109755 0.040000
6.968760 -0.480767 0.107146 0.040000
