# This PCD file was generated using the MATLAB® pcwrite function
# from Computer Vision Toolbox®.
# .PCD v.7 - Point Cloud Data file format
VERSION .7
FIELDS x y z intensity
SIZE 4 4 4 4
TYPE F F F F
COUNT 1 1 1 1
WIDTH 1290
HEIGHT 1
VIEWPOINT 0 0 0 1 0 0 0
POINTS 1290
DATA ascii
6.649323 1.313432 0.112982 0.040000
6.755898 0.710367 0.111018 0.100000
6.821918 0.136548 0.104057 0.040000
6.723148 -0.450447 0.101618 0.040000
6.533889 -1.014208 0.109028 0.030000
6.334972 -1.593083 0.096357 0.040000
6.040868 -2.163798 0.088467 0.080000
44.172062 18.662439 6.460484 0.060000
6.815666 1.352610 1.208573 0.140000
11.155083 1.353884 1.719910 0.380000
36.052742 0.785053 4.662816 0.050000
13.222960 -1.152671 1.910992 0.130000
39.836136 -9.070788 5.061059 0.020000
11.328700 -3.533746 1.727195 0.040000
14.663379 5.530496 0.739583 0.100000
7.011504 1.388402 0.654212 0.490000
11.008439 1.324939 0.664409 0.090000
19.187634 0.401457 0.672326 0.000000
13.120925 -1.129946 0.635797 0.100000
13.455429 -2.663737 0.610968 0.040000
11.225655 -3.476511 0.582126 0.230000
13.587594 -6.421687 0.547343 0.010000
6.308846 1.857008 0.114114 0.110000
6.485407 1.255283 0.112338 0.040000
6.586504 0.677117 0.110453 0.080000
6.677136 0.123773 0.103632 0.040000
6.552975 -0.443723 0.106198 0.040000
6.398448 -0.991779 0.103758 0.030000
6.168840 -1.536273 0.101134 0.040000
5.884352 -2.086800 0.093345 0.090000
6.911075 2.109424 1.251636 0.000000
6.791106 1.332209 1.188433 0.200000
11.160473 1.339131 1.679869 0.510000
36.084225 0.726123 4.532678 0.070000
13.138216 -1.159093 1.855747 0.090000
39.626862 -9.084102 4.870461 0.020000
11.324010 -3.543673 1.682145 0.040000
6.952059 1.362351 0.628959 0.540000
11.103526 1.326907 0.624664 0.080000
18.958338 0.372317 0.601619 0.000000
13.390655 -2.669814 0.565776 0.030000
11.135393 -3.458090 0.541959 0.240000
13.643781 -6.475419 0.492290 0.030000
6.170117 1.789339 0.113500 0.100000
6.326382 1.202210 0.116726 0.040000
6.432012 0.649153 0.109945 0.080000
6.487255 0.115117 0.108104 0.030000
6.402716 -0.431599 0.105851 0.040000
6.252805 -0.959563 0.103497 0.020000
6.022814 -1.484060 0.100947 0.050000
5.758142 -2.024188 0.088248 0.080000
6.916234 2.104614 1.226631 0.000000
6.850943 1.343413 1.173631 0.380000
11.041105 1.312024 1.629456 0.470000
36.150238 0.692876 4.397725 0.060000
13.168615 -1.173349 1.810772 0.250000
39.597847 -9.114095 4.715272 0.010000
11.334496 -3.563329 1.642099 0.050000
6.962205 1.357617 0.608968 0.520000
11.073910 1.311465 0.589529 0.200000
13.254950 0.238156 0.561232 0.000000
13.091632 -1.155200 0.550626 0.040000
11.115692 -3.468323 0.501869 0.250000
13.619134 -6.485672 0.432187 0.020000
5.991671 1.705888 0.117724 0.100000
6.182176 1.159440 0.116190 0.030000
6.262510 0.620884 0.114398 0.080000
6.322381 0.106958 0.107644 0.030000
6.237459 -0.419762 0.105464 0.040000
6.132349 -0.936866 0.103267 0.030000
5.907069 -1.446270 0.100786 0.050000
5.626812 -1.956710 0.093157 0.080000
7.000683 2.136292 1.211969 0.030000
6.821301 1.327934 1.148495 0.420000
11.026486 1.296869 1.594361 0.810000
36.131454 0.648003 4.262508 0.040000
11.324698 -3.568371 1.602054 0.070000
14.684886 5.476540 0.564437 0.040000
6.967352 1.352789 0.588963 0.590000
11.064291 1.296407 0.554447 0.310000
13.310344 0.224379 0.516325 0.010000
13.132125 -1.174263 0.505660 0.050000
26.535320 -5.882632 0.313142 0.020000
11.115989 -3.478172 0.461833 0.170000
13.624647 -6.505387 0.382127 0.020000
5.862845 1.643410 0.117156 0.100000
6.028067 1.111480 0.115610 0.040000
6.127918 0.598302 0.113963 0.090000
6.172493 0.099068 0.112223 0.030000
6.102293 -0.412349 0.105139 0.040000
6.021999 -0.918958 0.098046 0.030000
5.791337 -1.408462 0.095624 0.050000
5.535980 -1.913423 0.088080 0.090000
6.916639 2.089784 1.181577 1.000000
6.811547 1.317818 1.128432 0.160000
11.041780 1.287307 1.554365 0.860000
35.092987 0.594041 4.004594 0.040000
11.309915 -3.573490 1.556996 0.070000
14.700135 5.472052 0.504460 0.100000
6.972404 1.352959 0.568977 0.550000
11.064491 1.291556 0.514430 0.440000
13.177522 -1.188231 0.460726 0.050000
25.033705 -5.541055 0.235491 0.030000
11.121367 -3.492943 0.426792 0.120000
11.324287 -5.204231 0.385959 0.050000
5.714105 1.575531 0.121515 0.100000
5.913759 1.074285 0.115173 0.030000
6.003325 0.575912 0.113554 0.090000
6.052624 0.091789 0.106883 0.040000
5.997120 -0.404362 0.104894 0.050000
5.881341 -0.886664 0.102799 0.030000
5.700683 -1.375192 0.095511 0.050000
5.434849 -1.855350 0.088032 0.060000
6.872192 2.064020 1.156365 0.080000
6.836498 1.323371 1.108518 0.110000
11.011972 1.281864 1.519267 0.900000
35.068687 0.574012 3.884455 0.060000
13.204715 -1.212188 1.680721 0.090000
40.274445 -9.394683 4.305991 0.010000
11.335288 -3.587878 1.522008 0.070000
6.982454 1.353225 0.549004 0.450000
11.014879 1.275732 0.479241 0.700000
18.505360 0.299601 0.335163 0.000000
13.197840 -1.197660 0.410744 0.020000
13.442277 -2.728157 0.380692 0.030000
11.091285 -3.483371 0.386748 0.300000
11.329704 -5.218946 0.335918 0.130000
5.639707 1.544119 0.116204 0.090000
5.789454 1.036897 0.114709 0.030000
5.883730 0.553618 0.113159 0.080000
5.952642 0.089874 0.106615 0.040000
5.871857 -0.391759 0.104614 0.050000
5.790988 -0.868373 0.097631 0.020000
5.584842 -1.332403 0.095368 0.050000
5.343908 -1.807083 0.087974 0.090000
6.887146 2.069381 1.136423 0.080000
6.831647 1.318350 1.088486 0.120000
11.027157 1.277282 1.484289 0.950000
34.979465 0.552831 3.739141 0.060000
13.124764 -1.208535 1.630525 0.250000
40.325592 -9.433160 4.155980 0.020000
11.315396 -3.588112 1.481955 0.080000
13.078940 4.746131 0.427529 0.050000
6.972604 1.348108 0.528959 0.630000
11.010067 1.270767 0.444210 0.690000
13.326077 0.205172 0.381293 0.010000
13.223131 -1.207031 0.370775 0.030000
11.066394 -3.483701 0.346682 0.300000
11.309717 -5.214182 0.295883 0.160000
5.535589 1.497117 0.115758 0.110000
5.680048 1.004797 0.114305 0.030000
5.798951 0.542010 0.107895 0.080000
5.857660 0.088054 0.106360 0.040000
5.781682 -0.383484 0.104409 0.050000
5.720714 -0.854717 0.097498 0.030000
5.479095 -1.294422 0.095233 0.060000
5.268168 -1.768508 0.082920 0.090000
6.941900 2.085505 1.116626 0.210000
6.841698 1.318616 1.068513 0.120000
11.032356 1.272527 1.444285 0.990000
36.249607 0.562286 3.707492 0.020000
13.094900 -1.208923 1.580445 1.000000
11.320596 -3.592867 1.441951 0.080000
6.997664 1.348680 0.504026 0.510000
11.010159 1.270897 0.409210 0.720000
13.148167 -1.203301 0.325592 0.030000
15.638592 -3.275604 0.224389 0.030000
11.081578 -3.488283 0.311704 0.280000
11.304918 -5.219128 0.255852 0.230000
5.441386 1.455324 0.110356 0.100000
5.615361 0.988573 0.109075 0.030000
5.689259 0.524906 0.107545 0.080000
5.772689 0.086445 0.101132 0.030000
5.691520 -0.375191 0.099204 0.050000
5.630264 -0.831426 0.092349 0.030000
5.433830 -1.280268 0.090167 0.050000
5.182226 -1.720146 0.082875 0.090000
6.912259 2.070027 1.091491 0.230000
6.836846 1.313596 1.048482 0.110000
11.022558 1.267485 1.404240 1.020000
35.875202 0.550719 3.541470 0.050000
13.044931 -1.204715 1.535330 0.560000
17.604544 -3.804243 1.917573 0.000000
11.320701 -3.592718 1.401951 0.100000
55.476753 -30.671566 5.431592 0.030000
6.987705 1.348544 0.489000 0.410000
11.010345 1.266028 0.374192 0.760000
16.136295 0.244641 0.213774 0.010000
13.123180 -1.198632 0.285544 0.020000
14.397635 -2.974262 0.207269 0.030000
11.091886 -3.497922 0.266694 0.260000
5.371974 1.423989 0.110059 0.090000
5.500945 0.956358 0.113657 0.030000
5.604466 0.513280 0.107280 0.080000
5.677803 0.079627 0.100859 0.040000
5.586239 -0.362223 0.103978 0.060000
5.565002 -0.817656 0.087229 0.030000
5.332986 -1.237191 0.090064 0.050000
5.096284 -1.671783 0.082831 0.100000
6.932116 2.080482 1.071581 0.150000
6.841898 1.313766 1.028495 0.150000
11.017651 1.267520 1.369227 1.050000
31.477005 0.483252 3.044733 0.010000
13.035050 -1.204739 1.490304 0.670000
17.428923 -3.762306 1.837269 0.000000
11.300616 -3.582955 1.361935 0.090000
55.451931 -30.646120 5.181619 0.100000
13.987054 5.139253 0.251359 0.030000
11.035350 1.271655 0.334278 0.630000
14.851479 0.225086 0.195347 0.010000
13.103301 -1.198847 0.240491 0.020000
13.141544 -2.668265 0.205128 0.050000
11.081883 -3.492985 0.231686 0.230000
5.267760 1.381985 0.109630 0.100000
5.436257 0.940134 0.108428 0.030000
5.534684 0.501960 0.102056 0.080000
5.587724 0.082902 0.100636 0.030000
5.526168 -0.358355 0.098835 0.060000
5.459434 -0.789691 0.092058 0.030000
5.257425 -1.208634 0.089973 0.060000
5.045719 -1.642746 0.082807 0.100000
6.866741 1.324298 1.013599 0.340000
11.017729 1.267631 1.339227 0.990000
31.507273 0.484217 2.939815 0.010000
13.065149 -1.204016 1.450385 0.750000
17.308458 -3.729351 1.767077 0.000000
11.300721 -3.582806 1.321935 0.110000
55.427135 -30.620636 4.921646 0.140000
12.955527 4.689473 0.231994 0.040000
11.020431 1.271479 0.304238 0.450000
13.791595 0.209803 0.187523 0.010000
12.518538 -2.515114 0.189071 0.040000
11.228123 -3.550029 0.186856 0.230000
10.617533 -4.826875 0.160515 0.050000
5.223165 1.361146 0.104437 0.100000
5.351656 0.918510 0.108127 0.030000
5.449796 0.495333 0.101810 0.080000
5.517750 0.081580 0.095449 0.030000
5.430898 -0.345177 0.098636 0.060000
5.379066 -0.771227 0.091917 0.030000
5.191958 -1.184883 0.089891 0.070000
4.990071 -1.608788 0.077788 0.100000
6.861794 1.324277 0.993586 0.350000
11.027627 1.277951 1.304291 1.060000
31.542158 0.505274 2.834983 0.010000
13.065158 -1.198868 1.410403 0.730000
17.212879 -3.690936 1.701969 0.000000
11.320808 -3.582293 1.286989 0.100000
55.456799 -30.569180 4.681912 0.090000
12.226165 4.390507 0.213979 0.050000
12.896584 0.202680 0.180161 0.010000
12.607114 -1.133119 0.179439 0.020000
11.845145 -2.342943 0.177953 0.040000
10.217938 -4.589449 0.150354 0.050000
5.138756 1.329524 0.104099 0.100000
5.291968 0.902383 0.102911 0.030000
5.365004 0.483707 0.101545 0.060000
5.447763 0.080239 0.095261 0.030000
5.350626 -0.331712 0.098476 0.140000
5.293602 -0.747859 0.091780 0.040000
5.126396 -1.156134 0.089826 0.080000
4.914223 -1.565233 0.077752 0.110000
29.766445 11.998058 2.938071 0.220000
6.856834 1.324237 0.978573 0.170000
11.032609 1.283157 1.274323 1.060000
31.532049 0.525469 2.730031 0.010000
13.050074 -1.189008 1.370400 0.450000
17.177549 -3.666407 1.646968 0.000000
11.295439 -3.557628 1.247014 0.110000
55.475945 -30.492973 4.457243 0.040000
11.635805 4.144194 0.201522 0.060000
7.211557 1.423175 0.399860 0.030000
10.970418 1.280761 0.239141 0.120000
12.236445 0.205074 0.168446 0.010000
11.940348 -1.045836 0.168023 0.020000
11.277211 -2.193757 0.167025 0.050000
9.818152 -4.342025 0.140231 0.040000
5.074151 1.308283 0.103851 0.090000
5.232171 0.891236 0.102713 0.030000
5.285101 0.477158 0.106312 0.040000
5.387691 0.084108 0.090119 0.020000
5.300443 -0.322671 0.098379 0.320000
5.218138 -0.724300 0.091671 0.040000
5.075843 -1.127078 0.084802 0.070000
4.873656 -1.536005 0.077754 0.110000
29.661560 12.006454 2.827828 0.260000
6.866693 1.334501 0.958636 0.140000
11.032399 1.298266 1.244378 0.610000
31.516464 0.570564 2.625157 0.010000
12.974617 -1.160302 1.330310 0.490000
11.295230 -3.542519 1.217069 0.100000
34.510040 -18.411394 2.817410 0.000000
11.070057 3.918355 0.189205 0.060000
7.176603 1.422560 0.384767 0.080000
11.050015 1.307418 0.204448 0.140000
11.711269 0.210035 0.162094 0.010000
11.353733 -0.967057 0.166785 0.020000
10.829720 -2.067287 0.161327 0.050000
10.118948 -3.076041 0.145722 0.050000
9.463932 -4.123734 0.130117 0.050000
5.009547 1.287042 0.103603 0.080000
5.167387 0.880011 0.097502 0.020000
5.250134 0.476525 0.096218 0.040000
5.312596 0.087652 0.094936 0.020000
5.255273 -0.313517 0.093295 0.160000
5.157765 -0.705453 0.091583 0.040000
5.015280 -1.098233 0.084751 0.070000
4.828007 -1.501854 0.072762 0.100000
29.645689 12.066546 2.723009 0.230000
6.876442 1.349745 0.943718 0.120000
11.131871 1.330269 1.219757 0.530000
31.515646 0.625888 2.535359 0.010000
13.014414 -1.144408 1.295472 0.640000
13.429276 -2.701812 1.310766 0.000000
11.289843 -3.517489 1.182148 0.070000
13.631551 -6.478788 1.347254 0.010000
10.633231 3.749996 0.177439 0.060000
7.206266 1.443205 0.364921 0.180000
11.129518 1.339075 0.169772 0.110000
11.300989 0.222217 0.151068 0.010000
10.977584 -0.909214 0.156018 0.020000
10.447505 -1.954569 0.155748 0.050000
9.816348 -2.941776 0.135431 0.050000
9.129779 -3.910096 0.130039 0.050000
4.969759 1.276296 0.098460 0.080000
5.112494 0.873959 0.097337 0.020000
5.190145 0.475376 0.096058 0.040000
5.247417 0.096405 0.094798 0.020000
5.174892 -0.295071 0.098154 0.100000
5.112391 -0.686319 0.091536 0.040000
4.964810 -1.074196 0.084709 0.080000
4.787439 -1.472626 0.072765 0.110000
6.891191 1.365085 0.928814 0.130000
11.136565 1.350472 1.189844 0.440000
31.489475 0.700766 2.435568 0.010000
13.029023 -1.118996 1.260605 0.690000
13.388609 -2.662455 1.275806 0.000000
13.615592 -6.423956 1.312416 0.020000
10.231003 3.602285 0.170840 0.070000
7.181118 1.452780 0.349891 0.230000
10.905692 0.234667 0.145082 0.010000
10.626416 -0.850910 0.150318 0.020000
10.150753 -1.865218 0.150306 0.050000
9.548811 -2.811877 0.135216 0.050000
8.861392 -3.735187 0.124989 0.070000
4.924959 1.265436 0.098302 0.080000
5.057600 0.867906 0.097171 0.020000
5.120145 0.474016 0.100870 0.040000
5.192331 0.100351 0.094669 0.020000
5.134707 -0.285839 0.098083 0.070000
5.056922 -0.662377 0.091480 0.060000
4.939431 -1.054678 0.084715 0.110000
4.767060 -1.453013 0.072785 0.140000
6.875933 1.379833 0.918829 0.120000
11.111143 1.375063 1.169868 0.530000
31.438051 0.785071 2.360747 0.040000
13.023418 -1.084005 1.235720 0.670000
17.004463 -3.478955 1.447211 0.010000
13.579252 -6.349511 1.277597 0.030000
9.927880 3.501462 0.169674 0.070000
7.185856 1.467910 0.339959 0.150000
10.630265 0.254395 0.144437 0.010000
10.400417 -0.800211 0.144917 0.020000
9.954269 -1.788949 0.145077 0.050000
9.351849 -2.710613 0.130078 0.050000
8.704122 -3.618178 0.125013 0.060000
4.889966 1.264766 0.098208 0.080000
5.017607 0.867140 0.097064 0.010000
5.099957 0.483631 0.100853 0.040000
5.177156 0.110081 0.089666 0.010000
5.099427 -0.271512 0.098044 0.060000
5.036638 -0.647763 0.091482 0.060000
4.908958 -1.030257 0.084727 0.100000
4.731396 -1.418690 0.072819 0.130000
29.739441 12.424212 2.504581 0.020000
6.900476 1.405344 0.908987 0.140000
11.140506 1.410686 1.155077 0.350000
13.300922 0.351508 1.256781 0.020000
11.910578 -0.934998 1.153368 0.260000
17.013472 -3.423681 1.422439 0.000000
13.583262 -6.294333 1.252813 0.020000
9.689183 3.431897 0.163792 0.070000
10.384983 1.309866 0.152720 0.020000
10.444737 0.280865 0.139051 0.010000
10.219493 -0.753668 0.144617 0.020000
9.808064 -1.726720 0.139926 0.060000
9.220244 -2.628118 0.130041 0.050000
8.536566 -3.486363 0.125066 0.060000
4.850069 1.259001 0.098083 0.080000
4.987517 0.871565 0.097001 0.020000
5.059869 0.487864 0.100764 0.030000
5.131864 0.124197 0.094600 0.010000
5.074144 -0.256994 0.098032 0.050000
5.026462 -0.637938 0.086492 0.060000
4.908779 -1.020241 0.079763 0.090000
4.720919 -1.393886 0.072884 0.120000
13.091854 4.988067 1.343471 0.010000
6.939906 1.436123 0.904205 0.400000
11.174759 1.451386 1.145318 0.210000
11.869858 -0.895716 1.138407 0.690000
13.401381 -2.536950 1.211305 0.010000
13.551692 -6.209849 1.233044 0.020000
9.569493 3.414601 0.163416 0.080000
10.244735 1.322200 0.147400 0.020000
10.294190 0.307987 0.138759 0.010000
10.118663 -0.710573 0.139514 0.020000
9.732133 -1.678147 0.134908 0.040000
9.154119 -2.569356 0.125087 0.050000
8.455049 -3.407911 0.125145 0.060000
4.859696 1.279207 0.093183 0.070000
4.977423 0.876372 0.096993 0.020000
5.059690 0.497881 0.095801 0.030000
5.141683 0.134405 0.089663 0.010000
5.058859 -0.242284 0.098047 0.040000
5.011068 -0.618247 0.091525 0.070000
4.903493 -1.005339 0.079805 0.090000
4.730834 -1.388677 0.067929 0.090000
13.080828 5.042902 1.333646 0.010000
6.914636 1.450660 0.899193 0.420000
13.229372 0.435244 1.231905 0.020000
11.859106 -0.855897 1.133527 0.710000
13.555568 -6.149727 1.223278 0.020000
9.464608 3.407591 0.163116 0.080000
9.949558 2.371714 0.155531 0.060000
10.184267 1.346046 0.147331 0.020000
10.233627 0.336832 0.138708 0.010000
10.118101 -0.680560 0.134624 0.020000
9.706371 -1.638633 0.134988 0.050000
9.118264 -2.525035 0.125158 0.040000
8.424000 -3.353496 0.125266 0.060000
4.829702 1.278633 0.093103 0.070000
4.962234 0.886083 0.096989 0.020000
5.064402 0.512974 0.095869 0.040000
5.126494 0.144116 0.089660 0.010000
5.063680 -0.232172 0.093097 0.040000
5.030982 -0.612847 0.086597 0.070000
4.913300 -0.995150 0.079868 0.080000
4.735546 -1.373584 0.067997 0.140000
13.079679 5.102890 1.333866 0.010000
6.919252 1.470752 0.899279 0.470000
31.394844 1.229762 2.242285 0.070000
11.868351 -0.815694 1.128701 0.670000
13.354417 -2.432776 1.196569 0.010000
13.450706 -4.066257 1.200749 0.000000
13.569428 -6.089433 1.218538 0.010000
9.434135 3.432012 0.163127 0.080000
9.943889 2.406612 0.155646 0.060000
10.158697 1.375562 0.147374 0.020000
10.213057 0.366443 0.138764 0.010000
10.117431 -0.645567 0.134753 0.020000
9.705701 -1.603640 0.135116 0.050000
9.147779 -2.499465 0.125330 0.050000
8.458706 -3.337828 0.125415 0.070000
4.819417 1.293438 0.093131 0.070000
4.947032 0.895775 0.101986 0.020000
5.059211 0.522876 0.095892 0.030000
5.126207 0.159113 0.089715 0.010000
5.063488 -0.222173 0.093134 0.050000
5.025695 -0.597945 0.086638 0.080000
4.907917 -0.975249 0.079928 0.100000
4.735258 -1.358587 0.068052 0.120000
29.574715 12.941442 2.426073 0.130000
6.903872 1.490461 0.899313 0.540000
13.181074 1.909525 1.252259 0.040000
13.232646 0.525323 1.232248 0.010000
11.877583 -0.775510 1.128874 0.670000
13.353458 -2.382786 1.196753 0.000000
13.459651 -4.011076 1.200977 0.000000
13.542804 -6.004928 1.218783 0.010000
9.438285 3.477118 0.158305 0.080000
10.197923 1.416320 0.147628 0.020000
10.272388 0.402604 0.134054 0.010000
10.156848 -0.614807 0.134970 0.020000
9.740215 -1.577974 0.135302 0.050000
9.202495 -2.483396 0.120532 0.050000
8.548894 -3.346084 0.120619 0.070000
4.824128 1.308531 0.093199 0.070000
4.966659 0.916173 0.097113 0.020000
5.044023 0.532587 0.095889 0.030000
5.136014 0.169303 0.089778 0.010000
5.068200 -0.207081 0.093202 0.050000
5.025408 -0.582948 0.086693 0.080000
4.922832 -0.969944 0.074987 0.100000
4.760266 -1.358090 0.063120 0.120000
29.551832 13.091012 2.431569 0.130000
6.918294 1.520742 0.899463 0.570000
13.150217 1.953942 1.252344 0.100000
13.231784 0.570314 1.232413 0.020000
11.906894 -0.739961 1.134083 0.620000
13.377579 -2.337334 1.201985 0.000000
13.443396 -3.946394 1.206175 0.000000
13.531356 -5.930152 1.224031 0.020000
9.506930 3.548445 0.158750 0.090000
7.471595 1.698570 0.301562 0.060000
10.257063 1.462479 0.142954 0.020000
10.361604 0.444320 0.134441 0.010000
10.211359 -0.588758 0.135209 0.020000
9.825021 -1.566330 0.130567 0.060000
9.302476 -2.481481 0.120801 0.050000
8.649176 -3.359148 0.115833 0.060000
4.843658 1.333928 0.088345 0.070000
4.976369 0.931362 0.097195 0.020000
5.053733 0.547776 0.095971 0.030000
5.135726 0.184300 0.089833 0.010000
5.098003 -0.196508 0.093319 0.040000
5.045308 -0.577566 0.086765 0.070000
4.947731 -0.964467 0.075072 0.090000
4.770060 -1.347919 0.068183 0.130000
29.528896 13.240507 2.457065 0.130000
13.159231 2.004086 1.262554 0.140000
13.245893 0.615556 1.242618 0.060000
11.936095 -0.699431 1.144310 0.580000
11.714953 -1.943813 1.119107 0.010000
13.467515 -3.900943 1.211407 0.000000
13.525002 -5.860280 1.229274 0.020000
9.570481 3.624676 0.159199 0.090000
7.376586 1.696713 0.311307 0.100000
10.356072 1.514367 0.148405 0.020000
10.470913 0.481420 0.134865 0.010000
10.305862 -0.561944 0.135555 0.020000
9.939808 -1.554129 0.130912 0.060000
9.392459 -2.479757 0.121042 0.050000
8.774727 -3.386748 0.116058 0.070000
4.848357 1.349002 0.093413 0.060000
4.966166 0.941150 0.102204 0.020000
5.078441 0.563252 0.096093 0.030000
5.155531 0.194681 0.089924 0.010000
5.117807 -0.186127 0.093410 0.030000
5.065113 -0.567185 0.086856 0.080000
4.962537 -0.954181 0.075149 0.100000
4.805067 -1.347230 0.063277 0.140000
29.510838 13.395061 2.492593 0.120000
6.937293 1.571060 0.914700 0.090000
13.163233 2.054117 1.277750 0.060000
13.204916 0.664743 1.252694 0.060000
12.000386 -0.663230 1.154613 0.440000
11.643887 -1.890201 1.129121 0.040000
13.436141 -3.831586 1.226583 0.000000
13.523622 -5.790349 1.244530 0.020000
9.683544 3.726859 0.159874 0.080000
7.351291 1.711213 0.316295 0.050000
10.489898 1.576941 0.148987 0.020000
10.590124 0.523711 0.135333 0.010000
10.435359 -0.534459 0.135996 0.020000
10.064580 -1.541756 0.136283 0.060000
9.537720 -2.491977 0.121376 0.050000
8.910276 -3.414157 0.116310 0.080000
4.852973 1.369094 0.093500 0.070000
4.990696 0.966642 0.097363 0.020000
5.093055 0.583535 0.096206 0.030000
5.175240 0.210061 0.090032 0.010000
5.152622 -0.175440 0.088540 0.030000
5.084918 -0.556804 0.086946 0.070000
4.982328 -0.943819 0.080239 0.090000
4.835061 -1.346655 0.063357 0.130000
29.457951 13.538908 2.537990 0.140000
6.956606 1.606418 0.919881 0.080000
31.277819 1.842263 2.344258 0.060000
12.690401 -0.665217 1.211407 0.430000
11.567725 -1.831686 1.139140 1.000000
13.455030 -3.776288 1.246838 0.010000
13.517037 -5.710534 1.264810 0.050000
9.826300 3.844596 0.165684 0.080000
10.407286 2.755548 0.158153 0.070000
10.658525 1.650183 0.149699 0.020000
10.774118 0.577226 0.141012 0.010000
10.599835 -0.506322 0.141530 0.020000
10.189256 -1.524384 0.141673 0.060000
9.718056 -2.508545 0.126785 0.050000
9.055811 -3.441393 0.121588 0.060000
4.852577 1.389072 0.098573 0.070000
4.995395 0.981717 0.102432 0.020000
5.122666 0.604106 0.096360 0.030000
5.214945 0.225825 0.090195 0.010000
5.152322 -0.160461 0.093595 0.030000
5.124815 -0.551039 0.087071 0.060000
5.017322 -0.943148 0.080333 0.110000
4.849854 -1.336388 0.068434 0.130000
29.474138 13.729012 2.603740 0.130000
6.921299 1.620707 0.929843 0.110000
31.280293 1.967149 2.394729 0.140000
12.629416 -0.616432 1.226429 0.630000
11.541650 -1.777213 1.149274 0.110000
13.428655 -3.706836 1.262028 0.020000
13.505550 -5.635814 1.285058 0.050000
9.983862 3.972617 0.171572 0.100000
10.595225 2.864149 0.164047 0.070000
10.876938 1.734362 0.155582 0.020000
10.958113 0.630740 0.146692 0.010000
10.819398 -0.482131 0.147193 0.020000
10.389301 -1.525571 0.147191 0.060000
9.898488 -2.530112 0.132176 0.050000
9.282207 -3.512069 0.121917 0.070000
4.877093 1.414546 0.098732 0.070000
5.024910 1.007287 0.102604 0.020000
5.157277 0.624772 0.096527 0.040000
5.224642 0.240995 0.095276 0.010000
5.197122 -0.149601 0.093753 0.030000
5.134512 -0.535869 0.092153 0.060000
5.047124 -0.932576 0.080450 0.110000
4.899940 -1.340430 0.068550 0.140000
29.400763 13.897454 2.654175 0.140000
6.925697 1.650760 0.939966 0.140000
30.668139 5.715794 2.487067 0.140000
31.227474 2.105960 2.450108 0.140000
12.623310 -0.561612 1.246617 0.720000
11.500551 -1.723064 1.169368 0.140000
10.180938 4.126400 0.177658 0.090000
10.847673 2.998989 0.170207 0.070000
11.110156 1.828827 0.161542 0.020000
11.222009 0.690805 0.147604 0.010000
11.083857 -0.452079 0.152995 0.020000
10.644349 -1.525686 0.147857 0.050000
10.118926 -2.550894 0.132674 0.050000
9.518408 -3.572556 0.122308 0.070000
4.906334 1.455132 0.093959 0.060000
5.074243 1.043256 0.097866 0.020000
5.171891 0.645056 0.096641 0.040000
5.274263 0.261967 0.090484 0.010000
5.221926 -0.139124 0.093856 0.030000
5.194418 -0.529702 0.087332 0.060000
5.092116 -0.931714 0.080571 0.090000
4.914732 -1.330163 0.073627 0.150000
29.382421 14.061875 2.724739 0.140000
6.959980 1.686368 0.955188 0.420000
30.640387 5.850048 2.552495 0.220000
31.214624 2.245501 2.515594 0.130000
12.587307 -0.512367 1.266707 0.760000
11.514633 -1.677859 1.189573 0.130000
10.452149 4.326630 0.179110 0.100000
11.124939 3.144325 0.171471 0.070000
11.433084 1.940032 0.162799 0.020000
11.445791 0.755066 0.158427 0.010000
11.398306 -0.421070 0.158931 0.020000
10.989751 -1.544093 0.153690 0.050000
10.384726 -2.590828 0.138219 0.050000
9.790069 -3.657387 0.127702 0.070000
4.945656 1.490891 0.094194 0.050000
5.078846 1.063329 0.102953 0.020000
5.216403 0.670913 0.096853 0.040000
5.298862 0.282423 0.095624 0.010000
5.276628 -0.123074 0.094059 0.040000
5.214210 -0.519339 0.092423 0.070000
5.127014 -0.926045 0.080683 0.100000
4.959820 -1.334300 0.073729 0.140000
29.363670 14.246255 2.805376 0.130000
6.919674 1.700562 0.965136 0.450000
30.627331 5.999568 2.623017 0.200000
31.181574 2.394637 2.586063 0.130000
12.586187 -0.457470 1.291908 0.850000
11.513706 -1.632961 1.214738 0.130000
10.762945 4.547585 0.190743 0.100000
11.461687 3.315768 0.182988 0.060000
11.770886 2.056485 0.174113 0.020000
11.355060 0.788224 0.188314 0.060000
11.817940 -0.398029 0.160112 0.020000
11.345150 -1.562308 0.159550 0.050000
10.695805 -2.644899 0.143830 0.040000
10.142399 -3.775660 0.128182 0.070000
4.969967 1.526344 0.099390 0.050000
5.133165 1.099376 0.103229 0.020000
5.261012 0.691771 0.097047 0.050000
5.348565 0.298378 0.095813 0.020000
5.326427 -0.112118 0.094229 0.030000
5.284101 -0.513000 0.092629 0.070000
5.187003 -0.924895 0.080844 0.100000
5.015001 -1.343245 0.073840 0.150000
29.310366 14.404914 2.900828 0.130000
6.924059 1.730596 0.980259 0.470000
30.589434 6.138555 2.708436 0.190000
31.148783 2.528739 2.666476 0.120000
12.580152 -0.407687 1.322078 0.840000
11.527776 -1.587775 1.239943 0.150000
11.892748 3.524023 0.194887 0.070000
12.228105 2.205249 0.180860 0.010000
11.244330 0.820999 0.218147 0.070000
11.559976 -1.553247 0.175144 0.080000
11.117437 -2.726856 0.149626 0.040000
10.469419 -3.879452 0.138650 0.080000
5.009289 1.562104 0.099625 0.050000
5.157668 1.124832 0.108387 0.020000
5.370237 0.733889 0.092489 0.170000
5.403172 0.319428 0.096034 0.020000
5.381129 -0.096068 0.094432 0.040000
5.354101 -0.511641 0.087816 0.070000
5.237089 -0.928937 0.080960 0.080000
5.059993 -1.342383 0.073960 0.140000
29.301313 14.604465 2.986547 0.080000
6.913556 1.755363 0.990323 0.470000
30.586267 6.293247 2.784003 0.160000
31.110912 2.667764 2.741895 0.140000
12.584115 -0.357712 1.352274 0.760000
11.576921 -1.546937 1.270223 0.130000
17.579277 -7.159715 1.740031 0.000000
11.671429 5.155036 0.210373 0.080000
12.432939 3.779395 0.202246 0.060000
12.774827 2.380733 0.187939 0.010000
11.168405 0.864443 0.248110 0.160000
12.756863 -0.335091 0.177797 0.020000
11.569033 -1.508176 0.205336 0.080000
11.604345 -2.822567 0.155542 0.040000
10.629624 -3.891460 0.159024 0.140000
5.028698 1.592463 0.104789 0.050000
5.211987 1.160878 0.108663 0.020000
5.340025 0.743275 0.102445 0.080000
5.452779 0.340382 0.096241 0.020000
5.450924 -0.084729 0.094656 0.060000
5.398888 -0.500799 0.092974 0.070000
5.317170 -0.932404 0.081156 0.080000
5.104971 -1.341540 0.079081 0.130000
6.942732 1.795855 1.010550 0.230000
30.523636 6.416720 2.879300 0.050000
31.093176 2.797099 2.837331 0.060000
12.543098 -0.308580 1.377350 0.790000
11.545904 -1.497613 1.295326 0.200000
18.927368 -4.973877 1.851677 0.000000
12.239219 5.535959 0.218271 0.060000
12.987922 4.045034 0.214683 0.060000
13.470851 2.594082 0.195549 0.010000
11.127663 0.898558 0.278131 0.090000
13.681703 -0.317358 0.175277 0.020000
11.628285 -1.472126 0.230625 0.260000
12.181716 -2.941548 0.161606 0.040000
10.618385 -3.831793 0.194217 0.190000
5.082729 1.643506 0.105120 0.050000
5.271209 1.202020 0.108970 0.030000
5.414436 0.774706 0.102756 0.080000
5.527382 0.361814 0.096516 0.030000
5.505614 -0.068697 0.099859 0.050000
5.498882 -0.498865 0.088242 0.070000
5.377146 -0.931273 0.086317 0.080000
5.170247 -1.355292 0.079200 0.150000
29.273544 14.978173 3.212866 0.020000
6.907399 1.810108 1.030511 0.410000
30.570370 6.572240 2.990001 0.010000
12.547132 -0.263642 1.417528 0.740000
17.286346 -4.404967 1.784508 0.000000
17.963852 -7.152843 1.876062 0.000000
12.851495 5.942702 0.236381 0.080000
14.341063 2.850757 0.208775 0.010000
11.017017 0.926316 0.312946 0.080000
10.632524 -3.791643 0.229403 0.220000
5.116943 1.684150 0.110360 0.050000
5.330432 1.243161 0.109278 0.020000
5.478849 0.805945 0.103040 0.080000
5.591877 0.388036 0.101782 0.030000
5.585407 -0.057167 0.100110 0.060000
5.543765 -0.493023 0.093381 0.060000
5.447228 -0.934932 0.086486 0.100000
5.260613 -1.373565 0.079368 0.150000
29.200518 15.121433 3.313209 0.010000
6.921782 1.840334 1.045661 0.450000
6.850564 1.123935 1.017812 0.000000
11.268162 0.982267 1.368820 0.010000
12.596072 -0.212824 1.452845 0.450000
17.304775 -4.329784 1.834836 0.000000
11.365327 -4.091878 1.380212 0.010000
7.116919 1.916211 0.466447 0.030000
15.300778 3.134150 0.222334 0.010000
10.996176 0.965814 0.343039 0.070000
15.740812 -0.252948 0.190891 0.010000
13.813846 -3.300409 0.179533 0.030000
10.636378 -3.736688 0.264618 0.270000
5.185876 1.740481 0.110749 0.050000
5.394653 1.284398 0.109599 0.030000
5.538250 0.837070 0.108311 0.110000
5.666481 0.409468 0.102056 0.030000
5.655107 -0.040829 0.100352 0.060000
5.628653 -0.486396 0.093627 0.050000
5.537403 -0.943206 0.086691 0.080000
5.325792 -1.382318 0.079506 0.140000
47.833221 25.837914 5.381703 0.040000
6.911253 1.865063 1.065726 0.440000
6.835144 1.143588 1.032845 0.000000
11.187428 1.015617 1.398734 0.020000
17.554520 -4.325294 1.915505 0.000000
11.359169 -4.037133 1.420400 0.060000
7.096487 1.935750 0.486466 0.060000
7.055485 1.204835 0.483642 0.010000
10.965324 1.005101 0.378104 0.100000
10.640437 -3.691712 0.294796 0.290000
5.249810 1.796715 0.111125 0.050000
5.453863 1.325521 0.114906 0.030000
5.627563 0.873786 0.108681 0.100000
5.745986 0.435995 0.102362 0.030000
5.744898 -0.029108 0.100630 0.060000
5.733729 -0.489384 0.093890 0.040000
5.607486 -0.946865 0.086860 0.060000
5.426349 -1.410397 0.079664 0.110000
47.554615 25.996908 5.571569 0.050000
6.905723 1.889888 1.085804 0.390000
6.934185 1.190383 1.063278 0.040000
11.181666 1.050384 1.433848 0.080000
40.535580 -5.487689 3.966192 0.040000
40.403381 -10.601345 4.006838 0.020000
16.631535 8.320406 0.285087 0.030000
7.140673 1.976548 0.501734 0.230000
7.050050 1.224661 0.503702 0.050000
10.959563 1.039869 0.413219 0.120000
13.317193 -0.109944 0.350098 0.010000
15.596186 -1.851312 0.269573 0.020000
15.988531 -3.788938 0.208394 0.020000
10.654551 -3.651600 0.339982 0.260000
5.328633 1.858217 0.116560 0.060000
5.552790 1.382426 0.115376 0.040000
5.686964 0.904911 0.113951 0.110000
5.850488 0.463002 0.102735 0.030000
5.834581 -0.012405 0.105927 0.060000
5.813605 -0.482872 0.099123 0.050000
5.732846 -0.964467 0.087122 0.050000
5.491515 -1.419169 0.084801 0.140000
47.301239 26.141312 5.781446 0.050000
6.900192 1.914713 1.105882 0.340000
6.893961 1.199559 1.078207 1.000000
11.190807 1.090438 1.469022 0.100000
40.371605 -5.301311 4.106459 0.030000
11.261334 -3.899221 1.485658 0.090000
13.048527 6.335903 0.413359 0.050000
7.100423 1.985687 0.526663 0.430000
7.034617 1.244296 0.523735 1.000000
11.033608 1.086185 0.443585 0.050000
13.251117 -0.061384 0.400107 0.010000
13.328547 -1.490098 0.379998 0.050000
15.946932 -3.714960 0.273561 0.020000
10.683783 -3.616162 0.375191 0.220000
5.432093 1.940231 0.112135 0.050000
5.621997 1.423740 0.120710 0.040000
5.796177 0.947010 0.114393 0.100000
5.944978 0.489798 0.108082 0.030000
5.924373 -0.000684 0.106205 0.060000
5.928584 -0.480669 0.099431 0.040000
5.828020 -0.972646 0.087340 0.040000
5.602069 -1.447057 0.084986 0.140000
47.022945 26.285347 5.961257 0.040000
6.899757 1.934635 1.125955 0.260000
6.838741 1.208448 1.093096 0.210000
11.189949 1.130300 1.504168 0.110000
37.508347 -0.184839 4.008003 0.180000
57.501278 -7.455029 5.888184 0.040000
40.164631 -10.186890 4.292759 0.000000
11.204817 -3.825419 1.520785 0.180000
13.047137 6.400686 0.468597 0.020000
7.074993 2.005130 0.546669 0.260000
6.974481 1.248072 0.543592 0.270000
11.162535 1.138535 0.479116 0.050000
13.327472 -1.440275 0.425181 0.020000
13.406980 -2.973877 0.379687 0.040000
5.491111 1.991352 0.117479 0.060000
5.740742 1.491045 0.116271 0.040000
5.905294 0.994108 0.114853 0.110000
6.069393 0.522204 0.103527 0.030000
6.049062 0.016707 0.106595 0.060000
6.013555 -0.479060 0.104659 0.050000
5.943285 -0.985440 0.087593 0.030000
5.707624 -1.475040 0.085158 0.110000
46.745380 26.389336 6.155921 0.040000
6.904116 1.964632 1.151078 0.340000
6.813406 1.222892 1.113084 0.160000
11.214156 1.165605 1.549363 0.250000
36.705437 -0.050449 4.076408 0.180000
40.595444 -5.023166 4.433080 0.020000
39.884922 -9.962702 4.427864 0.020000
11.173759 -3.776152 1.560887 0.200000
15.275974 7.783525 0.504555 0.060000
7.054644 2.019651 0.571670 0.280000
11.047069 1.156180 0.518881 0.070000
14.970945 -1.608903 0.448844 0.010000
10.802894 -3.579149 0.450640 0.100000
5.604461 2.078539 0.118099 0.060000
5.844573 1.553044 0.116772 0.040000
6.019506 1.036303 0.115308 0.100000
6.193890 0.549594 0.103954 0.030000
6.158849 0.028812 0.106926 0.050000
6.143640 -0.481551 0.099989 0.040000
6.053539 -0.998349 0.092833 0.030000
5.823178 -1.502832 0.085356 0.110000
46.398716 26.447027 6.340233 0.030000
6.898681 1.984458 1.171138 0.320000
6.822969 1.243006 1.133184 0.350000
11.158514 1.194435 1.579325 0.310000
36.242786 0.070363 4.170650 0.320000
57.507275 -7.051584 6.364705 0.020000
39.067669 -9.603601 4.512066 0.010000
11.192981 -3.740924 1.601069 0.270000
15.185438 7.801556 0.569387 0.040000
7.034308 2.034191 0.591671 0.220000
6.968694 1.282802 0.588707 0.090000
11.086204 1.196809 0.554134 0.290000
13.298373 0.064067 0.530698 0.010000
13.240433 -1.347256 0.515300 0.050000
13.384902 -2.879650 0.479980 0.010000
10.912961 -3.587189 0.490898 0.090000
5.693089 2.150230 0.123597 0.060000
5.973303 1.620522 0.117359 0.040000
6.168437 1.094184 0.110912 0.120000
6.313280 0.581867 0.109385 0.030000
6.333638 0.042180 0.102432 0.060000
6.298706 -0.483582 0.100387 0.040000
6.168805 -1.011144 0.093086 0.030000
5.938718 -1.530643 0.090554 0.110000
46.126289 26.541039 6.554873 0.030000
6.908135 2.009552 1.196256 0.300000
6.842421 1.268291 1.158329 0.550000
11.043169 1.207118 1.609071 0.250000
36.160229 0.183289 4.310856 0.370000
39.727589 -4.655620 4.677184 0.010000
39.235550 -9.516012 4.687832 0.020000
11.272739 -3.734579 1.651301 0.120000
15.055485 7.788826 0.634001 0.040000
6.998157 1.308297 0.608878 0.210000
11.075635 1.221482 0.589199 0.480000
13.139376 -1.299348 0.560215 0.040000
13.394016 -2.839633 0.525153 0.030000
10.947384 -3.561654 0.526083 0.100000
5.831160 2.252911 0.119339 0.070000
6.131753 1.703589 0.113081 0.050000
6.307549 1.141857 0.111452 0.140000
6.512598 0.620728 0.100050 0.030000
6.473325 0.059859 0.102862 0.050000
6.483876 -0.490018 0.095846 0.040000
6.339444 -1.042882 0.093414 0.030000
6.084649 -1.577856 0.090760 0.110000
45.914097 26.626274 6.749639 0.030000
6.882896 2.018997 1.216226 0.320000
6.812196 1.277659 1.173285 0.540000
11.032505 1.236791 1.644154 0.410000
36.178040 0.278134 4.451256 0.210000
40.576912 -4.645214 4.914442 0.020000
39.474007 -9.457059 4.858675 0.020000
11.322421 -3.723790 1.696471 0.320000
13.042278 6.624863 0.679419 0.040000
6.962933 1.317569 0.623821 0.280000
11.015076 1.245198 0.624129 1.140000
13.023322 -1.251727 0.605089 0.110000
16.639334 -3.612726 0.560751 0.020000
11.072639 -3.579405 0.566344 0.120000
5.964315 2.350478 0.120049 0.070000
6.275290 1.781352 0.113745 0.060000
6.486379 1.205311 0.107155 0.130000
6.641986 0.653194 0.105508 0.030000
6.663111 0.073514 0.098409 0.060000
6.634040 -0.497143 0.096211 0.050000
6.484896 -1.065100 0.093711 0.030000
6.255780 -1.634570 0.085996 0.090000
45.687107 26.701244 6.939327 0.020000
6.897362 2.044205 1.236357 0.190000
6.816855 1.292677 1.193353 0.600000
11.021936 1.261464 1.679219 0.390000
36.120701 0.381577 4.581492 0.210000
57.390209 -6.516170 7.031396 0.020000
39.762558 -9.407275 5.064615 0.020000
11.331727 -3.693772 1.741608 0.520000
6.937680 1.326996 0.648791 0.300000
11.044499 1.270638 0.659301 0.880000
13.266110 0.162971 0.665983 0.000000
12.972447 -1.212859 0.650102 0.090000
16.698673 -3.586824 0.626003 0.010000
11.243269 -3.616290 0.606653 0.260000
6.122177 2.463522 0.120881 0.070000
6.443725 1.864592 0.114494 0.050000
6.630394 1.258079 0.107727 0.140000
6.836292 0.691940 0.101160 0.030000
6.807878 0.086271 0.103834 0.060000
6.769097 -0.499576 0.101555 0.040000
6.690637 -1.101148 0.089114 0.030000
6.401615 -1.676785 0.086219 0.100000
44.447548 26.137203 6.988995 0.030000
6.887107 2.053919 1.261367 0.130000
6.816515 1.307600 1.213408 0.740000
11.036350 1.286598 1.719350 0.330000
36.058620 0.469890 4.721660 0.220000
52.286198 -5.782470 6.660797 0.040000
39.865738 -9.335928 5.240152 0.010000
11.336143 -3.668829 1.781712 0.380000
11.715598 5.903979 0.768278 0.010000
14.666218 5.375340 0.789015 0.250000
13.280511 0.188087 0.711114 0.010000
13.132204 -1.204963 0.695548 0.220000
13.356441 -2.725864 0.670480 0.010000
11.141829 -3.548386 0.651641 0.320000
6.245416 2.555880 0.126546 0.070000
6.587260 1.942355 0.115158 0.070000
6.799294 1.316305 0.113384 0.120000
6.980677 0.724693 0.106658 0.030000
6.982655 0.099620 0.104340 0.060000
6.949255 -0.506126 0.102001 0.050000
6.815984 -1.118769 0.094375 0.040000
6.577636 -1.728423 0.086487 0.100000
44.265606 26.207979 7.193785 0.030000
6.891671 2.073936 1.281454 0.200000
6.811273 1.317428 1.233431 0.560000
11.045765 1.311636 1.759468 0.340000
35.991749 0.548128 4.856778 0.140000
40.995632 -4.389130 5.456492 0.020000
39.692818 -9.204730 5.380189 0.020000
11.360720 -3.653539 1.831834 0.310000
13.024455 6.748939 0.844836 0.040000
6.952094 1.352130 0.688922 0.080000
11.023541 1.309968 0.734393 0.070000
13.111611 -1.180518 0.740586 0.290000
13.385921 -2.705479 0.720633 0.030000
11.136151 -3.518636 0.691737 0.340000
6.403374 2.663924 0.127360 0.080000
6.775500 2.035977 0.115997 0.060000
6.968209 1.374550 0.114042 0.150000
7.169971 0.763325 0.107296 0.030000
7.172427 0.113257 0.104886 0.070000
7.099406 -0.513270 0.107366 0.050000
6.991621 -1.150411 0.094716 0.040000
6.758848 -1.789963 0.086731 0.090000
44.924011 26.774517 7.517613 0.050000
6.881415 2.083650 1.306463 0.160000
6.801031 1.327160 1.253441 0.480000
11.129961 1.348090 1.804824 0.240000
40.637646 0.704474 5.594494 0.280000
40.848377 -4.292446 5.596469 0.020000
39.831364 -9.152727 5.560746 0.030000
11.324868 -3.614347 1.866886 0.710000
13.033544 6.788918 0.900009 0.030000
13.092502 4.759780 0.867619 0.050000
6.941852 1.361862 0.708932 0.060000
11.062950 1.335581 0.774592 0.080000
19.013023 0.347260 0.901671 0.000000
13.106015 -1.155786 0.785664 0.280000
13.385324 -2.680651 0.765724 0.050000
11.170944 -3.513116 0.731849 0.400000
6.546418 2.766664 0.133116 0.080000
6.938924 2.119103 0.121733 0.060000
6.977868 1.389665 0.134123 0.080000
7.369263 0.802149 0.107961 0.030000
7.372198 0.127085 0.105459 0.060000
7.324760 -0.528939 0.102896 0.040000
7.172341 -1.186974 0.100052 0.040000
6.924858 -1.841811 0.091972 0.080000
44.703655 26.764597 7.707003 0.040000
6.861367 2.083193 1.326409 0.140000
6.805786 1.337180 1.273491 0.440000
11.159563 1.363513 1.844959 0.240000
40.701065 0.765113 5.754887 0.230000
40.831730 -4.228322 5.751665 0.020000
39.990398 -9.125319 5.736265 0.030000
11.395013 -3.628190 1.917019 0.260000
13.018032 6.808441 0.950041 0.040000
13.091892 4.784590 0.917711 0.070000
6.936609 1.371690 0.728955 0.050000
11.052573 1.350257 0.809620 0.110000
30.949076 0.624840 1.223863 0.020000
13.095517 -1.136149 0.830710 0.300000
13.384810 -2.660841 0.815797 0.030000
11.210736 -3.507499 0.771974 0.470000
6.743794 2.905468 0.134147 0.070000
7.122261 2.207630 0.122541 0.060000
6.972721 1.394494 0.154128 0.240000
7.563542 0.840858 0.113612 0.030000
7.591966 0.141297 0.106085 0.050000
7.529996 -0.540029 0.108391 0.040000
7.438359 -1.236870 0.095561 0.030000
7.095963 -1.898563 0.097208 0.080000
11.180397 5.713562 2.166187 0.000000
6.875916 2.103383 1.351523 0.110000
6.785642 1.341722 1.293455 0.480000
40.699375 0.829468 5.925123 0.260000
46.370476 -4.760695 6.679153 0.010000
11.399620 -3.613245 1.957086 0.200000
13.022313 6.838326 1.005164 0.030000
13.091283 4.809399 0.967802 0.090000
6.916561 1.371232 0.748901 0.050000
11.092187 1.365890 0.844782 0.110000
30.942997 0.664291 1.343995 0.010000
13.095112 -1.121319 0.875764 0.290000
13.414483 -2.650454 0.865914 0.020000
11.220343 -3.492459 0.812056 0.480000
6.941266 3.039274 0.135160 0.070000
7.305584 2.296138 0.128348 0.050000
7.017277 1.415277 0.174322 0.180000
7.782722 0.885045 0.119348 0.030000
7.796722 0.155202 0.111671 0.050000
7.780333 -0.555237 0.108988 0.040000
7.619079 -1.273434 0.100897 0.030000
7.236786 -1.940892 0.102418 0.080000
11.184813 5.738504 2.206292 0.010000
6.845882 2.102753 1.366442 0.080000
6.810284 1.357105 1.318577 0.430000
11.168778 1.393401 1.925095 0.060000
40.688030 0.878710 6.075278 0.250000
40.568268 -4.089370 6.031497 0.010000
11.353962 -3.584243 1.992075 0.280000
6.931314 1.381443 0.768978 0.050000
11.061896 1.375165 0.884737 0.110000
31.446976 0.703455 1.480457 0.040000
13.084805 -1.111680 0.920774 0.260000
13.394082 -2.636007 0.910915 0.020000
11.260409 -3.501858 0.857126 0.400000
7.119098 3.152663 0.146046 0.080000
7.543514 2.405696 0.134377 0.050000
7.987095 0.918947 0.125008 0.030000
8.011574 0.164300 0.117266 0.050000
7.965668 -0.571709 0.114410 0.040000
7.829984 -1.319421 0.106277 0.030000
11.135005 5.722401 2.246102 0.030000
6.845734 2.107678 1.386460 0.060000
6.815135 1.362125 1.338608 0.410000
11.183479 1.403538 1.965171 0.040000
40.697033 0.908301 6.235413 0.260000
50.956345 -5.166680 7.709625 0.010000
11.373840 -3.584027 2.037129 0.140000
13.011466 6.867739 1.110246 0.030000
14.825975 5.602175 1.135278 0.090000
6.975870 1.402227 0.789171 0.190000
11.071720 1.380244 0.914782 0.100000
31.436224 0.727868 1.585521 0.050000
13.089508 -1.101734 0.960823 0.210000
13.393773 -2.626177 0.955951 0.050000
11.219847 -3.477760 0.892110 0.330000
7.370997 3.317534 0.142316 0.060000
7.786361 2.520367 0.135437 0.060000
8.256279 0.964110 0.125878 0.030000
8.281427 0.174470 0.118008 0.040000
8.181094 -0.592605 0.119895 0.030000
8.055901 -1.365103 0.106696 0.020000
7.684947 -2.102355 0.107988 0.070000
11.095113 5.711507 2.280958 0.050000
6.840683 2.107508 1.406447 0.050000
6.810001 1.366973 1.353613 0.360000
11.198194 1.413693 2.000248 0.030000
40.671181 0.932278 6.380436 0.230000
51.441273 -5.193315 7.960795 0.010000
44.339615 -10.006909 7.034354 0.000000
11.398814 -3.588715 2.082177 0.090000
13.035934 6.888010 1.165386 0.020000
14.865441 5.622732 1.190458 0.040000
6.921116 1.386102 0.808969 0.250000
11.071520 1.385094 0.954800 0.110000
13.257585 0.296512 1.026461 0.010000
13.079201 -1.092095 1.005833 0.150000
13.383466 -2.616537 1.000960 0.020000
11.244833 -3.482429 0.932158 0.240000
7.627788 3.487483 0.143618 0.080000
8.054107 2.640516 0.136582 0.050000
7.106459 1.451808 0.224691 0.030000
8.545362 1.014655 0.126821 0.030000
8.581275 0.185215 0.118831 0.040000
8.451523 -0.612429 0.120527 0.030000
8.317084 -1.425129 0.112155 0.020000
7.866241 -2.168914 0.113213 0.050000
11.084997 5.711148 2.325931 0.110000
6.840535 2.112432 1.426465 0.050000
11.197993 1.418544 2.040266 0.030000
40.700485 0.947274 6.535570 0.150000
43.691566 -4.363030 6.973642 0.010000
44.268719 -9.983869 7.199256 0.010000
11.403709 -3.588768 2.122190 0.100000
13.035625 6.897840 1.210422 0.010000
6.920981 1.391046 0.823987 0.290000
11.071346 1.389982 0.984818 0.110000
13.232485 0.295884 1.066393 0.010000
11.239647 -3.477655 0.967163 0.240000
7.850132 3.626729 0.154716 0.080000
8.311937 2.755456 0.142683 0.060000
7.166121 1.467899 0.239906 0.090000
8.829638 1.055107 0.127713 0.030000
8.911214 0.191535 0.119716 0.030000
8.777228 -0.646198 0.121252 0.030000
11.050200 5.695351 2.360782 0.110000
6.830580 2.107167 1.446419 0.060000
6.794899 1.366537 1.393573 0.130000
11.197902 1.418414 2.075265 0.040000
39.935631 0.927494 6.568501 0.170000
43.721230 -4.368068 7.138702 0.010000
44.263371 -9.989595 7.369223 0.010000
11.388525 -3.584186 2.157168 0.140000
13.020594 6.892368 1.260363 0.010000
13.085012 4.843441 1.197914 0.020000
6.906027 1.385685 0.843928 0.290000
11.091251 1.390234 1.019871 0.100000
31.404985 0.746063 1.915511 0.050000
13.448506 -2.630624 1.091078 0.000000
11.254636 -3.482516 1.007184 0.230000
8.166336 3.827820 0.156289 0.080000
8.614389 2.891272 0.143977 0.050000
7.195871 1.478397 0.260023 0.200000
9.173602 1.111686 0.133821 0.030000
9.216047 0.202356 0.125552 0.030000
9.112932 -0.679774 0.122003 0.030000
8.894742 -1.559108 0.118165 0.020000
8.375049 -2.364240 0.123816 0.050000
11.049999 5.700201 2.400800 0.150000
6.820530 2.106902 1.466392 0.070000
6.804845 1.366654 1.413599 0.110000
11.177814 1.417900 2.110212 0.070000
40.639725 0.945028 6.830406 0.220000
43.024574 -4.296618 7.197150 0.020000
44.182693 -9.976707 7.524062 0.010000
11.403596 -3.594064 2.202171 0.190000
13.005657 6.881897 1.310286 0.020000
13.084895 4.843275 1.242914 0.010000
6.915973 1.385802 0.863955 0.270000
11.081175 1.389931 1.049844 0.100000
31.399796 0.740559 2.025478 0.090000
13.418311 -2.626348 1.131016 0.010000
11.254627 -3.487664 1.047166 0.250000
8.448012 4.003227 0.162676 0.080000
8.916924 3.022071 0.150253 0.050000
7.161113 1.462655 0.279874 0.300000
9.532673 1.163572 0.134951 0.030000
9.580979 0.209347 0.126530 0.040000
9.211216 -1.633060 0.118716 0.020000
11.045087 5.689959 2.440749 0.160000
6.815588 2.101751 1.481360 0.100000
6.794904 1.361407 1.428554 0.160000
11.162930 1.407504 2.140134 0.090000
40.520077 0.907253 6.959955 0.190000
42.999939 -4.337665 7.351935 0.030000
44.107880 -10.008713 7.678749 0.010000
11.378618 -3.599654 2.232085 0.240000
13.070164 4.822824 1.287800 0.030000
6.901128 1.375461 0.878878 0.320000
11.106174 1.385281 1.084893 0.110000
31.405107 0.710289 2.125380 0.060000
13.053979 -1.103167 1.165727 0.050000
13.388404 -2.637070 1.170898 0.020000
11.264917 -3.507598 1.082119 0.320000
8.779392 4.194589 0.169253 0.070000
9.264258 3.163730 0.156686 0.050000
7.151254 1.452392 0.299811 0.350000
9.901837 1.210650 0.136090 0.030000
9.896099 0.205363 0.132338 0.030000
9.784614 -0.761943 0.128451 0.020000
9.527965 -1.722028 0.124212 0.020000
9.060478 -2.641162 0.124575 0.050000
11.035477 5.664641 2.475630 0.180000
6.830520 2.101945 1.506400 0.120000
6.765158 1.345780 1.443418 0.240000
11.173041 1.397586 2.170124 0.150000
39.036808 0.819252 6.840755 0.160000
42.960732 -4.398940 7.491606 0.020000
44.008465 -10.061176 7.828296 0.010000
11.388895 -3.619607 2.272038 0.290000
13.055529 4.797374 1.332667 0.020000
6.901172 1.370388 0.898859 0.240000
11.111369 1.370250 1.119851 0.100000
31.410599 0.670002 2.230246 0.040000
13.069255 -1.123024 1.205694 0.120000
13.383588 -2.652311 1.210830 0.030000
11.270208 -3.527629 1.117058 0.390000
9.086063 4.370475 0.175707 0.090000
9.646408 3.316075 0.158250 0.040000
7.161309 1.447528 0.314819 0.420000
10.211274 1.241545 0.147013 0.030000
10.196221 0.201091 0.138106 0.030000
10.055400 -0.801801 0.139010 0.020000
9.844712 -1.810996 0.129708 0.020000
9.337905 -2.765889 0.129836 0.040000
11.070366 5.665163 2.515724 0.160000
6.820770 2.086701 1.521318 0.130000
6.760324 1.335649 1.453368 0.370000
11.158445 1.372191 2.199992 0.170000
38.958065 0.737327 6.950246 0.130000
42.110710 -4.405202 7.484364 0.030000
43.929947 -10.158193 7.962732 0.000000
11.339113 -3.635673 2.301849 0.270000
29.009836 16.810427 2.678983 0.040000
29.697241 12.013239 2.527943 0.040000
11.126672 1.350429 1.149817 0.090000
13.243028 0.240361 1.261216 0.030000
13.029568 -1.143898 1.235513 1.000000
13.384059 -2.682454 1.250719 0.020000
11.245518 -3.548215 1.146918 0.390000
9.501674 4.603476 0.177658 0.080000
10.063442 3.474072 0.164926 0.050000
7.161544 1.432457 0.334764 0.330000
10.605625 1.279104 0.148182 0.030000
10.586532 0.188564 0.139078 0.030000
10.371477 -0.855776 0.144634 0.020000
9.590240 -2.886096 0.135048 0.050000
11.075752 5.640133 2.550645 0.150000
6.825922 2.076743 1.536295 0.130000
6.770462 1.325768 1.473358 0.510000
11.078996 1.340609 2.214667 0.180000
43.546474 0.736884 7.867230 0.110000
42.252415 -4.513039 7.629334 0.030000
11.324517 -3.661067 2.331717 0.370000
28.987000 16.684637 2.768457 0.080000
6.962218 2.091482 0.956700 0.010000
6.881781 1.334918 0.923677 0.050000
11.102199 1.319882 1.169640 0.090000
13.000070 -1.174578 1.265322 0.230000
13.384651 -2.717559 1.280591 0.020000
11.246014 -3.578321 1.176807 0.400000
10.376454 3.580067 0.171137 0.050000
