# This PCD file was generated using the MATLAB® pcwrite function
# from Computer Vision Toolbox®.
# .PCD v.7 - Point Cloud Data file format
VERSION .7
FIELDS x y z intensity
SIZE 4 4 4 4
TYPE F F F F
COUNT 1 1 1 1
WIDTH 1284
HEIGHT 1
VIEWPOINT 0 0 0 1 0 0 0
POINTS 1284
DATA ascii
9.710967 -3.183837 0.134256 0.050000
52.454147 29.679815 11.483109 0.030000
7.285230 2.105233 1.622601 0.160000
7.300306 1.325567 1.569741 0.600000
11.223203 1.118222 2.244217 0.160000
44.907036 -0.363299 8.151695 0.170000
40.433628 -5.342120 7.376503 0.030000
40.769272 -10.627579 7.617733 0.000000
29.101570 15.661577 2.784953 0.050000
30.451487 7.101817 2.511654 0.060000
11.121673 1.085176 1.178818 0.100000
13.246283 -1.500012 1.289755 0.110000
13.401029 -3.052360 1.294389 0.010000
10.156059 4.640997 0.184506 0.120000
10.664659 3.415557 0.171278 0.050000
10.868111 2.194256 0.162269 0.070000
11.024546 1.077055 0.158524 0.040000
10.866410 -0.066194 0.158862 0.050000
10.692141 -1.149723 0.154379 0.020000
10.433092 -2.244859 0.144632 0.020000
9.893233 -3.300367 0.134299 0.050000
52.642593 29.482895 11.617871 0.040000
7.285683 2.080200 1.632509 0.200000
7.275777 1.300074 1.574583 0.640000
44.925301 -0.543238 8.221075 0.320000
40.411556 -5.502773 7.430848 0.030000
40.732571 -10.808534 7.676965 0.010000
11.442266 -4.074142 2.400489 0.050000
29.149223 15.517300 2.829541 0.040000
7.308116 2.042970 0.992423 0.120000
30.463762 6.976864 2.556222 0.040000
11.177281 1.051162 1.198837 0.080000
12.654794 -0.121042 1.278337 0.010000
13.232109 -1.545347 1.304550 0.180000
11.313480 -3.972227 1.210519 0.230000
10.389565 4.720464 0.190411 0.100000
10.874031 3.449555 0.176951 0.050000
11.112777 2.213946 0.162981 0.070000
11.184981 1.055105 0.163861 0.100000
10.822063 -0.102086 0.168613 0.050000
10.883447 -1.216071 0.154632 0.020000
10.569599 -2.322259 0.144700 0.020000
10.030302 -3.407779 0.139257 0.050000
52.930595 29.312958 11.732992 0.040000
7.286245 2.050187 1.637399 0.300000
7.286241 1.275252 1.579518 0.660000
45.018826 -0.736756 8.295600 0.200000
44.490311 -6.292694 8.228567 0.010000
40.630619 -10.975699 7.726079 0.020000
11.433282 -4.129379 2.415261 0.150000
29.167469 15.342471 2.868939 0.080000
7.278862 2.002366 1.002195 0.140000
11.178021 1.011133 1.208691 0.100000
12.695609 -0.165323 1.293280 0.030000
13.157850 -1.586831 1.319202 0.200000
11.339695 -4.036773 1.220348 0.130000
10.603279 4.789570 0.191226 0.110000
11.063517 3.478189 0.177552 0.050000
11.297838 2.212490 0.163458 0.070000
11.165822 1.009694 0.173643 0.110000
11.019570 -1.273474 0.154774 0.020000
10.711298 -2.409560 0.144746 0.020000
10.127105 -3.500941 0.139164 0.060000
53.095364 29.055813 11.802467 0.010000
7.291710 2.025269 1.642321 0.320000
7.286707 1.250238 1.584426 0.330000
40.267628 -5.830843 7.499254 0.020000
40.568825 -11.147004 7.750280 0.030000
11.363583 -4.145717 2.415018 0.220000
29.190384 15.187810 2.888425 0.170000
7.338934 1.998497 1.007338 0.300000
30.458904 6.701540 2.605187 0.030000
12.631471 -0.211578 1.297940 0.050000
13.083534 -1.623261 1.318873 0.190000
19.608500 -5.010417 1.738318 0.000000
10.767578 4.827723 0.191796 0.110000
11.203490 3.480870 0.177927 0.050000
11.413187 2.194677 0.168693 0.070000
11.201472 0.975352 0.178608 0.170000
11.438903 -0.190233 0.154895 0.030000
11.085504 -1.322238 0.159764 0.020000
10.802609 -2.477842 0.149730 0.020000
10.233797 -3.588932 0.144115 0.060000
7.282370 1.990066 1.647165 0.330000
48.701923 -1.229037 9.048392 0.050000
40.341469 -6.039705 7.563671 0.030000
40.522633 -11.353109 7.799395 0.030000
11.329535 -4.196396 2.419741 0.480000
29.233555 15.018497 2.917908 0.180000
7.339496 1.968485 1.012228 0.470000
30.640682 6.604857 2.645302 0.000000
12.652303 -0.256223 1.307829 0.100000
12.623098 -1.602002 1.297750 0.110000
19.499561 -5.067532 1.742821 0.000000
10.887555 4.830021 0.192118 0.100000
11.303843 3.462770 0.183122 0.040000
11.518551 2.176692 0.168902 0.070000
11.177314 0.929845 0.188376 0.190000
11.549745 -0.233118 0.155025 0.020000
11.161530 -1.375810 0.164764 0.020000
10.838656 -2.532161 0.149622 0.020000
10.310425 -3.672461 0.139005 0.060000
52.312012 27.936069 11.671259 0.010000
7.297846 1.965358 1.647114 0.190000
42.059029 -1.236952 7.856010 0.100000
40.164528 -6.198048 7.542620 0.050000
40.491528 -11.558796 7.813549 0.020000
11.275120 -4.227443 2.419483 0.260000
29.242182 14.828609 2.922225 0.190000
7.325169 1.933204 1.012059 0.540000
30.558859 6.438261 2.644469 0.010000
31.113754 2.803447 2.577405 0.040000
12.618268 -0.306884 1.307552 0.130000
12.538880 -1.643622 1.297375 0.220000
19.526541 -5.172071 1.752503 0.000000
10.977826 4.816748 0.192304 0.110000
11.389210 3.444402 0.183277 0.040000
11.559310 2.137465 0.168862 0.070000
11.203075 0.890331 0.188296 0.160000
11.535693 -0.283414 0.159801 0.020000
11.192592 -1.430206 0.159643 0.020000
10.834519 -2.577248 0.149444 0.020000
10.286196 -3.712932 0.138791 0.070000
52.422440 27.653116 11.675495 0.050000
11.227779 0.873101 2.288319 0.000000
41.847294 -1.405945 7.829829 0.180000
39.822006 -6.324465 7.496255 0.040000
40.439972 -11.739834 7.817741 0.000000
29.280132 14.674291 2.926750 0.200000
7.295941 1.892637 1.011832 0.640000
30.641212 6.314779 2.654225 0.030000
31.141228 2.673932 2.581995 0.050000
12.584136 -0.352546 1.307293 0.140000
11.651986 -1.545389 1.240425 0.180000
19.045547 -5.121182 1.726437 0.000000
11.013681 4.772427 0.192233 0.110000
11.405165 3.394699 0.183133 0.050000
11.590166 2.093049 0.168778 0.060000
11.273925 0.846680 0.188319 0.120000
11.531556 -0.328502 0.159623 0.020000
11.178444 -1.475504 0.164437 0.020000
10.845572 -2.632046 0.149269 0.020000
10.267158 -3.763305 0.138554 0.050000
52.766750 27.424486 11.725544 0.060000
7.289106 1.900197 1.641849 0.090000
11.158777 0.821807 2.277948 0.010000
41.681046 -1.599053 7.798677 0.180000
39.705326 -6.496675 7.480310 0.040000
29.293867 14.479520 2.926062 0.180000
7.316416 1.868025 1.011794 0.520000
30.594397 6.148872 2.648486 0.030000
31.163811 2.539341 2.581554 0.050000
12.580095 -0.402632 1.307096 0.160000
11.562591 -1.577088 1.235073 0.210000
10.990015 4.701942 0.196909 0.110000
11.381319 3.334232 0.182846 0.040000
11.551214 2.037275 0.173469 0.070000
11.324599 0.812663 0.183325 0.160000
11.472334 -0.369643 0.159315 0.030000
11.098938 -1.502031 0.164131 0.020000
10.786144 -2.663208 0.153998 0.020000
10.212633 -3.789373 0.143315 0.060000
52.990871 27.208668 11.745327 0.070000
7.289585 1.875202 1.641757 0.090000
11.174637 0.777103 2.277823 0.040000
41.494717 -1.787527 7.762490 0.150000
29.327131 14.310145 2.920519 0.180000
7.321895 1.843125 1.011716 0.330000
30.626896 6.019490 2.643090 0.040000
31.191488 2.399846 2.581108 0.050000
12.571069 -0.452795 1.301886 0.150000
11.533471 -1.622635 1.229828 0.190000
10.956554 4.621287 0.196522 0.110000
11.288049 3.242411 0.187262 0.040000
11.512372 1.976520 0.173141 0.060000
11.368107 -0.411665 0.163887 0.020000
11.034620 -1.538269 0.163829 0.020000
10.706652 -2.689717 0.148692 0.020000
10.138044 -3.810786 0.138040 0.070000
51.736420 26.170670 11.408191 0.040000
7.280366 1.835037 1.636584 0.190000
11.205493 0.732686 2.277738 0.100000
41.443558 -1.983413 7.726628 0.160000
29.370747 14.126058 2.889949 0.220000
7.312593 1.807978 1.001561 0.480000
30.659817 5.870167 2.622621 0.050000
31.209425 2.250255 2.555598 0.040000
12.577134 -0.507671 1.296698 0.150000
11.514363 -1.667973 1.219610 0.230000
10.838972 4.494013 0.195742 0.120000
11.204610 3.160817 0.181741 0.030000
11.383738 1.904043 0.172536 0.070000
11.258811 -0.448746 0.158464 0.020000
10.894934 -1.555948 0.163398 0.020000
10.576676 -2.692207 0.148344 0.020000
9.972391 -3.778972 0.142726 0.070000
51.935814 25.949614 11.362889 0.070000
7.340534 1.826169 1.641708 0.450000
42.287071 8.217949 8.201756 0.080000
11.201286 0.692635 2.267578 0.120000
41.737103 -2.167879 7.741708 0.120000
46.329239 -22.044678 9.379824 0.080000
29.413692 13.976964 2.859506 0.200000
7.308182 1.777906 0.996437 0.560000
30.662674 5.725306 2.592089 0.040000
31.247084 2.116063 2.525198 0.040000
12.583117 -0.557528 1.286528 0.140000
11.510253 -1.713023 1.209431 0.200000
10.736112 4.382041 0.190057 0.120000
7.593101 1.875763 0.347538 0.060000
11.240119 1.831298 0.166891 0.080000
11.352233 0.678242 0.162897 0.030000
11.074420 -0.482284 0.157858 0.020000
10.740264 -1.573895 0.157928 0.020000
10.396422 -2.680657 0.147916 0.020000
9.816858 -3.751927 0.137421 0.060000
52.046860 25.646999 11.277053 0.060000
7.276569 1.775027 1.616351 0.460000
42.331146 8.013977 8.141112 0.090000
11.232169 0.648255 2.257494 0.080000
45.002918 -21.683878 9.067699 0.060000
29.427544 13.782360 2.813818 0.210000
7.318768 1.748122 0.991354 0.520000
31.239956 1.971029 2.489639 0.050000
12.624190 -0.611714 1.276434 0.120000
11.516140 -1.757881 1.199280 0.200000
13.474174 -3.741172 1.317019 0.000000
19.215553 -8.513562 1.724270 0.000000
10.548939 4.233449 0.184016 0.120000
7.563886 1.835215 0.342311 0.080000
11.031799 1.742311 0.161016 0.080000
11.158337 0.619536 0.157173 0.020000
10.905040 -0.515515 0.152292 0.020000
10.495118 -1.568589 0.157308 0.020000
10.206087 -2.664281 0.142480 0.020000
9.610856 -3.700845 0.132073 0.060000
50.405872 24.442026 10.813286 0.060000
7.297058 1.750433 1.611313 0.480000
42.444801 7.831305 8.090730 0.080000
53.451416 -3.335814 9.697965 0.080000
44.942642 -21.919781 8.986665 0.060000
29.455845 13.618074 2.758281 0.220000
31.277571 1.841910 2.439257 0.050000
11.567320 -1.816856 1.184194 0.200000
13.500646 -3.815623 1.301812 0.010000
13.582884 -5.764558 1.339782 0.000000
10.351755 4.084646 0.182949 0.110000
10.828275 1.663400 0.160192 0.070000
10.949334 0.565524 0.156426 0.030000
10.660374 -0.535204 0.151580 0.030000
10.315165 -1.572017 0.151825 0.020000
10.015657 -2.642906 0.137062 0.030000
9.440121 -3.664109 0.131764 0.070000
50.565556 24.210337 10.732841 0.110000
7.287673 1.720303 1.596176 0.460000
47.339405 -3.128652 8.542768 0.070000
43.994064 -21.706993 8.734977 0.090000
29.489431 13.438888 2.702702 0.230000
7.309972 1.688016 0.971108 0.120000
31.275314 1.707063 2.378749 0.040000
11.975191 -0.658859 1.194563 0.130000
11.618403 -1.870833 1.169127 0.160000
13.436406 -3.851750 1.271509 0.050000
13.614681 -5.853854 1.309533 0.010000
10.129876 3.920386 0.176759 0.120000
10.584963 1.573742 0.154223 0.070000
10.715253 0.516051 0.150631 0.030000
10.450809 -0.559204 0.145944 0.020000
10.100013 -1.566137 0.151285 0.030000
9.810025 -2.611839 0.136641 0.020000
9.213631 -3.588433 0.131454 0.070000
50.660713 23.957520 10.622148 0.070000
41.969360 7.363033 7.837745 0.010000
40.951054 -2.846568 7.332129 0.080000
43.877766 -21.883793 8.609015 0.090000
29.487406 13.294099 2.627158 0.210000
7.320392 1.668267 0.956061 0.120000
13.223840 2.020198 1.297783 0.000000
13.260742 0.620768 1.262677 0.030000
11.920924 -0.694831 1.174288 0.110000
11.674500 -1.924694 1.149073 0.090000
13.525077 -5.870445 1.274237 0.040000
9.897902 3.760934 0.170560 0.120000
7.744545 1.808835 0.297684 0.050000
10.331461 1.493892 0.148265 0.080000
10.471188 0.466404 0.139810 0.030000
10.211059 -0.573780 0.140264 0.030000
9.894886 -1.560027 0.140772 0.030000
9.579231 -2.571215 0.126189 0.030000
8.946776 -3.493509 0.126110 0.070000
41.946339 19.411787 8.682483 0.030000
7.288697 1.670406 1.570993 0.110000
41.988091 7.183764 7.727127 0.070000
42.431244 -3.123800 7.479964 0.070000
11.356875 -3.250063 2.248328 0.000000
45.286564 -22.872538 8.759018 0.060000
29.525414 13.150131 2.536721 0.240000
7.296011 1.637850 0.940884 0.120000
13.189992 1.964669 1.262488 0.010000
31.345144 1.473835 2.248063 0.030000
11.891774 -0.735286 1.144061 0.110000
13.433563 -3.956621 1.216112 0.010000
13.546671 -5.949954 1.248997 0.030000
9.636031 3.595908 0.164263 0.120000
7.730161 1.778610 0.282534 0.100000
10.092860 1.419327 0.142364 0.070000
10.182008 0.420858 0.138885 0.030000
10.001398 -0.592780 0.134646 0.030000
9.644454 -1.539820 0.140194 0.030000
9.318035 -2.511206 0.125731 0.020000
8.745486 -3.427334 0.120831 0.060000
42.045139 19.229033 8.577061 0.060000
7.299213 1.645658 1.555928 0.110000
11.174047 1.602549 2.195889 0.010000
39.737614 1.802188 7.026240 0.040000
47.656464 -3.716675 8.266408 0.050000
11.382977 -3.304500 2.228194 0.000000
44.983227 -22.937717 8.582982 0.090000
7.285450 2.447736 0.958868 0.020000
7.316417 1.618274 0.930865 0.160000
13.180922 1.919579 1.237296 0.000000
13.232725 0.525434 1.202248 0.010000
11.912602 -0.774803 1.118968 0.100000
9.369256 3.425787 0.157934 0.120000
9.784451 1.333405 0.141240 0.080000
9.932834 0.376096 0.133069 0.030000
9.706467 -0.598411 0.128855 0.030000
9.384036 -1.519786 0.134589 0.020000
9.001465 -2.432255 0.125198 0.030000
8.382475 -3.274277 0.125452 0.070000
40.761936 18.395758 8.175609 0.080000
7.289733 1.620527 1.540810 0.130000
11.224569 1.578586 2.175931 0.050000
39.720478 1.667221 6.920692 0.040000
42.637970 -3.449275 7.309292 0.060000
11.348540 -3.330054 2.198008 0.010000
44.846329 -23.079813 8.432095 0.060000
7.355381 2.454131 0.944074 0.050000
7.346737 1.603907 0.915890 0.460000
15.813473 2.319718 1.340656 0.010000
31.344791 1.254395 2.082245 0.040000
11.913242 -0.804704 1.093859 0.110000
13.374039 -2.407249 1.156715 0.020000
13.445838 -4.066167 1.150736 0.010000
13.559247 -6.074478 1.178566 0.020000
9.052670 3.244692 0.156435 0.120000
9.332273 2.224885 0.148374 0.040000
9.525853 1.258458 0.135286 0.080000
9.633465 0.340357 0.132154 0.030000
9.456513 -0.603199 0.128185 0.020000
9.103322 -1.485156 0.133985 0.020000
8.719984 -2.357633 0.124741 0.030000
8.186087 -3.203007 0.120204 0.070000
41.459641 18.524199 8.162908 0.090000
7.349844 1.616714 1.530952 0.480000
11.260299 1.544356 2.150897 0.100000
40.213177 1.536780 6.881493 0.010000
47.413273 -4.030233 7.949604 0.060000
11.334306 -3.365204 2.162840 0.020000
44.906471 -23.328192 8.291327 0.080000
7.311304 2.408352 0.923788 0.100000
7.327272 1.578603 0.895745 0.510000
15.281138 2.184738 1.273764 0.000000
31.371830 1.160208 1.996964 0.040000
11.918990 -0.839490 1.063744 0.100000
15.511407 -4.866951 1.208151 0.010000
8.800508 3.094854 0.150220 0.100000
9.029631 2.099066 0.147116 0.040000
9.167358 1.176578 0.134046 0.070000
9.349216 0.299942 0.121262 0.030000
9.116398 -0.599694 0.122310 0.030000
8.812528 -1.445699 0.128372 0.020000
8.443612 -2.287895 0.119278 0.030000
7.934039 -3.097798 0.114937 0.070000
41.047665 18.137175 7.905391 0.050000
7.290604 1.580683 1.500664 0.490000
11.206180 1.503459 2.110604 0.290000
39.891113 1.406268 6.695165 0.020000
43.104706 -3.769697 7.119318 0.130000
44.335476 -9.578178 7.380940 0.000000
11.314867 -3.390471 2.132695 0.040000
45.016651 -23.580687 8.170675 0.050000
7.292030 2.373050 0.903607 0.150000
7.307807 1.553299 0.875600 0.440000
11.189551 1.477059 1.040451 0.010000
13.230094 0.415731 1.101833 0.010000
11.929738 -0.874181 1.033643 0.100000
13.462852 -4.160583 1.075428 0.020000
13.586859 -6.198660 1.093176 0.020000
8.518435 2.939425 0.148906 0.110000
8.741613 1.993550 0.140972 0.040000
8.893655 1.106323 0.133071 0.070000
9.004745 0.268321 0.125245 0.030000
8.856256 -0.594675 0.121650 0.030000
8.521624 -1.401263 0.127778 0.030000
8.172033 -2.208082 0.118866 0.030000
7.737460 -3.016530 0.109726 0.060000
40.972027 17.931276 7.744426 0.040000
7.291039 1.560761 1.480590 0.520000
11.117176 1.456911 2.065198 0.240000
40.078529 1.295186 6.600241 0.020000
48.255650 -4.383540 7.780488 0.050000
44.348534 -9.717422 7.235456 0.010000
11.335803 -3.434968 2.102584 0.030000
47.768879 -25.279396 8.476547 0.040000
7.292370 2.358127 0.883552 0.150000
7.313146 1.538472 0.855559 0.300000
11.140323 1.441238 1.005189 0.030000
31.405878 0.976542 1.801369 0.030000
11.970492 -0.908278 0.998622 0.090000
13.416713 -2.531050 1.046365 0.020000
15.518583 -4.966465 1.107799 0.010000
13.603027 -6.253195 1.048015 0.010000
8.256181 2.794395 0.142682 0.100000
8.498397 1.898894 0.134985 0.040000
8.604763 1.045780 0.132091 0.070000
8.715279 0.237772 0.124376 0.030000
8.505938 -0.581382 0.120785 0.030000
8.255824 -1.361328 0.122232 0.020000
7.900455 -2.128269 0.118454 0.030000
7.535786 -2.930358 0.104520 0.070000
41.267982 17.902416 7.615090 0.070000
7.291475 1.540839 1.460517 0.570000
11.092860 1.426587 2.025021 0.180000
40.205940 1.188065 6.475173 0.040000
43.816269 -4.080464 6.940018 0.100000
44.336334 -9.842109 7.079958 0.020000
11.381736 -3.478986 2.072540 0.030000
47.747623 -25.449154 8.290859 0.050000
7.302707 2.343396 0.863524 0.180000
7.308569 1.518436 0.840472 0.420000
11.110994 1.410800 0.969999 0.080000
12.011042 -0.932395 0.968638 0.050000
13.387315 -2.556453 1.001194 0.050000
15.554856 -5.025597 1.057673 0.010000
13.588832 -6.288290 0.997847 0.020000
7.988832 2.654268 0.136463 0.100000
8.205368 1.793263 0.133828 0.040000
8.330881 0.985542 0.126153 0.080000
8.425730 0.212241 0.118525 0.030000
8.235701 -0.571556 0.120116 0.030000
8.000010 -1.321220 0.121714 0.020000
7.714449 -2.076804 0.113160 0.030000
7.344110 -2.843996 0.099341 0.070000
43.540813 18.790331 7.834326 0.070000
7.276926 1.520649 1.435404 0.290000
40.672680 1.112265 6.401110 0.060000
40.613041 -3.854479 6.307490 0.090000
44.373856 -9.950823 6.919651 0.020000
11.311770 -3.475160 2.027371 0.030000
7.283256 2.318111 0.838379 0.370000
7.313812 1.508608 0.820449 0.500000
11.076571 1.385264 0.934814 0.120000
13.242130 0.326386 0.981531 0.000000
13.118915 -1.071184 0.966014 0.070000
13.392993 -2.586203 0.961097 0.020000
11.359751 -3.470042 0.882504 0.010000
13.569541 -6.318481 0.947684 0.020000
7.736274 2.524408 0.135321 0.110000
7.971945 1.708778 0.132904 0.040000
8.056987 0.925286 0.125214 0.090000
8.156163 0.187074 0.117728 0.030000
8.005565 -0.565944 0.114536 0.040000
7.779297 -1.285423 0.116271 0.030000
7.528443 -2.025339 0.107865 0.030000
7.132233 -2.748037 0.099145 0.070000
50.938385 21.973793 8.895480 0.100000
40.674999 1.012861 6.245744 0.070000
40.685429 -3.957561 6.157294 0.110000
44.441574 -10.068941 6.754387 0.000000
11.352621 -3.514256 1.992332 0.030000
7.328299 2.319047 0.818500 0.550000
11.087045 1.365589 0.899768 0.160000
13.252712 0.301731 0.941466 0.000000
13.074314 -1.086894 0.925839 0.110000
11.350240 -3.490081 0.842404 0.030000
13.620908 -6.382325 0.897580 0.050000
7.508521 2.405025 0.134283 0.110000
7.718526 1.623909 0.131927 0.040000
7.842793 0.881176 0.124490 0.090000
7.916399 0.172479 0.117048 0.030000
7.775225 -0.550352 0.113993 0.030000
7.618765 -1.258474 0.110952 0.030000
7.307047 -1.954567 0.107551 0.030000
6.945460 -2.656579 0.093997 0.070000
44.488758 18.939375 7.602352 0.060000
7.282509 1.495898 1.395326 0.130000
11.174148 1.373482 1.930035 0.090000
40.671940 0.933356 6.090439 0.050000
46.357674 -4.631358 6.799602 0.110000
41.766792 -9.508089 6.209484 0.020000
11.363189 -3.538930 1.957268 0.030000
43.142864 -23.232092 6.962067 0.040000
7.288947 2.288380 0.793283 0.550000
11.077520 1.345532 0.864668 0.150000
30.932302 0.699055 1.354096 0.000000
13.089909 -1.111435 0.880788 0.110000
13.369095 -2.631338 0.870866 0.020000
11.315447 -3.495602 0.802292 0.050000
7.265770 2.285355 0.133204 0.110000
7.539735 1.560511 0.121225 0.040000
7.618615 0.836893 0.118741 0.080000
7.711739 0.153575 0.111444 0.040000
7.585082 -0.543974 0.108520 0.030000
7.367854 -1.213271 0.110465 0.030000
7.130956 -1.897892 0.097301 0.030000
6.748580 -2.560333 0.093841 0.070000
45.458244 19.243179 7.556012 0.070000
7.297750 1.486261 1.375330 0.110000
11.174635 1.353635 1.889962 0.230000
40.728565 0.869980 5.940350 0.030000
46.349663 -4.710884 6.624284 0.110000
41.748665 -9.582844 6.044157 0.020000
11.383864 -3.568393 1.917212 0.030000
43.160275 -23.331079 6.771743 0.020000
7.304092 2.283742 0.773305 0.580000
11.052904 1.330186 0.829546 0.110000
30.973457 0.655257 1.239040 0.000000
13.080315 -1.126456 0.835706 0.130000
13.409781 -2.660399 0.825864 0.060000
11.290748 -3.505930 0.762189 0.160000
15.720433 -7.632062 0.823414 0.080000
7.077543 2.191752 0.127365 0.120000
7.311120 1.486119 0.120351 0.040000
7.419323 0.798070 0.118076 0.100000
7.491971 0.139363 0.110817 0.030000
7.349742 -0.528479 0.107963 0.040000
7.157031 -1.172302 0.110067 0.040000
6.934651 -1.831640 0.097035 0.040000
6.561699 -2.463895 0.093711 0.080000
7.282534 2.276000 1.408226 0.000000
7.283010 1.476069 1.350253 0.230000
11.130131 1.332926 1.849769 0.410000
43.488651 0.862068 6.157527 0.050000
40.875923 -4.182376 5.726951 0.120000
39.701080 -9.145387 5.605434 0.030000
11.359070 -3.573722 1.877127 0.050000
7.289543 2.263552 0.748192 0.570000
17.770100 4.393951 0.973470 0.060000
11.078291 1.315816 0.789559 0.100000
13.264116 0.247435 0.806293 0.000000
13.100907 -1.150901 0.790669 0.120000
13.375109 -2.670882 0.775734 0.040000
11.180393 -3.482893 0.721986 0.160000
15.711083 -7.657007 0.758296 0.370000
6.899123 2.108339 0.121589 0.110000
7.112307 1.422300 0.119595 0.040000
7.220044 0.759265 0.112412 0.100000
7.272108 0.130151 0.110209 0.040000
7.144397 -0.512409 0.107487 0.040000
6.951207 -1.131236 0.109682 0.040000
6.748440 -1.770196 0.096778 0.040000
6.395114 -2.382052 0.088581 0.080000
7.277805 2.266017 1.378177 0.010000
7.313152 1.471719 1.330316 0.460000
11.030772 1.306220 1.794409 0.520000
40.536694 0.752531 5.599409 0.040000
41.077702 -4.252992 5.582214 0.070000
39.611935 -9.166455 5.430121 0.030000
11.359474 -3.588552 1.832072 0.060000
7.279802 2.253455 0.723128 0.470000
17.900053 4.406680 0.908856 0.050000
11.068576 1.305757 0.754496 0.290000
13.294516 0.233179 0.761319 0.000000
13.111298 -1.165558 0.750641 0.130000
11.160598 -3.488126 0.681915 0.240000
15.706637 -7.676857 0.693210 1.644000
6.735686 2.025194 0.120853 0.120000
6.943309 1.369073 0.113956 0.040000
7.015657 0.725344 0.111752 0.110000
7.097345 0.116820 0.104703 0.040000
6.969143 -0.500763 0.107073 0.040000
6.795578 -1.099193 0.104395 0.040000
6.577227 -1.708464 0.096560 0.040000
6.243514 -2.299941 0.088490 0.080000
7.317645 2.276837 1.363321 0.020000
7.288413 1.461335 1.305212 0.140000
11.031055 1.296352 1.759373 0.720000
40.532948 0.708001 5.449232 0.040000
52.265995 -5.533400 6.821671 0.110000
38.990326 -9.057534 5.208901 0.040000
11.354675 -3.593498 1.792041 0.050000
17.995012 4.418739 0.844148 0.070000
11.028962 1.290124 0.719334 0.380000
13.249833 0.222487 0.716162 0.000000
13.071531 -1.171138 0.700516 0.080000
11.130708 -3.488552 0.641834 0.240000
15.676813 -7.677190 0.628130 4.119000
6.552254 1.941666 0.120064 0.120000
6.754399 1.310444 0.113245 0.040000
6.876080 0.702686 0.106303 0.100000
6.892371 0.112875 0.109153 0.040000
6.793792 -0.484118 0.106677 0.040000
6.649935 -1.066976 0.104135 0.030000
6.395906 -1.641943 0.101334 0.040000
6.117291 -2.237347 0.088394 0.070000
7.342692 2.277390 1.343388 0.060000
7.303558 1.456697 1.285234 0.100000
11.031351 1.286502 1.719337 0.740000
36.136051 0.601305 4.747351 0.040000
52.317383 -5.576672 6.616642 0.250000
39.016411 -9.091455 5.048841 0.030000
11.349973 -3.603443 1.751991 0.050000
84.713669 -47.511517 11.420370 0.040000
13.120634 3.050530 0.721337 0.030000
11.014261 1.279987 0.679257 0.520000
12.986665 -1.172598 0.655288 0.050000
16.697292 -3.516893 0.641259 0.010000
11.206564 -3.526959 0.601889 0.300000
6.398637 1.868730 0.114392 0.120000
6.595291 1.262389 0.112651 0.040000
6.676679 0.668842 0.110657 0.090000
6.747507 0.105118 0.103746 0.040000
6.628536 -0.472281 0.106290 0.040000
6.459095 -1.025642 0.108790 0.030000
6.259986 -1.594519 0.096156 0.040000
5.950598 -2.150525 0.088281 0.080000
7.293272 2.251568 1.308162 0.170000
7.288831 1.446524 1.255158 0.120000
11.026539 1.281538 1.684305 0.830000
36.161877 0.577290 4.612328 0.050000
57.449074 -6.189838 6.992763 0.140000
39.509659 -9.241650 4.944570 0.030000
11.335093 -3.603563 1.706951 0.060000
13.125834 3.045776 0.681333 0.030000
11.024446 1.275310 0.644266 0.700000
13.006957 -1.182065 0.615306 0.040000
16.717720 -3.531302 0.586259 0.020000
11.196767 -3.532001 0.561845 0.220000
6.259813 1.806060 0.113796 0.110000
6.416283 1.208951 0.111985 0.040000
6.522187 0.640879 0.110150 0.100000
6.587633 0.097054 0.103299 0.030000
6.478276 -0.460157 0.105942 0.040000
6.328557 -0.998119 0.103552 0.030000
6.078666 -1.527999 0.100930 0.040000
5.803983 -2.068336 0.093204 0.080000
7.323223 2.257215 1.288261 0.360000
7.288883 1.446598 1.235158 0.120000
11.036725 1.276860 1.649314 0.870000
37.157249 0.571462 4.584904 0.020000
40.625740 -4.319130 4.890781 0.210000
39.409916 -9.232953 4.779340 0.020000
11.325199 -3.603606 1.666925 0.060000
13.121157 3.035868 0.631283 0.020000
11.019634 1.270345 0.609235 0.700000
13.067255 -1.190746 0.570430 0.040000
16.823542 -3.564043 0.521413 0.030000
11.252339 -3.555794 0.521901 0.370000
6.076272 1.727512 0.118025 0.110000
6.252163 1.160781 0.116378 0.040000
6.342604 0.617435 0.109594 0.090000
6.407653 0.093589 0.107816 0.040000
6.327921 -0.443033 0.105614 0.040000
6.177915 -0.965998 0.103278 0.030000
5.957730 -1.480306 0.100791 0.040000
5.677665 -2.000744 0.093126 0.080000
7.268791 2.231278 1.258023 0.410000
7.294031 1.441769 1.215153 0.140000
11.031926 1.271914 1.609283 0.840000
36.213161 0.549276 4.337355 0.050000
39.774498 -4.229555 4.653890 0.170000
39.204453 -9.186238 4.603976 0.010000
11.345491 -3.613072 1.626942 0.060000
13.141174 3.041417 0.586356 0.020000
11.014835 1.265399 0.569203 0.760000
17.210434 0.259152 0.506634 0.000000
13.142659 -1.204121 0.520577 0.050000
5.947363 1.670052 0.112475 0.100000
6.097958 1.117820 0.115816 0.030000
6.188003 0.594452 0.114105 0.090000
6.252682 0.090620 0.107401 0.040000
6.162569 -0.426197 0.105245 0.040000
6.067360 -0.938111 0.103093 0.030000
5.836890 -1.437613 0.100635 0.040000
5.576534 -1.942670 0.093077 0.080000
7.283744 2.236639 1.238081 0.420000
7.328885 1.452512 1.195284 0.380000
11.032017 1.272044 1.574283 0.930000
35.144001 0.529694 4.089489 0.040000
39.810101 -4.238288 4.493948 0.090000
11.320422 -3.603385 1.581913 0.060000
14.700702 5.436910 0.544331 0.100000
13.126390 3.036298 0.541298 0.030000
11.019926 1.265625 0.534217 0.760000
17.860563 0.266824 0.448359 0.000000
13.172853 -1.208397 0.480639 0.070000
13.422303 -2.738780 0.445601 0.010000
11.282939 -3.574900 0.436909 0.110000
5.798624 1.602173 0.116835 0.100000
5.968557 1.085336 0.115357 0.030000
6.048316 0.576774 0.113675 0.090000
6.112708 0.087939 0.107026 0.040000
6.037305 -0.413594 0.104964 0.040000
5.926716 -0.905799 0.102846 0.030000
5.736156 -1.399517 0.095513 0.040000
5.470417 -1.884674 0.088016 0.080000
7.283918 2.231752 1.208063 0.490000
7.289162 1.441859 1.165140 0.490000
11.022232 1.267021 1.529239 0.940000
35.104439 0.529542 3.924383 0.050000
41.093250 -4.383556 4.446757 0.220000
40.235130 -9.440701 4.375718 0.010000
11.330524 -3.603045 1.541940 0.050000
14.690969 5.431961 0.479287 0.070000
13.131520 3.036580 0.491312 0.020000
11.020018 1.265755 0.499217 0.700000
18.465660 0.278708 0.369982 0.000000
13.172984 -1.208211 0.430640 0.060000
13.477697 -2.752557 0.400694 0.020000
11.126814 -3.512751 0.401732 0.190000
11.375410 -5.258152 0.355892 0.070000
5.674509 1.554788 0.116335 0.100000
5.834253 1.047757 0.114867 0.030000
5.953635 0.559976 0.108365 0.080000
6.002729 0.085832 0.106731 0.030000
5.932037 -0.400608 0.104738 0.050000
5.836267 -0.882508 0.097696 0.030000
5.620219 -1.351729 0.095388 0.050000
5.389570 -1.841215 0.087967 0.090000
7.293873 2.237016 1.188109 0.460000
7.289310 1.436934 1.145122 0.500000
11.022324 1.267151 1.494239 1.030000
35.009823 0.528243 3.784130 0.060000
13.169991 -1.222744 1.650591 0.050000
40.295826 -9.453954 4.215825 0.020000
11.310454 -3.593263 1.496923 0.070000
13.096848 3.026097 0.441182 0.030000
11.025121 1.265999 0.459231 0.670000
13.281129 0.199237 0.401154 0.000000
13.218189 -1.212181 0.385743 0.040000
11.071449 -3.488660 0.361677 0.320000
11.314856 -5.224158 0.315860 0.080000
5.580293 1.512976 0.115933 0.110000
5.719837 1.015542 0.119448 0.030000
5.843847 0.547871 0.108034 0.080000
5.887750 0.083630 0.106422 0.040000
5.826769 -0.387621 0.104511 0.050000
5.735806 -0.859428 0.097520 0.030000
5.514376 -1.308748 0.095272 0.060000
5.308640 -1.792737 0.082935 0.090000
7.299277 1.442218 1.120168 0.550000
11.042315 1.272663 1.459311 0.930000
35.044964 0.539394 3.654262 0.030000
13.149934 -1.212943 1.600574 0.300000
40.280670 -9.423652 4.055897 0.010000
11.315557 -3.593019 1.456937 0.100000
13.054215 4.735766 0.397425 0.030000
13.116674 3.041645 0.396291 0.050000
11.015119 1.270937 0.424223 0.690000
13.246143 0.203714 0.361079 0.000000
13.158017 -1.198184 0.345637 0.050000
16.397186 -3.456108 0.225698 0.040000
11.076553 -3.488416 0.321690 0.300000
11.309782 -5.214089 0.270884 0.240000
5.471176 1.465878 0.115473 0.090000
5.645164 0.999146 0.109192 0.030000
5.724157 0.530576 0.107657 0.090000
5.802683 0.087020 0.101213 0.040000
5.716502 -0.374731 0.104271 0.050000
5.665354 -0.835755 0.092424 0.040000
5.463920 -1.284692 0.090229 0.050000
5.212495 -1.734587 0.087901 0.080000
7.283896 2.241991 1.143101 0.120000
7.299234 1.447291 1.100186 0.510000
11.027314 1.277505 1.424290 0.990000
36.064384 0.584054 3.622088 0.050000
13.084776 -1.199024 1.555456 1.000000
17.709637 -3.812342 1.947817 0.000000
11.320374 -3.577777 1.417006 0.110000
55.535450 -30.615761 5.521953 0.020000
11.020030 1.281180 0.384274 0.410000
16.945869 0.275169 0.211000 0.000000
14.884734 -3.079971 0.213148 0.030000
11.061360 -3.473576 0.286705 0.290000
5.416500 1.449864 0.105271 0.100000
5.545649 0.972217 0.113833 0.030000
5.629257 0.523739 0.112384 0.080000
5.712605 0.090295 0.100990 0.040000
5.631231 -0.361362 0.104099 0.050000
5.589984 -0.817195 0.092296 0.030000
5.363172 -1.246615 0.090108 0.050000
5.136564 -1.686014 0.082883 0.090000
7.298767 2.252370 1.118178 0.110000
7.299191 1.452365 1.080205 0.470000
11.027226 1.287652 1.384327 0.950000
35.304485 0.600255 3.415163 0.030000
13.059624 -1.184320 1.505444 0.580000
17.634163 -3.778525 1.877745 0.000000
11.295208 -3.563091 1.371994 0.110000
55.590412 -30.578804 5.277231 0.060000
14.646098 5.456949 0.249260 0.040000
15.185973 3.641968 0.243922 0.040000
11.019917 1.291289 0.354311 0.220000
15.510768 0.267702 0.202226 0.010000
13.117767 -1.173639 0.260623 0.010000
13.261579 -2.671021 0.220431 0.020000
11.056165 -3.458544 0.251747 0.230000
5.322176 1.413033 0.109888 0.090000
5.470963 0.955802 0.108577 0.030000
5.564378 0.517513 0.107191 0.070000
5.632619 0.088763 0.100775 0.030000
5.571064 -0.352494 0.098974 0.050000
5.504521 -0.793828 0.092160 0.030000
5.297513 -1.212867 0.090062 0.050000
5.080904 -1.652074 0.082864 0.100000
7.283822 2.252157 1.098138 0.110000
11.066997 1.303508 1.359489 0.570000
31.535496 0.569571 2.995206 0.010000
13.044443 -1.169461 1.465459 0.530000
11.310009 -3.547677 1.337090 0.090000
55.649166 -30.481836 5.052743 0.100000
13.291700 4.890910 0.243620 0.050000
14.106197 3.361294 0.225060 0.040000
10.974921 1.295557 0.319209 0.170000
14.210641 0.262820 0.193814 0.010000
13.067402 -1.149453 0.220581 0.010000
12.984888 -2.581194 0.190043 0.050000
11.176835 -3.486073 0.206960 0.180000
10.899658 -4.936528 0.170844 0.060000
5.237670 1.386410 0.109568 0.090000
5.391266 0.939273 0.108307 0.030000
5.479490 0.510887 0.106945 0.080000
5.542541 0.092038 0.100552 0.030000
5.480697 -0.334221 0.098806 0.050000
5.423962 -0.765366 0.092056 0.030000
5.226952 -1.184213 0.089984 0.050000
5.020053 -1.608232 0.082868 0.100000
7.283683 2.262229 1.078175 0.160000
7.299007 1.467511 1.040260 0.140000
11.156567 1.330320 1.334822 0.710000
31.499817 0.619282 2.890297 0.010000
13.059244 -1.154047 1.430555 0.650000
11.309800 -3.532568 1.307145 0.060000
55.738300 -30.404291 4.828261 0.080000
12.636666 4.628392 0.220934 0.060000
13.235315 3.139612 0.211963 0.050000
10.969713 1.310569 0.289251 0.130000
13.425526 0.262820 0.181765 0.010000
11.984716 -1.020183 0.223235 0.010000
12.236017 -2.385484 0.183815 0.040000
10.429118 -4.650452 0.160679 0.050000
5.173174 1.360188 0.104302 0.100000
5.311568 0.922743 0.108038 0.030000
5.414611 0.504661 0.101752 0.080000
5.477470 0.095811 0.095397 0.030000
5.355311 -0.316656 0.108545 0.080000
5.343497 -0.741903 0.091933 0.040000
5.166292 -1.150369 0.089952 0.070000
4.974499 -1.579081 0.077857 0.120000
7.313251 2.287873 1.058347 0.400000
7.293856 1.477469 1.025284 0.140000
11.186255 1.351002 1.304977 0.560000
31.499012 0.674624 2.795500 0.010000
13.043859 -1.129208 1.395607 0.440000
17.803865 -3.739700 1.723331 0.000000
11.324506 -3.512155 1.272259 0.030000
51.085411 -27.610891 4.276495 0.020000
11.981703 4.360838 0.208230 0.060000
12.553535 2.966561 0.199540 0.050000
10.969408 1.330677 0.259324 0.150000
12.670284 0.268357 0.179814 0.010000
11.954322 -0.995651 0.193247 0.020000
11.657880 -2.226509 0.177897 0.040000
10.843757 -3.322258 0.161699 0.050000
10.155759 -4.475602 0.145615 0.050000
5.108474 1.343946 0.104073 0.100000
5.266590 0.921900 0.102917 0.030000
5.319712 0.497824 0.106479 0.050000
5.432287 0.104947 0.095313 0.030000
5.360253 -0.311506 0.093576 0.210000
5.283125 -0.723056 0.091845 0.030000
5.115836 -1.126312 0.084909 0.080000
4.933849 -1.544835 0.072879 0.120000
7.293211 2.292564 1.038312 0.430000
7.298716 1.487637 1.005334 0.130000
11.161052 1.365632 1.274965 0.500000
31.418234 0.728454 2.695488 0.040000
12.973402 -1.100406 1.355529 0.420000
17.928850 -3.732158 1.683685 0.000000
11.455564 4.155762 0.196094 0.060000
12.025864 2.841470 0.187697 0.050000
10.949203 1.345403 0.229326 0.160000
12.130124 0.273050 0.168421 0.010000
11.848832 -0.967575 0.168075 0.020000
11.220496 -2.104828 0.167208 0.040000
10.460501 -3.154532 0.151322 0.040000
9.776148 -4.237811 0.140508 0.050000
5.063687 1.333105 0.098916 0.100000
5.191891 0.905467 0.102661 0.030000
5.299633 0.502459 0.101444 0.040000
5.352206 0.108414 0.095116 0.020000
5.304976 -0.297562 0.093484 0.390000
5.222658 -0.699209 0.091776 0.050000
5.075364 -1.102083 0.084894 0.090000
4.878080 -1.505914 0.077878 0.120000
7.297865 2.312711 1.023399 0.480000
7.308370 1.507880 0.990434 0.130000
11.150748 1.385548 1.245012 0.550000
31.417141 0.798793 2.600745 0.030000
13.028088 -1.079245 1.325750 0.500000
17.983383 -3.700943 1.638943 0.000000
33.394711 -11.855936 2.658866 0.040000
10.949217 3.961049 0.189049 0.060000
11.503082 2.721455 0.180886 0.060000
11.143287 1.399239 0.200032 0.130000
11.689740 0.289637 0.162334 0.010000
11.382399 -0.896477 0.162122 0.020000
10.838282 -1.992110 0.161629 0.040000
10.132508 -3.000768 0.146037 0.040000
9.487477 -4.048288 0.135459 0.060000
5.003986 1.316959 0.098700 0.090000
5.151898 0.904701 0.102554 0.030000
5.219647 0.500927 0.101230 0.040000
5.312022 0.117646 0.095046 0.020000
5.157191 -0.675459 0.091693 0.060000
5.045000 -1.082643 0.079887 0.120000
4.837512 -1.476686 0.077880 0.120000
7.317422 2.338145 1.008544 0.540000
7.347813 1.538678 0.980651 0.320000
11.165223 1.415904 1.225162 0.400000
31.490585 0.890473 2.531277 0.010000
13.052586 -1.048660 1.295928 0.380000
18.173330 -3.692194 1.609471 0.000000
33.362461 -11.726200 2.569263 0.020000
13.598204 -6.304396 1.347815 0.010000
10.576695 3.828909 0.182585 0.070000
11.099691 2.633714 0.179507 0.050000
11.152775 1.429518 0.175169 0.080000
11.339436 0.302949 0.156469 0.010000
11.026124 -0.833289 0.161427 0.020000
10.501154 -1.883529 0.156153 0.050000
9.900265 -2.885177 0.140860 0.050000
9.224091 -3.873283 0.130422 0.060000
4.954187 1.306003 0.098529 0.080000
5.092005 0.898552 0.102375 0.030000
5.194570 0.505466 0.096181 0.040000
5.246938 0.121401 0.094890 0.020000
5.209515 -0.274386 0.093321 0.060000
5.116815 -0.656229 0.091660 0.050000
5.004419 -1.053433 0.084890 0.100000
4.812051 -1.452151 0.072905 0.130000
7.302272 2.347912 0.993541 0.500000
7.297875 1.537795 0.960518 0.470000
31.419165 0.974395 2.456402 0.050000
11.980051 -0.913847 1.203628 0.500000
13.381298 -2.542592 1.281232 0.000000
13.467864 -4.191281 1.290330 0.010000
13.571959 -6.234758 1.313005 0.020000
10.248878 3.712629 0.176297 0.070000
10.751016 2.562042 0.173331 0.060000
10.999033 0.321451 0.150649 0.010000
10.730042 -0.778931 0.155856 0.020000
10.274675 -1.807834 0.150843 0.050000
9.668022 -2.769586 0.135684 0.050000
9.016159 -3.722239 0.130441 0.060000
4.919289 1.300334 0.098417 0.080000
5.052013 0.897786 0.102267 0.030000
5.154481 0.509699 0.096092 0.040000
5.221655 0.135919 0.094878 0.010000
5.169235 -0.260155 0.093269 0.040000
5.091532 -0.641710 0.091648 0.060000
4.974055 -1.033993 0.079883 0.110000
4.791480 -1.422540 0.072962 0.130000
7.321624 2.383326 0.983723 0.360000
7.307516 1.558020 0.950618 0.480000
31.397518 1.069235 2.391697 0.110000
11.959436 -0.879163 1.183703 0.660000
13.435874 -2.516451 1.256472 0.000000
13.466971 -4.141197 1.265513 0.010000
13.550699 -6.165043 1.283209 0.030000
10.024987 3.653349 0.170492 0.080000
10.496747 2.522184 0.167519 0.060000
10.768514 0.347059 0.145142 0.010000
10.509056 -0.728118 0.145468 0.020000
10.078193 -1.731565 0.145613 0.050000
9.526432 -2.687265 0.130620 0.050000
8.843713 -3.595500 0.125462 0.060000
4.889295 1.299759 0.098337 0.070000
5.021923 0.902211 0.102205 0.030000
5.109381 0.513817 0.100990 0.030000
5.186470 0.145247 0.094821 0.010000
5.123847 -0.241039 0.098221 0.040000
5.066154 -0.622193 0.091654 0.050000
4.943568 -1.009591 0.084894 0.110000
4.776100 -1.402831 0.072995 0.130000
7.301366 2.397977 0.973724 0.610000
7.307063 1.583052 0.940710 0.520000
13.223803 0.460014 1.266983 0.020000
11.913622 -0.834977 1.168748 0.690000
13.354695 -2.452921 1.236496 0.010000
13.466065 -4.091133 1.245697 0.000000
13.529414 -6.095365 1.263412 0.030000
9.796275 3.583956 0.169637 0.080000
10.287278 2.493185 0.161864 0.060000
10.492950 1.416952 0.153400 0.020000
10.578084 0.368434 0.139725 0.010000
10.343129 -0.681288 0.145209 0.020000
9.962077 -1.673761 0.140525 0.050000
9.384734 -2.599963 0.130575 0.050000
8.736912 -3.502529 0.125529 0.060000
4.854301 1.299089 0.098243 0.070000
5.001844 0.906845 0.097170 0.020000
5.094205 0.523547 0.095986 0.040000
5.146286 0.154479 0.094750 0.010000
5.118670 -0.231118 0.093245 0.040000
5.030777 -0.602867 0.091633 0.080000
4.948389 -0.999478 0.079944 0.110000
4.765731 -1.383008 0.068041 0.130000
7.321594 1.608353 0.935842 0.380000
13.186391 1.889531 1.277199 0.170000
13.298048 0.501479 1.257330 0.050000
11.912991 -0.799928 1.153876 0.590000
13.353872 -2.407874 1.221661 0.010000
13.523222 -6.030399 1.243637 0.020000
9.612077 3.540421 0.168995 0.080000
7.705989 1.733083 0.297302 0.040000
10.337788 1.423982 0.153021 0.020000
10.417525 0.395346 0.144405 0.010000
10.232287 -0.638403 0.145079 0.020000
9.866055 -1.620572 0.135472 0.050000
9.313610 -2.541296 0.125607 0.050000
8.650216 -3.414156 0.120631 0.070000
4.834113 1.308704 0.098226 0.070000
4.966742 0.911156 0.102094 0.020000
5.064019 0.532970 0.095942 0.040000
5.151106 0.164591 0.089800 0.010000
5.098386 -0.216504 0.093246 0.040000
5.035584 -0.592773 0.091683 0.080000
4.927913 -0.974866 0.079982 0.090000
4.760349 -1.363107 0.068101 0.110000
13.185555 1.934560 1.267364 0.100000
13.237236 0.545378 1.242335 0.020000
11.902251 -0.760090 1.143996 0.660000
13.449039 -3.981329 1.216060 0.000000
13.532013 -5.965164 1.228902 0.010000
9.492399 3.523144 0.163618 0.080000
7.765142 1.779261 0.287628 0.110000
10.252434 1.442369 0.147867 0.020000
10.316982 0.423443 0.139247 0.010000
10.181639 -0.604348 0.140074 0.020000
9.800108 -1.571826 0.135481 0.060000
9.227285 -2.472938 0.125636 0.050000
8.588982 -3.350317 0.120708 0.060000
4.828936 1.318625 0.093249 0.080000
4.961564 0.921077 0.097118 0.020000
5.063827 0.542968 0.095979 0.030000
5.130823 0.179205 0.089802 0.010000
5.078102 -0.201890 0.093247 0.040000
5.035310 -0.577758 0.086738 0.080000
4.932721 -0.964772 0.080032 0.100000
4.754967 -1.343207 0.068161 0.160000
7.310664 1.658189 0.925998 0.130000
31.319164 1.523310 2.258179 0.080000
11.901498 -0.720079 1.139143 0.650000
13.362006 -2.307627 1.202055 0.010000
13.452914 -3.921208 1.206294 0.000000
13.515592 -5.890447 1.224137 0.020000
9.407320 3.526515 0.163408 0.080000
7.699962 1.788014 0.287490 0.110000
10.176969 1.465928 0.147757 0.020000
10.251420 0.452193 0.139183 0.010000
10.130895 -0.565295 0.135086 0.020000
9.754351 -1.532696 0.135507 0.060000
9.166243 -2.419097 0.125677 0.050000
8.562933 -3.295806 0.120843 0.070000
4.798928 1.318032 0.098169 0.070000
4.951374 0.930883 0.097128 0.020000
5.053638 0.552775 0.095989 0.030000
5.115621 0.188898 0.094798 0.010000
5.082910 -0.191796 0.093298 0.040000
5.025012 -0.562971 0.091767 0.080000
4.937446 -0.949661 0.075100 0.090000
4.774976 -1.342805 0.063215 0.150000
7.320183 1.683376 0.926117 0.200000
13.178774 2.029502 1.252699 0.030000
13.235442 0.640397 1.232683 0.010000
11.930739 -0.679494 1.134370 0.550000
11.704502 -1.918972 1.109172 0.020000
13.431685 -3.856585 1.201478 0.000000
13.534451 -5.830057 1.219411 0.040000
9.337141 3.535173 0.163257 0.080000
10.116501 1.489774 0.147688 0.020000
10.230753 0.486803 0.139258 0.010000
10.110215 -0.530703 0.140161 0.020000
9.728588 -1.493182 0.135587 0.050000
9.190663 -2.388624 0.125854 0.050000
8.552073 -3.251007 0.120981 0.070000
4.818459 1.343429 0.093314 0.070000
4.941089 0.945689 0.097156 0.020000
5.038353 0.567485 0.096004 0.030000
5.145354 0.204506 0.084934 0.010000
5.072624 -0.176990 0.093326 0.050000
5.039830 -0.552667 0.086844 0.070000
4.942253 -0.939567 0.075150 0.090000
4.764486 -1.318020 0.068280 0.140000
7.344508 1.718848 0.926312 0.460000
13.177720 2.084491 1.252901 0.030000
31.279337 1.777665 2.239021 0.090000
11.944970 -0.639214 1.134557 0.490000
13.450724 -3.806211 1.201715 0.000000
13.523029 -5.755244 1.214659 0.020000
9.336279 3.580164 0.163422 0.100000
7.569686 1.800503 0.292197 0.050000
10.140730 1.530245 0.147902 0.020000
10.225083 0.521701 0.139373 0.010000
10.119555 -0.495500 0.135316 0.020000
9.768006 -1.462422 0.135804 0.060000
9.194991 -2.353535 0.125996 0.050000
8.611870 -3.239859 0.121179 0.080000
4.803270 1.353140 0.093311 0.060000
4.935898 0.955591 0.097179 0.020000
5.048064 0.582673 0.096086 0.030000
5.105144 0.213701 0.094863 0.010000
5.087430 -0.166705 0.093403 0.040000
5.029545 -0.537861 0.086872 0.070000
4.946965 -0.924474 0.075219 0.080000
4.784400 -1.312619 0.063352 0.140000
29.491302 13.639949 2.433451 0.120000
7.329127 1.738557 0.926345 0.430000
13.171763 2.134386 1.253071 0.050000
31.281845 1.907737 2.239511 0.060000
11.592428 -1.811081 1.104280 0.040000
13.424400 -3.736685 1.196905 0.000000
16.762835 -7.304093 1.387360 0.010000
9.345332 3.630365 0.158633 0.080000
7.599023 1.836090 0.287406 0.150000
10.149961 1.570429 0.148075 0.020000
10.274321 0.562669 0.134654 0.010000
10.163877 -0.459645 0.135565 0.020000
9.807437 -1.431643 0.131021 0.060000
9.269799 -2.342082 0.121233 0.050000
8.661682 -3.228885 0.116350 0.060000
4.802886 1.373136 0.093384 0.060000
4.955428 0.980988 0.092324 0.020000
5.037874 0.592480 0.096095 0.030000
5.129865 0.229196 0.089985 0.010000
5.092142 -0.151612 0.093471 0.040000
5.044350 -0.527576 0.086949 0.060000
4.966878 -0.919073 0.070291 0.080000
4.784003 -1.292642 0.068425 0.180000
29.433247 13.798865 2.433891 0.120000
13.150713 2.188993 1.253219 0.070000
13.232568 0.790368 1.233233 0.020000
12.608988 -0.586616 1.171486 0.720000
11.531302 -1.752223 1.099339 0.030000
13.438235 -3.676427 1.202165 0.000000
13.540247 -5.609889 1.215244 0.020000
9.379080 3.696023 0.158965 0.090000
7.553635 1.855206 0.292358 0.100000
10.198912 1.626395 0.143411 0.020000
10.333447 0.608810 0.134979 0.010000
10.223194 -0.423502 0.135854 0.020000
9.887039 -1.410115 0.131309 0.060000
9.344498 -2.325649 0.121490 0.060000
7.852739 -2.779555 0.185909 0.080000
4.802503 1.393132 0.093457 0.060000
4.945225 0.990776 0.097334 0.020000
5.062499 0.612974 0.091236 0.030000
5.129578 0.244193 0.090040 0.010000
5.101852 -0.136424 0.093553 0.040000
5.069154 -0.517099 0.087052 0.060000
4.966482 -0.899096 0.075364 0.100000
4.819010 -1.291953 0.063519 0.140000
29.414614 13.983413 2.469528 0.130000
7.312967 1.798240 0.931525 0.120000
13.164521 2.249213 1.268479 0.110000
13.221490 0.845129 1.243408 0.050000
12.577913 -0.532238 1.181607 0.700000
11.525319 -1.702366 1.109509 0.160000
15.972727 -4.428534 1.345987 0.000000
13.523678 -5.530247 1.230497 0.020000
9.432619 3.772043 0.164387 0.090000
10.287827 1.683089 0.148854 0.020000
10.422568 0.655525 0.135386 0.010000
10.332599 -0.391401 0.136259 0.020000
9.981625 -1.388318 0.136637 0.060000
9.469474 -2.323255 0.121825 0.050000
8.871930 -3.239861 0.116858 0.070000
4.792301 1.402920 0.098467 0.060000
4.944938 1.005773 0.097389 0.020000
5.067198 0.628048 0.096304 0.030000
5.159285 0.259765 0.090175 0.010000
5.121561 -0.121043 0.093661 0.030000
5.073865 -0.502006 0.087121 0.080000
5.006474 -0.898330 0.075471 0.100000
4.823709 -1.276879 0.068587 0.160000
29.386078 14.162770 2.505121 0.130000
7.322378 1.828407 0.936662 0.110000
13.153540 2.298975 1.278635 0.060000
13.215507 0.894987 1.253578 0.060000
12.571943 -0.482362 1.186777 0.790000
11.499245 -1.647892 1.119644 0.180000
13.455879 -3.556141 1.222659 0.000000
13.522120 -5.450299 1.240790 0.010000
9.535588 3.879034 0.165054 0.090000
10.125901 2.825172 0.157677 0.070000
10.421556 1.750662 0.149454 0.020000
10.571678 0.703389 0.135953 0.010000
10.446990 -0.359223 0.141677 0.020000
10.096315 -1.371118 0.137000 0.060000
9.604545 -2.325668 0.122168 0.050000
9.007288 -3.257271 0.117146 0.080000
4.826636 1.438602 0.093689 0.050000
4.949541 1.025846 0.102476 0.020000
5.081811 0.648331 0.096418 0.030000
5.168900 0.279952 0.090276 0.010000
5.121369 -0.111045 0.093698 0.030000
5.113762 -0.496241 0.087246 0.080000
5.016185 -0.883141 0.075553 0.090000
4.863810 -1.281093 0.063676 0.140000
29.313099 14.311234 2.550483 0.090000
7.311874 1.853173 0.946726 0.110000
30.586802 6.059664 2.388132 0.140000
13.204402 0.949710 1.273752 0.020000
12.580932 -0.432254 1.206987 0.780000
11.518435 -1.607572 1.134844 0.230000
13.409411 -3.482073 1.237813 0.000000
13.530724 -5.380195 1.261074 0.040000
9.638543 3.986006 0.170720 0.090000
10.288954 2.928313 0.158486 0.070000
10.565188 1.823426 0.150100 0.020000
10.730581 0.761424 0.141583 0.010000
10.636379 -0.325590 0.142297 0.020000
10.220896 -1.348747 0.142409 0.050000
9.779799 -2.337314 0.122582 0.050000
9.208304 -3.308430 0.117481 0.080000
4.811339 1.453294 0.098704 0.050000
4.998874 1.061816 0.097738 0.020000
5.101425 0.668711 0.096545 0.030000
5.193607 0.295428 0.090398 0.010000
5.171072 -0.095091 0.093887 0.030000
5.118461 -0.481166 0.092315 0.080000
5.071188 -0.882069 0.070701 0.060000
4.878603 -1.270826 0.068753 0.140000
29.319326 14.501203 2.601206 0.120000
7.355882 1.903989 0.957030 0.350000
30.578730 6.214390 2.428687 0.230000
31.182878 2.615434 2.386885 0.120000
12.579838 -0.377321 1.222189 0.750000
11.557526 -1.561871 1.150116 0.220000
13.453284 -3.426315 1.263135 0.020000
13.488776 -5.281036 1.276333 0.080000
9.810732 4.134330 0.171721 0.090000
10.476702 3.046911 0.164417 0.070000
10.778398 1.917489 0.161006 0.020000
10.949472 0.820609 0.147375 0.010000
10.840753 -0.291688 0.147956 0.020000
10.420750 -1.339936 0.147963 0.060000
9.975133 -2.353594 0.128032 0.050000
9.373836 -3.335284 0.122813 0.080000
4.870478 1.499453 0.094030 0.040000
4.988575 1.076603 0.102766 0.020000
5.121025 0.689071 0.101672 0.030000
5.223314 0.311000 0.090533 0.010000
5.200875 -0.084518 0.094004 0.030000
5.163274 -0.470288 0.087472 0.070000
5.085980 -0.871802 0.075778 0.060000
4.918595 -1.270060 0.068860 0.140000
29.295437 14.695560 2.661867 0.130000
7.305674 1.912992 0.966933 0.420000
30.540731 6.363505 2.479142 0.100000
31.140169 2.749457 2.437272 0.120000
12.603919 -0.331925 1.242420 0.750000
11.631872 -1.530533 1.175427 0.110000
13.416801 -3.352074 1.283316 0.010000
10.007711 4.293112 0.177825 0.080000
10.724152 3.181655 0.170564 0.080000
11.061428 2.022928 0.162137 0.020000
11.148273 0.884409 0.153131 0.030000
11.095131 -0.256811 0.148750 0.020000
10.705888 -1.344476 0.148691 0.050000
10.195654 -2.379394 0.133512 0.050000
9.605038 -3.395866 0.123191 0.070000
4.860180 1.514240 0.099058 0.040000
5.008188 1.096982 0.102893 0.020000
5.155648 0.709756 0.096839 0.040000
5.248009 0.326457 0.095655 0.010000
5.235581 -0.068850 0.094153 0.030000
5.188065 -0.459830 0.092576 0.070000
5.125877 -0.866037 0.075903 0.060000
4.963586 -1.269198 0.068981 0.140000
29.252279 14.849485 2.737327 0.140000
7.314962 1.948121 0.982088 0.410000
