# This PCD file was generated using the MATLAB® pcwrite function
# from Computer Vision Toolbox®.
# .PCD v.7 - Point Cloud Data file format
VERSION .7
FIELDS x y z intensity
SIZE 4 4 4 4
TYPE F F F F
COUNT 1 1 1 1
WIDTH 1288
HEIGHT 1
VIEWPOINT 0 0 0 1 0 0 0
POINTS 1288
DATA ascii
11.086021 1.400081 1.034895 0.080000
13.232150 0.305678 1.121429 0.010000
13.408117 -2.611413 1.096045 0.000000
11.264621 -3.482343 1.012211 0.160000
8.102006 3.791563 0.160986 0.060000
8.534966 2.859727 0.148652 0.050000
8.787563 1.944421 0.140909 0.080000
8.989007 1.088128 0.138252 0.030000
9.055982 0.204291 0.125141 0.030000
8.897385 -0.653916 0.126537 0.020000
8.678619 -1.503256 0.122809 0.020000
8.168363 -2.278183 0.123596 0.050000
11.030164 5.694912 2.375728 0.170000
7.395410 2.367646 1.553863 0.200000
7.808900 1.665386 1.567332 0.110000
11.192807 1.423317 2.075270 0.020000
39.945053 0.957680 6.568637 0.190000
43.685589 -4.333708 7.128737 0.020000
44.242672 -9.949893 7.344316 0.010000
11.398536 -3.583976 2.152194 0.090000
13.025427 6.902499 1.250413 0.010000
13.074958 4.848305 1.182906 0.030000
13.136877 3.189363 1.131900 0.000000
11.106096 1.400576 1.004948 0.070000
13.232254 0.305826 1.081430 0.010000
13.053884 -1.082762 1.055802 0.040000
13.403223 -2.611360 1.056031 0.000000
11.239525 -3.472693 0.977181 0.210000
7.830232 3.621346 0.154644 0.070000
8.242416 2.729101 0.147403 0.050000
8.479250 1.853501 0.139766 0.080000
8.699841 1.042600 0.132328 0.030000
8.731138 0.193068 0.124251 0.030000
8.591770 -0.624764 0.125847 0.020000
8.382251 -1.433901 0.117293 0.020000
7.951787 -2.197299 0.118331 0.050000
11.059976 5.710632 2.335864 0.150000
7.395462 2.367720 1.533863 0.200000
7.799063 1.660288 1.542287 0.240000
11.187886 1.423333 2.045257 0.020000
40.674995 0.971772 6.540595 0.190000
48.214008 -4.803989 7.663815 0.020000
44.318352 -9.962877 7.189464 0.010000
11.398544 -3.578828 2.112213 0.080000
13.025558 6.902685 1.200414 0.010000
14.884771 5.652980 1.225622 0.030000
13.137091 3.184531 1.086882 0.000000
11.101188 1.400610 0.969935 0.100000
13.242466 0.301186 1.036439 0.010000
13.134164 -1.091079 1.015980 0.090000
13.433539 -2.620597 1.006076 0.020000
11.244641 -3.472430 0.932195 0.260000
7.558554 3.446131 0.148284 0.070000
7.944880 2.598398 0.141141 0.050000
8.175949 1.762694 0.133637 0.080000
8.395761 0.991768 0.131345 0.020000
8.426291 0.182228 0.123415 0.030000
8.276159 -0.595803 0.125131 0.030000
8.106056 -1.374180 0.116794 0.020000
7.705013 -2.107009 0.118023 0.050000
11.099868 5.721527 2.301008 0.110000
7.390719 2.357719 1.508814 0.200000
7.838999 1.666109 1.527413 0.370000
11.168186 1.413100 2.005167 0.030000
40.670746 0.952200 6.400509 0.220000
51.420868 -5.173738 7.970814 0.020000
11.393745 -3.583775 2.072182 0.090000
13.016073 6.882683 1.150314 0.030000
14.825692 5.612042 1.170315 0.080000
17.304764 4.374174 1.207185 0.010000
11.116372 1.396028 0.934958 0.080000
31.420740 0.747428 1.625554 0.060000
13.074280 -1.092079 0.975820 0.140000
13.398664 -2.621100 0.960982 0.050000
11.219738 -3.472779 0.897128 0.330000
7.326376 3.296658 0.147122 0.070000
7.711936 2.488918 0.140126 0.050000
7.927337 1.687920 0.132710 0.080000
8.126591 0.946623 0.125475 0.030000
8.126443 0.171483 0.122593 0.030000
8.045736 -0.575194 0.119606 0.030000
7.870059 -1.323673 0.111365 0.020000
7.518828 -2.045527 0.107765 0.060000
7.380991 2.347641 1.478750 0.200000
7.799385 1.650476 1.492251 0.440000
11.173481 1.403347 1.965145 0.060000
40.667065 0.907763 6.225333 0.200000
51.026672 -5.180263 7.689758 0.020000
11.353787 -3.579356 2.022094 0.300000
13.021599 6.862988 1.095255 0.020000
14.816330 5.587079 1.110197 0.040000
17.429609 4.391788 1.147575 0.010000
11.111753 1.381065 0.899890 0.080000
31.436886 0.703133 1.515430 0.040000
13.074685 -1.106909 0.930765 0.240000
13.394069 -2.636026 0.915914 0.020000
11.220130 -3.487628 0.857074 0.390000
7.104305 3.142396 0.140969 0.070000
7.474102 2.374361 0.134079 0.050000
7.723634 1.619025 0.126922 0.080000
7.882402 0.901939 0.124671 0.030000
7.891692 0.157003 0.116926 0.040000
7.835501 -0.564200 0.114098 0.030000
7.684341 -1.287205 0.106016 0.020000
7.337629 -1.983968 0.102521 0.070000
7.366347 2.332450 1.453655 0.140000
7.804628 1.640648 1.472228 0.390000
11.173860 1.388480 1.930090 0.090000
40.693493 0.853792 6.080200 0.190000
46.274620 -4.738077 6.828989 0.020000
41.801373 -9.497736 6.294614 0.000000
11.374354 -3.603838 1.987056 0.240000
13.012320 6.833006 1.040119 0.020000
13.086314 4.804211 0.992770 0.070000
13.143209 3.145136 0.951750 0.010000
11.077150 1.365547 0.859741 0.110000
31.402889 0.667934 1.390209 0.010000
13.075089 -1.121739 0.885711 0.250000
13.389475 -2.650952 0.870847 0.040000
11.205428 -3.497764 0.816997 0.470000
6.892028 2.998305 0.139879 0.070000
7.275973 2.275567 0.128194 0.050000
7.490019 1.544537 0.126036 0.090000
7.683124 0.863134 0.119007 0.030000
7.701919 0.143366 0.116380 0.040000
7.630156 -0.548130 0.113622 0.030000
7.498622 -1.250737 0.100667 0.030000
7.136325 -1.917812 0.102241 0.070000
7.376589 2.322717 1.433646 0.070000
7.789983 1.625456 1.447133 0.350000
11.154255 1.373248 1.889982 0.140000
40.715019 0.794725 5.935035 0.210000
46.316456 -4.811720 6.673823 0.010000
41.787819 -9.552456 6.144373 0.020000
11.359653 -3.613974 1.946979 0.330000
13.008025 6.803102 0.989996 0.030000
13.076913 4.779192 0.947652 0.070000
13.148708 3.125403 0.906691 0.000000
11.082528 1.350775 0.824700 0.100000
30.994143 0.615537 1.268946 0.010000
13.095573 -1.141204 0.845691 0.260000
13.364884 -2.666260 0.825725 0.040000
11.175730 -3.508188 0.776880 0.470000
6.729180 2.885185 0.134033 0.070000
7.053027 2.166278 0.127206 0.070000
7.301217 1.480929 0.120306 0.100000
7.473929 0.819119 0.118297 0.030000
7.452157 0.128580 0.115673 0.040000
7.409923 -0.537328 0.108087 0.030000
7.227619 -1.200918 0.100145 0.030000
6.960235 -1.861137 0.091992 0.080000
7.367052 2.302641 1.403546 0.090000
7.795335 1.610648 1.422092 0.180000
11.069977 1.341812 1.839644 0.200000
40.672016 0.714529 5.759623 0.240000
40.867970 -4.292639 5.751521 0.020000
40.016964 -9.204769 5.721039 0.020000
11.365249 -3.638707 1.901902 0.450000
13.013839 6.768409 0.934882 0.040000
13.087521 4.754574 0.897587 0.060000
17.755129 4.393701 0.963430 0.010000
11.043106 1.325144 0.789501 0.060000
13.254558 0.222192 0.821174 0.000000
13.096266 -1.171031 0.800582 0.270000
13.390681 -2.700589 0.775664 0.020000
11.166123 -3.523228 0.736799 0.390000
6.541707 2.751570 0.133047 0.080000
6.904409 2.093437 0.121547 0.050000
7.102500 1.412111 0.119532 0.100000
7.274746 0.775315 0.112614 0.030000
7.272396 0.115154 0.110154 0.040000
7.179678 -0.526735 0.107526 0.040000
7.056980 -1.169181 0.099817 0.030000
6.784118 -1.804500 0.091743 0.080000
7.367392 2.287719 1.383491 0.160000
7.765802 1.590189 1.391938 0.240000
11.065561 1.316869 1.799540 0.260000
40.499161 0.626882 5.573843 0.270000
41.035244 -4.388903 5.601598 0.010000
39.667400 -9.200674 5.505140 0.030000
11.340563 -3.649016 1.856798 0.380000
13.019652 6.733716 0.879767 0.020000
14.675406 5.405191 0.879151 0.040000
17.920172 4.402102 0.898892 0.010000
11.098475 1.311331 0.754594 0.070000
13.265153 0.197556 0.776110 0.010000
13.116858 -1.195475 0.755544 0.290000
11.136630 -3.543632 0.691646 0.300000
6.388761 2.643641 0.127247 0.070000
6.711266 1.994721 0.120676 0.060000
6.923697 1.348693 0.113829 0.100000
7.090452 0.736779 0.111990 0.030000
7.072721 0.096326 0.109563 0.050000
7.019516 -0.519802 0.107133 0.040000
6.846252 -1.133210 0.099401 0.030000
6.613096 -1.752766 0.091489 0.080000
44.366364 26.159645 7.263869 0.030000
7.357938 2.262625 1.358373 0.260000
7.796041 1.580840 1.371982 0.170000
11.021152 1.291161 1.759328 0.320000
40.476307 0.537015 5.413448 0.320000
45.927639 -5.051954 6.056909 0.010000
38.966503 -9.128242 5.273577 0.030000
11.341242 -3.678862 1.816689 0.490000
14.701120 5.375880 0.824108 0.230000
18.120207 4.411172 0.834447 0.010000
11.039165 1.280336 0.714324 0.210000
12.977207 -1.207969 0.705133 0.120000
16.668196 -3.572680 0.700977 0.010000
6.230898 2.530597 0.126414 0.060000
6.562827 1.911863 0.119981 0.060000
6.734869 1.285048 0.118100 0.120000
6.911156 0.698338 0.111379 0.030000
6.907943 0.083168 0.109084 0.040000
6.829265 -0.508443 0.106679 0.030000
6.730999 -1.120397 0.094148 0.030000
6.436979 -1.696129 0.091240 0.080000
44.503750 26.062956 7.073866 0.030000
7.368193 2.252911 1.333363 0.230000
11.026735 1.266410 1.719250 0.390000
40.378780 0.430751 5.242797 0.200000
52.219055 -5.928690 6.635077 0.030000
39.742672 -9.433174 5.204469 0.010000
11.316748 -3.699169 1.771549 0.370000
13.031566 6.649332 0.769483 0.020000
14.677418 5.315617 0.768822 0.130000
18.330338 4.415436 0.770011 0.010000
11.049734 1.255662 0.679259 0.320000
12.957890 -1.238197 0.664970 0.130000
16.629030 -3.608216 0.640742 0.020000
10.996947 -3.551033 0.616253 0.110000
6.097839 2.428031 0.125686 0.070000
6.404294 1.833813 0.119277 0.060000
6.575953 1.226994 0.117469 0.100000
6.756773 0.665394 0.105853 0.030000
6.728168 0.069723 0.108564 0.050000
6.679210 -0.506298 0.101295 0.030000
6.530258 -1.084253 0.098758 0.030000
6.276051 -1.649203 0.090994 0.090000
44.725918 25.977873 6.889128 0.020000
7.358835 2.222818 1.308227 0.130000
11.032401 1.236642 1.684154 0.420000
36.172665 0.277499 4.596241 0.170000
57.379070 -6.716382 7.020623 0.070000
39.172817 -9.413222 4.968053 0.020000
13.052460 6.609909 0.719391 0.010000
18.709780 4.457967 0.701158 0.020000
11.015420 1.225146 0.639056 1.100000
16.107382 0.127490 0.643267 0.000000
13.003765 -1.277161 0.619944 0.090000
13.373672 -2.830241 0.585136 0.020000
10.952361 -3.566725 0.571078 0.100000
5.939977 2.314988 0.124854 0.060000
6.255855 1.750956 0.118581 0.050000
6.436950 1.174341 0.111911 0.110000
6.572561 0.621840 0.110211 0.030000
6.583496 0.051967 0.103121 0.040000
6.529142 -0.504172 0.100911 0.030000
6.359715 -1.057515 0.098412 0.030000
6.130215 -1.606989 0.090771 0.100000
46.015976 26.517914 6.829503 0.020000
7.364283 2.203011 1.283167 0.110000
11.092947 1.212907 1.654223 0.200000
36.220238 0.163921 4.450942 0.300000
57.428127 -6.894612 6.785086 0.040000
39.100277 -9.519025 4.802469 0.030000
11.197401 -3.721111 1.676155 0.290000
15.080663 7.774159 0.674012 0.060000
13.113375 2.920717 0.625835 0.000000
11.036082 1.195665 0.604000 1.384000
13.323103 0.069303 0.595783 0.010000
10.852293 -3.558493 0.530847 0.080000
5.806823 2.217420 0.124143 0.060000
6.117222 1.678288 0.117949 0.050000
6.273021 1.116173 0.116266 0.100000
6.433175 0.589183 0.104725 0.030000
6.388710 0.038216 0.107561 0.040000
6.369076 -0.502237 0.100501 0.030000
6.219275 -1.035182 0.093129 0.030000
5.959193 -1.555255 0.090516 0.100000
46.308113 26.439283 6.614971 0.020000
7.354938 2.172936 1.253031 0.240000
11.173502 1.189574 1.619346 0.320000
36.117973 0.042528 4.290222 0.270000
57.472729 -7.102970 6.559425 0.020000
41.208961 -10.224040 4.880353 0.010000
11.198272 -3.760954 1.636009 0.280000
15.290014 7.818397 0.614723 0.040000
8.672010 2.690654 0.603386 0.020000
13.159154 2.886753 0.580828 0.000000
13.410842 -2.929180 0.484864 0.010000
10.797791 -3.579394 0.490626 0.100000
5.688570 2.125139 0.123492 0.060000
5.948883 1.590048 0.117182 0.050000
6.134018 1.063519 0.110708 0.100000
6.248867 0.550628 0.109101 0.030000
6.239026 0.020346 0.107104 0.040000
6.198904 -0.495513 0.105082 0.040000
6.083917 -1.017771 0.092840 0.030000
5.853638 -1.527271 0.090345 0.110000
44.479515 25.105640 6.165235 0.040000
7.375273 2.158396 1.233029 0.310000
11.169169 1.159614 1.584223 0.270000
36.690418 -0.071309 4.231293 0.280000
40.671013 -5.077388 4.613078 0.010000
39.930935 -10.037420 4.587708 0.010000
11.179050 -3.796182 1.595827 0.250000
8.771878 2.702678 0.573691 0.050000
26.407679 6.246792 0.432899 0.000000
13.297251 -1.436036 0.475118 0.060000
13.406836 -2.974081 0.434686 0.020000
10.698009 -3.586159 0.450340 0.140000
5.599941 2.053447 0.117994 0.060000
5.830151 1.522763 0.116622 0.040000
5.999989 1.010925 0.115162 0.090000
6.149364 0.523718 0.108741 0.030000
6.094232 0.007553 0.111679 0.040000
6.083925 -0.497716 0.104773 0.040000
5.968651 -1.004976 0.092587 0.030000
5.727991 -1.494672 0.090138 0.110000
47.995514 26.882484 6.401021 0.020000
7.360916 2.128208 1.207879 0.310000
57.237652 14.041429 6.592412 0.080000
11.165028 1.119656 1.549064 0.360000
36.653595 -0.216490 4.080655 0.190000
57.507305 -7.540771 6.117884 0.030000
40.115509 -10.253373 4.437385 0.020000
13.057702 6.365736 0.508495 0.020000
8.683302 2.631061 0.548194 0.070000
13.181123 2.797506 0.485552 0.010000
11.118175 1.102624 0.493867 0.070000
13.325947 -0.060170 0.460307 0.000000
13.377821 -3.019480 0.389441 0.030000
10.678775 -3.621406 0.415159 0.200000
5.491481 1.971338 0.122405 0.050000
5.716309 1.460553 0.121093 0.040000
5.885777 0.968730 0.114708 0.110000
6.014965 0.491138 0.108269 0.030000
5.994551 -0.009341 0.106356 0.050000
5.958853 -0.495111 0.104457 0.040000
5.843291 -0.987374 0.092325 0.040000
5.617436 -1.466784 0.089953 0.120000
46.419750 25.663685 5.957372 0.040000
7.381444 2.103670 1.187842 0.300000
57.293034 13.793289 6.361632 0.070000
11.145903 1.079430 1.508864 0.470000
35.601624 -0.350780 3.837408 0.240000
57.502369 -7.775119 5.901997 0.030000
40.285126 -10.474688 4.307004 0.010000
11.342339 -3.957863 1.535652 0.190000
13.044272 6.290649 0.458180 0.040000
8.604641 2.564653 0.517741 0.090000
22.007278 4.937707 0.301545 0.000000
10.979237 1.050064 0.463309 0.100000
15.242740 -0.123142 0.375076 0.010000
13.319303 -1.530301 0.384824 0.040000
15.963270 -3.784660 0.273344 0.020000
10.644461 -3.651922 0.374955 0.280000
5.422657 1.910027 0.116998 0.060000
5.632296 1.408953 0.115682 0.030000
5.766757 0.916442 0.114202 0.090000
5.920475 0.464342 0.102923 0.030000
5.884859 -0.026445 0.106006 0.050000
5.848886 -0.497199 0.099162 0.040000
5.748117 -0.979195 0.092107 0.040000
5.511977 -1.443800 0.089763 0.130000
47.488895 25.994623 5.851392 0.040000
7.391986 2.078959 1.162777 0.130000
57.308750 13.529442 6.115690 0.090000
11.136775 1.039394 1.468691 0.230000
35.849670 -0.490614 3.717534 0.330000
40.355835 -5.521633 4.100598 0.030000
38.434162 -10.133848 3.968436 0.010000
11.348509 -4.012590 1.490464 0.420000
17.775249 8.917342 0.310292 0.030000
8.530869 2.503321 0.492320 0.160000
13.218076 2.708528 0.395317 0.010000
10.985094 1.010298 0.428176 0.070000
13.328002 -0.154818 0.369960 0.020000
18.265303 -2.295089 0.224890 0.010000
16.306620 -3.947893 0.213633 0.030000
10.640403 -3.696897 0.344777 0.270000
5.339014 1.838412 0.116513 0.060000
5.528452 1.346935 0.120181 0.040000
5.692346 0.885011 0.113891 0.110000
5.806058 0.432127 0.107505 0.030000
5.790068 -0.038262 0.105714 0.060000
5.768997 -0.503730 0.098929 0.030000
5.627852 -0.966496 0.091840 0.040000
5.431622 -1.425317 0.084622 0.130000
47.727894 25.814865 5.661345 0.060000
7.377725 2.043772 1.137609 0.300000
57.324425 13.265539 5.884748 0.080000
11.137633 0.999532 1.433544 0.240000
12.670249 -0.181728 1.543155 0.110000
11.678667 -1.400604 1.446035 0.010000
38.397820 -10.304024 3.817707 0.030000
11.349571 -4.062432 1.450281 0.520000
16.060444 7.849367 0.286846 0.030000
8.571310 2.484184 0.467355 0.220000
11.015850 0.976009 0.393128 0.060000
16.255709 -2.073518 0.215468 0.040000
14.854923 -3.610599 0.201098 0.030000
10.616386 -3.742200 0.299546 0.290000
5.245373 1.766606 0.116002 0.050000
5.464244 1.305717 0.114860 0.040000
5.593131 0.843103 0.113477 0.090000
5.726565 0.405618 0.102199 0.030000
5.710384 -0.054773 0.100445 0.060000
5.659018 -0.505837 0.098634 0.040000
5.572875 -0.967531 0.086693 0.050000
5.336161 -1.402141 0.084459 0.140000
47.971684 25.645184 5.476349 0.080000
7.388254 2.019042 1.117544 0.400000
57.339832 13.011522 5.683841 0.060000
11.243240 0.971623 1.413716 0.120000
12.631223 -0.227337 1.502883 0.360000
11.649544 -1.441022 1.405808 0.040000
17.451193 -4.412251 1.904912 0.000000
14.503585 6.889418 0.269213 0.060000
8.552255 2.438920 0.437136 0.160000
16.108231 3.274639 0.224964 0.010000
11.051715 0.936835 0.353076 0.060000
15.921985 -0.314544 0.206135 0.010000
14.942914 -1.938600 0.202543 0.030000
13.845455 -3.384837 0.184302 0.030000
10.627626 -3.801867 0.264353 0.210000
5.196353 1.715677 0.110685 0.050000
5.380218 1.254098 0.114449 0.030000
5.548728 0.812266 0.108246 0.100000
5.622051 0.378593 0.106825 0.030000
5.630686 -0.071302 0.100175 0.050000
5.604136 -0.511870 0.093468 0.040000
5.462595 -0.954659 0.091453 0.050000
5.271090 -1.398369 0.079303 0.120000
48.241165 25.441023 5.281291 0.060000
7.398784 1.994313 1.097479 0.310000
30.540348 6.556222 3.109864 0.040000
12.617301 -0.277447 1.457660 1.000000
11.580332 -1.477207 1.365492 0.040000
13.540399 6.265916 0.249381 0.040000
14.785187 2.899234 0.220115 0.010000
11.072542 0.897319 0.327983 0.070000
14.827503 -0.350475 0.193145 0.010000
11.643261 -1.477005 0.275646 0.070000
12.845756 -3.148941 0.182569 0.030000
10.623663 -3.851842 0.234156 0.210000
5.142226 1.669632 0.110372 0.050000
5.340909 1.218357 0.109213 0.030000
5.454416 0.775453 0.107863 0.100000
5.572456 0.357658 0.101618 0.030000
5.560891 -0.082641 0.099951 0.050000
5.509154 -0.513690 0.093214 0.030000
5.407619 -0.955694 0.086305 0.040000
5.175616 -1.375211 0.084140 0.130000
29.247303 14.777526 3.242052 0.020000
30.563398 6.412023 3.004387 0.030000
12.583370 -0.327959 1.417383 0.710000
11.521022 -1.508202 1.325222 0.090000
12.675661 5.724314 0.230110 0.060000
13.860177 2.631508 0.206705 0.010000
11.148291 0.863892 0.293056 0.090000
13.937875 -0.377499 0.185722 0.010000
11.579022 -1.513132 0.245344 0.130000
12.152736 -2.997168 0.176324 0.040000
10.644900 -3.911317 0.198990 0.150000
5.093098 1.623683 0.110073 0.060000
5.271688 1.177024 0.108879 0.030000
5.414916 0.749710 0.102664 0.100000
5.492855 0.336130 0.101330 0.030000
5.476099 -0.094267 0.099686 0.050000
5.449262 -0.519838 0.093034 0.040000
5.312445 -0.947515 0.086087 0.040000
5.115435 -1.366362 0.084016 0.120000
29.306015 14.599004 3.136540 0.020000
7.415035 1.934760 1.057300 0.090000
30.621618 6.258478 2.903967 0.110000
12.589501 -0.382742 1.387195 0.810000
11.537138 -1.562811 1.300061 0.110000
12.053456 5.312344 0.221955 0.060000
7.893902 2.091397 0.394125 0.080000
13.029644 2.390559 0.203641 0.010000
11.169228 0.819395 0.262945 0.080000
12.677783 -0.386688 0.197399 0.040000
11.564953 -1.558318 0.220139 0.070000
11.610468 -2.882497 0.165335 0.040000
5.039066 1.572639 0.109742 0.050000
5.227367 1.141169 0.108630 0.020000
5.325590 0.712975 0.107294 0.120000
5.448259 0.315291 0.096136 0.020000
5.426408 -0.110203 0.094497 0.050000
5.369372 -0.526369 0.092802 0.050000
5.262455 -0.948473 0.085953 0.040000
5.060267 -1.357399 0.078905 0.150000
29.289921 14.409028 3.035791 0.060000
7.420552 1.909917 1.042222 0.090000
30.604513 6.118419 2.823401 0.220000
31.149084 2.498355 2.771365 0.140000
12.570446 -0.428005 1.356977 0.830000
11.528081 -1.607883 1.269869 0.160000
11.524988 4.967180 0.214292 0.070000
7.914513 2.061842 0.379069 0.160000
12.483030 2.210096 0.191544 0.010000
11.334946 0.787673 0.233260 0.050000
11.550896 -1.603485 0.189934 0.060000
11.138653 -2.791498 0.159441 0.040000
10.435370 -3.930132 0.143373 0.080000
5.024670 1.542395 0.099592 0.050000
5.168049 1.105027 0.108341 0.020000
5.305990 0.692614 0.102168 0.210000
5.403651 0.294432 0.095942 0.020000
5.356600 -0.121560 0.099273 0.040000
5.314478 -0.532421 0.092636 0.050000
5.197371 -0.944719 0.085797 0.060000
5.020288 -1.358147 0.073798 0.130000
29.373316 14.245945 2.940401 0.110000
7.421275 1.874997 1.022094 0.160000
30.642616 5.969452 2.732946 0.220000
31.167286 2.344006 2.680838 0.120000
12.561484 -0.478075 1.326767 0.800000
11.524105 -1.657876 1.244673 0.150000
11.051044 4.648083 0.201869 0.070000
7.890323 2.021426 0.363856 0.160000
12.015814 2.061140 0.184770 0.010000
11.938945 -0.450758 0.170232 0.020000
11.411370 -1.626069 0.164486 0.060000
10.722115 -2.714444 0.153641 0.050000
10.113432 -3.831262 0.137900 0.070000
4.965626 1.491237 0.104248 0.060000
5.143642 1.074572 0.103164 0.030000
5.256478 0.666661 0.101942 0.060000
5.339046 0.273191 0.095695 0.020000
5.321907 -0.137209 0.094124 0.040000
5.259584 -0.538474 0.092470 0.040000
5.152475 -0.950580 0.085658 0.060000
4.970297 -1.359104 0.073664 0.130000
29.377274 14.051298 2.854687 0.130000
7.476482 1.866090 1.012205 0.410000
30.645508 5.829776 2.652434 0.210000
31.204966 2.214980 2.605456 0.140000
12.602500 -0.527206 1.301691 0.690000
11.514938 -1.697967 1.219500 0.130000
10.685725 4.401062 0.194997 0.080000
11.618201 1.933521 0.178258 0.010000
11.499424 -0.479162 0.163979 0.020000
11.035962 -1.608256 0.163572 0.050000
10.406037 -2.660469 0.148016 0.050000
9.761006 -3.707989 0.137438 0.080000
4.956024 1.471068 0.099148 0.050000
5.094226 1.043621 0.102920 0.020000
5.221868 0.645995 0.101775 0.050000
5.309339 0.257620 0.095559 0.010000
5.252099 -0.148567 0.098900 0.030000
5.209690 -0.544430 0.092318 0.070000
5.092391 -0.946730 0.085516 0.080000
4.930209 -1.354871 0.073575 0.130000
29.430622 13.887566 2.779217 0.130000
7.442403 1.820503 0.991946 0.420000
30.698446 5.686003 2.587037 0.110000
31.243004 2.065921 2.540001 0.130000
12.613617 -0.581912 1.276517 0.610000
11.551134 -1.757211 1.199374 0.130000
13.453219 -3.691565 1.317149 0.000000
10.389722 4.190374 0.188441 0.090000
8.145105 2.041474 0.319595 0.050000
11.305298 1.822545 0.167028 0.010000
11.347631 0.658168 0.157810 0.010000
11.189878 -0.505077 0.158075 0.020000
10.720651 -1.594274 0.157801 0.060000
10.114955 -2.606016 0.142459 0.050000
9.509533 -3.632774 0.132061 0.080000
4.901884 1.425004 0.103835 0.060000
5.074709 1.018242 0.102774 0.020000
5.182354 0.620234 0.101576 0.040000
5.249733 0.236474 0.095325 0.010000
5.237402 -0.163832 0.093805 0.030000
5.154796 -0.550483 0.092152 0.070000
5.057493 -0.952399 0.085404 0.080000
4.890216 -1.355637 0.073468 0.150000
29.459263 13.708358 2.703625 0.130000
7.477806 1.801214 0.981967 0.400000
31.270742 1.931648 2.479573 0.130000
12.644622 -0.631253 1.256414 0.340000
11.577044 -1.801649 1.179276 0.130000
13.519793 -3.770230 1.297030 0.000000
13.541711 -5.700243 1.314913 0.010000
10.162845 4.026018 0.182237 0.090000
8.185520 2.022300 0.304629 0.210000
11.012174 1.721914 0.165889 0.020000
11.068832 0.592818 0.156840 0.010000
10.890317 -0.530818 0.157197 0.020000
10.440332 -1.579621 0.152124 0.050000
9.924620 -2.589640 0.137023 0.050000
9.273249 -3.567269 0.126688 0.070000
4.892378 1.399836 0.098717 0.060000
5.030292 0.987386 0.102544 0.020000
5.147745 0.599567 0.101409 0.040000
5.225026 0.220999 0.095203 0.010000
5.187603 -0.174788 0.093634 0.030000
5.140099 -0.565749 0.087057 0.090000
5.012501 -0.953261 0.085283 0.080000
4.860235 -1.356193 0.068388 0.130000
29.487410 13.554126 2.633124 0.150000
7.463506 1.765970 0.971798 0.400000
31.278294 1.806991 2.419129 0.140000
12.034783 -0.637732 1.199798 0.630000
11.618129 -1.855817 1.164182 0.130000
13.450624 -3.811489 1.276696 0.020000
13.583576 -5.794384 1.294672 0.030000
9.980478 3.887519 0.176247 0.090000
10.808758 1.638021 0.160046 0.020000
10.864746 0.543919 0.151125 0.010000
10.690751 -0.554626 0.151587 0.020000
10.250381 -1.583242 0.146614 0.060000
9.729095 -2.563362 0.131610 0.040000
9.072137 -3.511111 0.126372 0.070000
4.872956 1.369459 0.098553 0.060000
5.030592 0.972408 0.097489 0.020000
5.123132 0.579092 0.101268 0.040000
5.195319 0.205427 0.095068 0.010000
5.152801 -0.185456 0.093504 0.030000
5.105188 -0.571437 0.091944 0.070000
5.002803 -0.968431 0.080201 0.100000
4.820229 -1.356978 0.073280 0.150000
29.491085 13.369348 2.582447 0.140000
13.218144 2.055059 1.307898 0.000000
31.315895 1.677853 2.373747 0.090000
12.000608 -0.678320 1.179557 0.670000
13.451826 -3.871403 1.256476 0.010000
13.514312 -5.830644 1.274357 0.040000
9.847720 3.769974 0.170463 0.090000
10.368992 2.664762 0.167715 0.060000
10.595235 1.558918 0.159195 0.020000
10.700652 0.495786 0.145518 0.010000
10.491172 -0.578453 0.150978 0.020000
10.090507 -1.591305 0.146167 0.060000
9.573836 -2.551333 0.131249 0.050000
8.896212 -3.464472 0.126086 0.070000
4.863245 1.354270 0.098471 0.060000
4.986163 0.941533 0.102258 0.020000
5.103436 0.563730 0.096160 0.030000
5.190620 0.190353 0.089999 0.010000
5.112987 -0.196239 0.098360 0.030000
5.075290 -0.577010 0.091846 0.080000
4.972809 -0.969005 0.080121 0.090000
4.800342 -1.362341 0.068208 0.160000
29.514170 13.214927 2.536932 0.150000
7.479500 1.716323 0.956655 0.100000
13.283925 2.016348 1.297925 0.020000
13.221120 0.599987 1.267496 0.050000
11.926332 -0.714694 1.164228 0.700000
13.535785 -5.905191 1.259135 0.030000
9.714758 3.662409 0.169716 0.090000
10.225660 2.577020 0.162015 0.070000
10.466327 1.501457 0.153645 0.020000
10.556458 0.453035 0.139983 0.010000
10.351499 -0.596112 0.145548 0.020000
9.990635 -1.598200 0.140880 0.060000
9.413401 -2.529383 0.125912 0.050000
8.780766 -3.441660 0.120869 0.070000
4.843728 1.328892 0.098326 0.060000
4.976452 0.926344 0.102176 0.020000
5.093726 0.548542 0.096078 0.040000
5.150902 0.174571 0.094837 0.010000
5.108192 -0.206314 0.093310 0.030000
5.050486 -0.587487 0.091742 0.080000
4.947910 -0.974483 0.080036 0.100000
4.795630 -1.377434 0.068140 0.130000
29.521942 13.075180 2.501433 0.140000
7.494906 1.696651 0.946622 0.090000
13.220125 1.955171 1.282531 0.100000
13.222021 0.555051 1.252331 0.060000
11.922126 -0.754745 1.154068 0.670000
13.459106 -3.986174 1.226068 0.000000
9.641222 3.586005 0.164240 0.080000
10.112023 2.504831 0.161450 0.060000
10.347307 1.449169 0.153140 0.020000
10.457149 0.416127 0.139586 0.010000
10.257104 -0.627907 0.140183 0.020000
9.885955 -1.615190 0.135544 0.070000
9.303325 -2.526491 0.125636 0.050000
8.675404 -3.423675 0.120661 0.070000
4.849028 1.314009 0.093285 0.070000
4.971754 0.911270 0.097108 0.020000
5.089014 0.533449 0.096009 0.040000
5.151106 0.164591 0.089800 0.010000
5.088484 -0.221695 0.093201 0.030000
5.040692 -0.597658 0.086679 0.090000
4.933104 -0.984769 0.079959 0.100000
4.760541 -1.373105 0.068064 0.110000
29.579693 12.936371 2.471067 0.160000
7.500398 1.671770 0.941544 0.090000
13.171228 1.899279 1.267196 0.100000
13.222910 0.510097 1.242166 0.040000
11.892828 -0.790276 1.143859 0.680000
13.388988 -2.412165 1.211736 0.010000
13.450080 -4.036337 1.220858 0.000000
13.568801 -6.059513 1.238648 0.020000
9.557771 3.504393 0.163719 0.080000
10.028189 2.443214 0.161002 0.070000
10.288180 1.403028 0.152814 0.020000
10.352934 0.374123 0.139158 0.010000
10.177598 -0.654435 0.139877 0.020000
9.796150 -1.626930 0.140266 0.060000
9.223435 -2.533022 0.125403 0.050000
8.575026 -3.405613 0.125466 0.070000
4.834414 1.293726 0.093171 0.070000
4.981943 0.901463 0.097098 0.020000
5.064306 0.517973 0.095887 0.030000
5.121387 0.149001 0.094665 0.010000
5.098673 -0.231501 0.093191 0.030000
5.010781 -0.603250 0.091580 0.080000
4.918298 -0.995054 0.079882 0.070000
4.740641 -1.378487 0.067993 0.150000
7.510779 1.651966 0.941498 0.130000
13.192100 1.854689 1.262084 0.050000
11.888609 -0.830346 1.138699 0.850000
13.496439 -4.105425 1.210722 0.000000
13.549885 -6.114848 1.228392 0.020000
9.509026 3.438447 0.163346 0.090000
10.014067 2.397954 0.155797 0.070000
10.219069 1.356715 0.147461 0.020000
10.303518 0.343171 0.138914 0.010000
10.138084 -0.680196 0.139678 0.020000
9.741556 -1.647961 0.135045 0.050000
9.173733 -2.548977 0.125214 0.040000
8.484851 -3.397338 0.125262 0.060000
4.824786 1.273519 0.098071 0.080000
4.982231 0.886466 0.097043 0.020000
5.059499 0.507879 0.095837 0.040000
5.126577 0.139099 0.094642 0.010000
5.073870 -0.241978 0.093087 0.030000
5.010972 -0.613248 0.091543 0.080000
4.933596 -1.009745 0.074867 0.080000
4.725739 -1.383774 0.067934 0.090000
29.575548 12.636385 2.429941 0.070000
7.575863 1.648211 0.941653 0.380000
13.187976 1.809621 1.256906 0.040000
13.239657 0.420439 1.231876 0.020000
11.904386 -0.870032 1.133593 0.780000
13.385835 -2.507206 1.201375 0.010000
13.561320 -6.189642 1.228144 0.020000
9.524597 3.408741 0.163277 0.090000
10.019736 2.363057 0.155682 0.060000
10.244639 1.327199 0.147418 0.020000
10.289192 0.307891 0.138745 0.010000
10.118663 -0.710573 0.139514 0.020000
9.722136 -1.678339 0.134882 0.050000
9.159310 -2.579258 0.125063 0.040000
8.465429 -3.427716 0.125098 0.060000
4.834976 1.263713 0.098061 0.070000
4.972520 0.871278 0.096961 0.020000
5.069784 0.493074 0.095809 0.030000
5.121866 0.124006 0.094573 0.020000
5.079061 -0.251880 0.093064 0.030000
5.006261 -0.628341 0.091475 0.070000
4.903685 -1.015337 0.079768 0.090000
4.736120 -1.403578 0.067887 0.120000
13.072076 4.977723 1.333381 0.010000
11.284547 1.463491 1.145650 0.130000
13.230521 0.375256 1.231685 0.020000
11.900153 -0.910120 1.133433 0.540000
13.488548 -4.215596 1.210292 0.000000
13.613131 -6.283667 1.227930 0.020000
9.614594 3.410483 0.158518 0.090000
10.060208 2.338828 0.155697 0.070000
10.300217 1.298277 0.142456 0.020000
10.344769 0.278968 0.133783 0.010000
10.164433 -0.749685 0.134488 0.020000
9.757895 -1.717661 0.134829 0.060000
9.180073 -2.618868 0.124970 0.050000
8.521678 -3.491631 0.120007 0.060000
4.865079 1.259307 0.093123 0.080000
4.972807 0.856280 0.096906 0.020000
5.079974 0.483267 0.095799 0.030000
5.127056 0.114103 0.094550 0.010000
5.084347 -0.266782 0.093023 0.040000
5.021558 -0.643032 0.086460 0.080000
4.898877 -1.025431 0.079718 0.100000
4.731409 -1.418671 0.067819 0.130000
11.125740 1.400457 1.140001 0.160000
13.246355 0.330514 1.241560 0.060000
13.048205 -1.068418 1.205842 0.580000
17.009087 -3.453715 1.407316 0.010000
13.474483 -4.265911 1.220069 0.000000
13.573961 -6.329480 1.242658 0.020000
9.734380 3.422779 0.158876 0.090000
10.195183 2.341413 0.156059 0.060000
10.435479 1.285865 0.142763 0.020000
10.450325 0.250985 0.133954 0.010000
10.265265 -0.792780 0.139591 0.020000
9.889116 -1.780159 0.134939 0.060000
9.276492 -2.692034 0.124950 0.040000
8.628478 -3.584602 0.119941 0.060000
4.870256 1.249386 0.098100 0.090000
5.022702 0.862237 0.097059 0.020000
5.085152 0.473346 0.100776 0.040000
5.157242 0.104680 0.094594 0.010000
5.094537 -0.276588 0.093013 0.030000
5.031831 -0.657857 0.091432 0.060000
4.919257 -1.045044 0.079698 0.110000
4.751884 -1.443284 0.067781 0.120000
29.687735 12.253228 2.493810 0.020000
11.151258 1.370867 1.159958 0.460000
13.231977 0.295159 1.261391 0.020000
13.028828 -1.103868 1.225660 0.650000
13.353350 -2.642962 1.230786 0.010000
11.339607 -3.496313 1.122356 0.010000
13.595234 -6.399177 1.267454 0.020000
10.007795 3.508030 0.159907 0.090000
10.424565 2.375812 0.156786 0.060000
10.685323 1.295634 0.148451 0.020000
10.720836 0.226143 0.139568 0.010000
10.481182 -0.838653 0.139984 0.020000
10.035309 -1.842406 0.145089 0.050000
9.428176 -2.779163 0.130022 0.050000
8.785831 -3.706629 0.124898 0.060000
4.900251 1.249960 0.098180 0.070000
5.037878 0.852508 0.102062 0.020000
5.125240 0.469113 0.100865 0.040000
5.192427 0.095352 0.094651 0.010000
5.139816 -0.290724 0.093078 0.030000
5.077206 -0.676991 0.091479 0.070000
4.944622 -1.064580 0.084692 0.160000
4.767251 -1.463011 0.072748 0.110000
29.649847 12.132206 2.568262 0.080000
11.131784 1.340415 1.179794 0.380000
13.024338 -1.134052 1.250536 0.680000
13.369036 -2.682779 1.260679 0.010000
11.315025 -3.521879 1.147197 0.020000
13.601195 -6.454200 1.302266 0.020000
10.930156 1.305288 0.159126 0.030000
11.001154 0.211491 0.145245 0.010000
10.772252 -0.893125 0.150542 0.020000
10.286878 -1.922621 0.150448 0.050000
9.670417 -2.894562 0.135226 0.040000
9.018841 -3.862212 0.129928 0.060000
4.959952 1.266107 0.098396 0.080000
5.087773 0.858464 0.102214 0.020000
5.185242 0.470281 0.096026 0.040000
5.242610 0.086312 0.094748 0.010000
5.180082 -0.304973 0.098131 0.040000
5.127580 -0.696030 0.091540 0.060000
4.980094 -1.088905 0.084694 0.150000
4.797725 -1.487432 0.072737 0.120000
29.675936 12.062345 2.663071 0.140000
11.137101 1.320422 1.204733 0.460000
13.004743 -1.159541 1.280391 0.390000
11.305332 -3.542179 1.177096 1.000000
8.590082 2.835283 0.283707 0.050000
11.241128 2.561447 0.169608 0.060000
11.089977 1.313277 0.179573 0.070000
11.491432 0.200860 0.151486 0.010000
11.173505 -0.955470 0.156358 0.020000
10.649000 -2.030723 0.155991 0.060000
10.008407 -3.048135 0.140537 0.050000
9.378278 -4.090368 0.130018 0.060000
5.004752 1.276967 0.098553 0.090000
5.147570 0.869611 0.102412 0.020000
5.230220 0.471124 0.101146 0.040000
5.312692 0.082653 0.094918 0.020000
5.260368 -0.318420 0.093290 0.050000
5.177954 -0.715068 0.091600 0.060000
5.050765 -1.122540 0.079754 0.160000
4.833280 -1.516774 0.077720 0.120000
7.219740 2.216253 1.007836 0.010000
30.311117 7.883771 2.649196 0.130000
11.042628 1.288515 1.229369 1.030000
31.522129 0.540795 2.590060 0.010000
12.964850 -1.170436 1.315246 0.490000
11.305624 -3.562305 1.212023 0.070000
8.639912 2.841147 0.308859 0.140000
11.005477 1.281524 0.214235 0.090000
11.951608 0.194635 0.162664 0.010000
11.684930 -1.025706 0.162431 0.020000
11.121487 -2.156715 0.161756 0.040000
10.386473 -3.205959 0.150937 0.040000
9.747603 -4.313353 0.135153 0.060000
5.069248 1.303188 0.103819 0.090000
5.212366 0.880854 0.102623 0.030000
5.305110 0.477559 0.101366 0.040000
5.382775 0.078995 0.095087 0.020000
5.355651 -0.331579 0.088490 0.180000
5.228231 -0.729108 0.091679 0.050000
5.101222 -1.146596 0.084796 0.150000
4.888940 -1.550714 0.077740 0.120000
7.254585 2.221848 1.027948 0.020000
30.311514 7.848388 2.754067 0.280000
11.037743 1.278310 1.259318 0.980000
31.532524 0.505603 2.694958 0.020000
13.040197 -1.194162 1.360355 0.480000
17.157772 -3.676751 1.636878 0.000000
11.305724 -3.572433 1.246986 0.090000
55.431953 -30.548901 4.476921 0.050000
8.575612 2.799798 0.338538 0.290000
12.445594 2.859512 0.188860 0.060000
10.995579 1.271204 0.249171 0.060000
12.571671 0.196493 0.169289 0.010000
11.649332 -2.301668 0.172595 0.050000
10.860299 -3.401937 0.156446 0.040000
10.197872 -4.584796 0.140319 0.050000
5.133852 1.324429 0.104067 0.080000
5.287065 0.897288 0.102879 0.020000
5.380001 0.483995 0.101585 0.050000
5.442764 0.080144 0.095248 0.030000
5.325604 -0.332228 0.108409 0.210000
5.308696 -0.752571 0.091802 0.050000
5.146584 -1.165749 0.089843 0.120000
4.954791 -1.594461 0.077749 0.100000
7.254616 2.216756 1.052930 0.060000
30.296778 7.817660 2.873915 0.200000
11.047732 1.273354 1.299326 0.970000
31.512611 0.484796 2.809829 0.040000
13.050270 -1.204136 1.405345 0.690000
17.248339 -3.715280 1.706971 0.000000
11.305799 -3.582599 1.291949 0.100000
55.442833 -30.629622 4.726652 0.100000
8.590544 2.799993 0.363578 0.420000
11.035493 1.271859 0.279278 0.170000
13.033279 -1.189967 0.180341 0.020000
12.337736 -2.473533 0.178754 0.050000
11.273537 -3.569107 0.171903 0.150000
5.188446 1.345460 0.109288 0.100000
5.366667 0.918816 0.103167 0.030000
5.449892 0.490334 0.101791 0.070000
5.527844 0.076773 0.095457 0.030000
5.481093 -0.354199 0.093733 0.180000
5.394159 -0.775938 0.091939 0.040000
5.222240 -1.199306 0.089916 0.090000
5.005343 -1.623516 0.082773 0.120000
7.319059 2.242903 1.078195 0.130000
30.306694 7.807463 2.978904 0.030000
11.027754 1.267860 1.329254 1.050000
31.572601 0.470539 2.919934 0.010000
13.040167 -1.204476 1.445318 0.690000
17.333727 -3.743888 1.772089 0.000000
11.310898 -3.592631 1.326925 0.100000
55.412609 -30.651066 4.961495 0.120000
8.580564 2.794691 0.393532 0.390000
14.132164 3.311801 0.219944 0.050000
11.070395 1.272399 0.314372 0.450000
14.436666 0.212158 0.189216 0.010000
13.088356 -1.199060 0.220451 0.020000
13.116493 -2.663688 0.190080 0.050000
11.102193 -3.507561 0.221685 0.160000
11.027125 -5.064109 0.170702 0.050000
5.277771 1.382196 0.104657 0.100000
5.451267 0.940440 0.103468 0.030000
5.529685 0.501865 0.102042 0.080000
5.612828 0.078400 0.095685 0.030000
5.546164 -0.357972 0.098889 0.110000
5.459530 -0.794690 0.092039 0.050000
5.292706 -1.222960 0.090012 0.070000
5.066002 -1.657361 0.082805 0.110000
7.284301 2.227161 1.098046 0.320000
30.291492 7.801749 3.093844 0.030000
11.012760 1.262444 1.364195 1.070000
31.497328 0.468694 3.029732 0.010000
13.030161 -1.209815 1.485272 0.720000
17.459192 -3.776747 1.842295 0.000000
11.305807 -3.592857 1.361911 0.080000
55.397079 -30.657246 5.201434 0.060000
8.600399 2.799980 0.418604 0.380000
11.060306 1.272078 0.349345 1.000000
13.103332 -1.203939 0.265472 0.030000
14.226926 -2.937489 0.196960 0.040000
11.081914 -3.498076 0.256668 0.220000
5.347171 1.413512 0.109955 0.110000
5.515955 0.956664 0.108697 0.030000
5.624476 0.513682 0.102334 0.070000
5.682802 0.079722 0.100873 0.040000
5.631435 -0.371341 0.099062 0.090000
5.569988 -0.817578 0.092243 0.040000
5.368363 -1.256517 0.090085 0.070000
5.151958 -1.705705 0.077850 0.110000
7.234559 2.211151 1.112857 0.390000
57.216831 15.254563 5.691858 0.040000
11.022667 1.262505 1.399222 1.010000
35.890541 0.536083 3.521455 0.040000
13.040054 -1.209772 1.525298 0.740000
17.594654 -3.809415 1.912528 0.000000
11.310702 -3.592910 1.401924 0.090000
55.502708 -30.726206 5.466456 0.020000
8.585419 2.794582 0.448545 0.210000
18.390543 4.483654 0.210416 0.010000
11.000404 1.260782 0.389147 0.680000
13.163312 -1.207938 0.305615 0.020000
11.091903 -3.503033 0.296676 0.240000
11.370808 -5.262819 0.240862 0.070000
5.436483 1.450229 0.110325 0.100000
5.615457 0.983574 0.109057 0.030000
5.694258 0.525002 0.107558 0.080000
5.787782 0.081733 0.101154 0.040000
5.701505 -0.375018 0.104231 0.080000
5.660450 -0.840850 0.092392 0.050000
5.459016 -1.289787 0.090198 0.070000
5.227793 -1.749278 0.082886 0.100000
7.259284 2.221516 1.142960 0.370000
57.211136 15.258612 5.921861 0.050000
11.027479 1.267470 1.434253 1.030000
36.255066 0.542497 3.677432 0.030000
13.044936 -1.209844 1.570311 0.560000
11.330786 -3.602674 1.441941 0.090000
13.161693 3.042544 0.386412 0.030000
11.015214 1.265938 0.424205 0.720000
13.316336 0.195076 0.356230 0.000000
13.163208 -1.208087 0.345614 0.030000
11.066516 -3.488663 0.336663 0.300000
11.310030 -5.229142 0.285829 0.080000
5.535698 1.492136 0.110739 0.110000
5.685048 1.004892 0.114318 0.030000
5.808949 0.542202 0.107921 0.070000
5.862755 0.083151 0.106355 0.040000
5.811785 -0.387890 0.099471 0.070000
5.720714 -0.854717 0.097498 0.030000
5.534564 -1.318364 0.095289 0.080000
5.318734 -1.797545 0.082944 0.090000
7.254233 2.221346 1.162947 0.440000
57.224861 15.293036 6.152027 0.050000
11.012391 1.267052 1.469212 0.910000
34.979843 0.537964 3.704087 0.060000
13.119874 -1.213611 1.625494 0.450000
40.305733 -9.438486 4.140908 0.020000
11.325586 -3.597919 1.481945 0.080000
13.126664 3.036689 0.436299 0.030000
11.005125 1.265616 0.459178 0.660000
18.520723 0.285002 0.305149 0.000000
13.198071 -1.207602 0.395707 0.020000
13.397229 -2.723964 0.365590 0.010000
11.081409 -3.488524 0.376703 0.300000
11.294533 -5.209600 0.330861 0.240000
5.629901 1.533930 0.116141 0.100000
5.794452 1.036993 0.114723 0.030000
5.908643 0.559114 0.108244 0.080000
5.987649 0.090563 0.101709 0.040000
5.916957 -0.395877 0.099716 0.070000
5.826173 -0.877701 0.097688 0.040000
5.620123 -1.346730 0.095407 0.080000
5.379284 -1.826409 0.087995 0.090000
7.283779 2.241824 1.188100 0.520000
50.057156 13.347198 5.641079 0.060000
11.037090 1.277381 1.509316 0.950000
35.098949 0.564700 3.854499 0.070000
40.289768 -9.409337 4.290976 0.010000
11.305198 -3.583454 1.521946 0.070000
14.680639 5.451839 0.459333 0.100000
13.101469 3.041060 0.476250 0.020000
11.029755 1.280981 0.489299 0.650000
13.240827 0.208302 0.446083 0.000000
13.157686 -1.193520 0.435655 0.030000
13.386935 -2.714306 0.405600 0.010000
11.086124 -3.478561 0.411753 0.160000
5.714118 1.575550 0.116515 0.110000
5.918771 1.074399 0.110186 0.040000
6.008324 0.576008 0.113568 0.090000
6.082618 0.092363 0.106964 0.040000
6.037209 -0.408595 0.104983 0.070000
5.936632 -0.900590 0.097891 0.040000
5.751057 -1.394231 0.095572 0.060000
5.485415 -1.884387 0.088056 0.100000
7.273715 2.241539 1.213073 0.470000
50.055637 13.396390 5.856260 0.090000
11.016907 1.281866 1.544280 0.990000
35.088123 0.589001 3.989562 0.040000
11.314900 -3.573413 1.562009 0.080000
14.685182 5.466691 0.524401 0.090000
18.080624 4.436666 0.494435 0.070000
11.054454 1.291309 0.529403 0.410000
13.260514 0.218516 0.491173 0.010000
13.137272 -1.179092 0.485656 0.040000
13.386517 -2.699495 0.455654 0.010000
11.100922 -3.473423 0.451811 0.210000
5.847943 1.638124 0.117097 0.110000
6.018165 1.106290 0.115564 0.030000
6.157926 0.598895 0.109043 0.090000
6.217497 0.099948 0.107344 0.030000
6.147284 -0.411487 0.105259 0.060000
6.062087 -0.923191 0.098135 0.040000
5.841615 -1.422501 0.095703 0.060000
5.586354 -1.932462 0.088141 0.090000
50.018669 13.469943 6.061439 0.060000
11.041414 1.302193 1.584420 0.650000
36.101429 0.652521 4.237446 0.050000
11.309509 -3.558660 1.602051 0.080000
17.925770 4.418458 0.558964 0.040000
18.904102 0.346659 0.496380 0.000000
13.126786 -1.159436 0.525702 0.030000
13.411107 -2.684186 0.500776 0.030000
11.125717 -3.468094 0.491896 0.230000
13.619064 -6.480636 0.422205 0.040000
6.001586 1.711098 0.112769 0.110000
6.167274 1.154154 0.116132 0.030000
6.302420 0.626667 0.109523 0.080000
6.357388 0.107647 0.102737 0.030000
6.282547 -0.423899 0.105566 0.050000
6.172533 -0.946098 0.103338 0.040000
5.967454 -1.465099 0.095873 0.050000
5.702482 -1.990248 0.088229 0.090000
7.288103 2.266636 1.263205 0.160000
7.795713 1.611187 1.277093 0.000000
11.165781 1.329396 1.634846 0.620000
36.140114 0.702776 4.372735 0.050000
13.203705 -1.177677 1.810848 0.170000
39.632648 -9.103426 4.715402 0.010000
11.304118 -3.543907 1.642092 0.060000
17.721117 4.389295 0.623322 0.050000
30.885889 0.626160 0.533696 0.010000
13.375504 -2.660047 0.550773 0.030000
11.180698 -3.472188 0.532025 0.180000
6.189839 1.804738 0.108609 0.120000
6.351199 1.212705 0.111829 0.040000
6.456829 0.659649 0.105049 0.100000
6.552160 0.121379 0.103297 0.040000
6.452815 -0.435622 0.100967 0.050000
6.323092 -0.973201 0.098630 0.030000
6.113385 -1.512313 0.096079 0.050000
5.823609 -2.047939 0.088331 0.090000
7.297653 2.286731 1.288304 0.370000
7.770557 1.615614 1.302044 0.030000
11.180291 1.349531 1.674959 0.530000
36.128815 0.752091 4.502890 0.060000
13.133052 -1.149154 1.845770 0.160000
39.676277 -9.053150 4.870705 0.010000
11.293537 -3.519252 1.682156 0.050000
13.106354 4.845739 0.682973 0.010000
13.119519 3.115704 0.671576 0.060000
11.018502 1.325223 0.639436 0.080000
30.944729 0.671892 0.644020 0.020000
13.196073 -1.133416 0.610980 0.060000
13.395096 -2.644835 0.595881 0.110000
11.250690 -3.475977 0.567194 0.240000
13.602439 -6.411345 0.532420 0.020000
6.308667 1.867025 0.109151 0.110000
6.500226 1.265587 0.107415 0.040000
6.631221 0.692995 0.105628 0.110000
6.696941 0.134154 0.103722 0.040000
6.632986 -0.442154 0.096413 0.050000
6.468544 -0.995419 0.098927 0.030000
6.269423 -1.564315 0.091293 0.050000
5.990220 -2.129744 0.083462 0.090000
7.287398 2.296445 1.313314 0.400000
7.810102 1.636284 1.327225 0.120000
11.159916 1.364015 1.709960 0.570000
36.042137 0.819948 4.637918 0.050000
13.117554 -1.129612 1.890803 0.420000
39.935650 -9.043859 5.056418 0.020000
11.298144 -3.504308 1.722224 0.060000
43.568611 -23.385225 5.942599 0.010000
14.727191 5.591692 0.749978 0.070000
13.128921 3.140723 0.716694 0.040000
11.047927 1.350663 0.674608 0.130000
13.263606 0.292928 0.671459 0.000000
13.150375 -1.104469 0.660969 0.060000
11.310670 -3.479975 0.607336 0.380000
13.591531 -6.371749 0.587540 0.030000
6.492004 1.955551 0.109958 0.140000
6.659129 1.323622 0.113045 0.040000
6.785713 0.720958 0.106135 0.120000
6.881728 0.147714 0.099255 0.040000
6.758141 -0.449777 0.101711 0.060000
6.644278 -1.032060 0.099250 0.040000
6.415340 -1.611547 0.096498 0.050000
6.136630 -2.201952 0.083576 0.090000
7.306850 2.321730 1.338459 0.460000
7.715271 1.624410 1.341933 0.080000
36.025326 0.894108 4.783151 0.040000
40.013947 -8.977971 5.226869 0.030000
11.277372 -3.469846 1.762298 0.060000
43.575680 -23.260820 6.148082 0.040000
14.746168 5.636844 0.810196 0.130000
17.246176 4.354478 0.816954 0.070000
11.097334 1.376467 0.714833 0.150000
31.141766 0.794807 0.884994 0.040000
13.189867 -1.083874 0.706149 0.050000
11.310086 -3.455129 0.647427 0.380000
13.565338 -6.317443 0.642674 0.020000
6.600821 2.017628 0.115473 0.140000
6.842945 1.387154 0.113761 0.040000
6.984910 0.764781 0.106818 0.100000
7.026496 0.160471 0.104680 0.040000
6.958295 -0.455944 0.102211 0.060000
6.789717 -1.054297 0.104547 0.030000
6.596470 -1.668070 0.091761 0.060000
6.298133 -2.278873 0.083711 0.110000
7.301594 2.331539 1.363482 0.280000
7.754707 1.650060 1.372132 0.080000
11.099087 1.397617 1.774927 0.340000
57.263878 1.565859 7.601116 0.040000
39.896099 -8.850738 5.372036 0.030000
11.296977 -3.454615 1.802407 0.050000
43.602879 -23.140976 6.338600 0.030000
17.091036 4.351268 0.881538 0.050000
11.061866 1.395663 0.749812 0.080000
31.220026 0.870916 0.995482 0.020000
11.951776 -0.937651 0.728461 0.050000
13.388116 -2.560448 0.731178 0.060000
11.314405 -3.425188 0.687550 0.370000
13.579534 -6.282348 0.692842 0.040000
6.769064 2.110867 0.116259 0.140000
6.996862 1.445112 0.114379 0.050000
7.124295 0.797438 0.112304 0.130000
7.221172 0.179202 0.105258 0.040000
7.103351 -0.458185 0.107581 0.060000
6.950166 -1.076228 0.104884 0.040000
6.757289 -1.710016 0.097024 0.050000
6.424150 -2.331487 0.088845 0.120000
7.316034 2.356710 1.393614 0.190000
7.734371 1.664600 1.392133 0.080000
11.133388 1.428115 1.820130 0.330000
44.175400 1.305464 6.115968 0.030000
44.619133 -9.853230 6.135646 0.010000
11.281314 -3.425038 1.837476 0.030000
46.131004 -24.399759 6.880526 0.060000
14.769043 5.731877 0.925610 0.070000
13.131734 3.235281 0.857055 0.030000
11.111190 1.426484 0.785056 0.080000
30.828484 0.933043 1.099692 0.010000
11.931100 -0.908189 0.768517 0.080000
11.293539 -3.385727 0.727643 0.370000
13.568338 -6.227755 0.748016 0.020000
6.937391 2.199088 0.122026 0.140000
7.190485 1.518833 0.115158 0.050000
7.328395 0.846355 0.113018 0.110000
7.415849 0.197934 0.105836 0.030000
7.323514 -0.463951 0.103135 0.060000
7.155798 -1.107295 0.105305 0.040000
6.938309 -1.761558 0.097305 0.050000
6.615744 -2.412832 0.089042 0.100000
7.290712 2.371173 1.408602 0.410000
7.748824 1.689790 1.417264 0.070000
11.142720 1.458171 1.855267 0.430000
40.525188 -3.623958 5.718112 0.220000
44.615993 -9.713906 6.311157 0.010000
11.300727 -3.399808 1.877621 0.030000
46.051006 -24.166965 7.076184 0.050000
14.797552 5.802234 0.980946 0.150000
16.656309 4.317533 0.990279 0.080000
11.110524 1.456349 0.820165 0.080000
13.280942 0.407639 0.846933 0.010000
11.915411 -0.878649 0.813586 0.090000
11.333139 -3.370112 0.767805 0.280000
13.567429 -6.187967 0.803162 0.030000
7.115428 2.302497 0.127875 0.150000
7.418909 1.603222 0.116068 0.040000
7.507595 0.889795 0.113647 0.110000
7.635424 0.222143 0.106499 0.030000
7.538666 -0.469832 0.103674 0.060000
7.366430 -1.138267 0.105740 0.040000
7.134422 -1.817812 0.097608 0.050000
6.802338 -2.494273 0.089227 0.100000
7.738473 1.704502 1.442292 0.170000
11.181924 1.493763 1.900502 0.340000
40.457428 -3.500765 5.863394 0.210000
11.345204 -3.379136 1.927814 0.020000
44.849697 -23.329899 7.096160 0.060000
14.880643 5.893603 1.046504 0.060000
16.500990 4.324340 1.049900 0.050000
13.365043 0.449092 0.892307 0.040000
11.929742 -0.848498 0.848736 0.100000
13.385643 -2.450990 0.871580 0.000000
7.328088 2.426592 0.128892 0.130000
7.602520 1.676734 0.121821 0.040000
7.741497 0.949285 0.114479 0.100000
7.834895 0.250950 0.112127 0.040000
7.748709 -0.470828 0.109219 0.040000
7.607056 -1.168664 0.106255 0.040000
7.340438 -1.868876 0.097956 0.040000
7.004025 -2.580426 0.089433 0.080000
7.737928 1.729405 1.467384 0.140000
11.156262 1.523148 1.935545 0.180000
40.634815 -3.388008 6.044278 0.150000
45.057373 -23.236692 7.312051 0.100000
15.251174 6.120483 1.118315 0.280000
16.310774 4.325477 1.109408 0.060000
13.329261 0.483247 0.937341 0.120000
11.974054 -0.817790 0.888967 0.080000
13.364667 -2.406549 0.916691 0.010000
13.549666 -6.058669 0.908597 0.020000
7.535846 2.545592 0.129877 0.120000
7.840750 1.771313 0.122794 0.040000
7.930573 0.997878 0.125153 0.100000
8.069359 0.280428 0.117849 0.030000
7.968668 -0.466614 0.109809 0.040000
7.772382 -1.185537 0.116624 0.040000
7.581721 -1.934284 0.103343 0.040000
7.185415 -2.651983 0.094640 0.090000
7.742383 1.754403 1.492489 0.070000
44.186741 -3.547431 6.712964 0.120000
