# This PCD file was generated using the MATLAB® pcwrite function
# from Computer Vision Toolbox®.
# .PCD v.7 - Point Cloud Data file format
VERSION .7
FIELDS x y z intensity
SIZE 4 4 4 4
TYPE F F F F
COUNT 1 1 1 1
WIDTH 1286
HEIGHT 1
VIEWPOINT 0 0 0 1 0 0 0
POINTS 1286
DATA ascii
7.973397 -0.191475 0.110844 0.050000
7.847315 -0.919018 0.107810 0.030000
7.646356 -1.652979 0.099557 0.040000
49.023018 25.383135 8.788154 0.050000
7.919963 2.137725 1.534377 0.430000
43.248196 9.136376 6.882666 0.020000
11.149283 0.842876 1.937998 1.000000
42.987637 -1.489281 6.512483 0.110000
38.853874 -11.193752 6.080613 0.020000
44.462711 -19.857210 7.248061 0.110000
13.050210 5.893401 1.081725 0.050000
8.160474 2.209873 0.845266 0.100000
12.634792 -0.335234 0.942486 0.120000
11.617305 -1.514801 0.900444 0.330000
15.721475 -4.057034 1.006708 0.250000
10.577231 -3.865025 0.858993 1.000000
7.567873 2.961260 0.136505 0.110000
7.888637 2.142277 0.129298 0.050000
8.083837 1.350876 0.126866 0.100000
8.278104 0.609502 0.114617 0.030000
8.198054 -0.172188 0.116502 0.040000
7.877067 -1.688585 0.105027 0.040000
6.148679 -1.807184 0.230076 0.120000
46.151493 24.168915 8.506142 0.040000
7.864647 2.151613 1.549285 0.400000
11.118457 0.882201 1.963064 0.080000
47.095306 -1.433334 7.268420 0.110000
39.626167 -6.098354 6.181571 0.030000
38.834900 -11.004559 6.211268 0.030000
11.285730 -4.210972 2.074569 0.020000
8.139837 2.239392 0.870322 0.110000
13.165030 2.515094 1.044466 0.020000
11.235810 0.903192 0.943438 0.010000
12.683804 -0.289452 0.987784 0.080000
10.571088 -3.810261 0.894180 0.190000
7.780055 3.110350 0.137613 0.120000
8.116378 2.261642 0.135336 0.060000
8.347158 1.440935 0.127888 0.100000
8.517088 0.664070 0.120444 0.030000
8.497711 -0.151445 0.117361 0.040000
8.312681 -0.935145 0.118965 0.020000
8.102777 -1.724287 0.110484 0.030000
6.143149 -1.782359 0.250154 0.160000
45.951900 24.379416 8.701405 0.040000
7.873896 2.186686 1.579440 0.350000
42.449402 -1.095326 6.732544 0.180000
39.497055 -5.901214 6.296968 0.020000
39.278214 -10.941827 6.422661 0.030000
11.365189 -4.189649 2.129856 0.150000
13.046979 6.047999 1.182293 0.010000
8.139114 2.274311 0.890451 0.130000
30.518024 6.595495 1.829939 0.010000
11.204971 0.942498 0.973503 0.020000
10.565039 -3.760497 0.929350 0.210000
8.006932 3.274706 0.143817 0.120000
8.373934 2.391597 0.136492 0.060000
8.600482 1.530802 0.128883 0.090000
8.815978 0.724805 0.121449 0.030000
8.802380 -0.130588 0.113234 0.040000
8.347143 -0.909554 0.139150 0.030000
8.378780 -1.774009 0.111019 0.030000
6.152629 -1.757228 0.265272 0.150000
47.369953 25.475117 9.159184 0.030000
7.878172 2.221701 1.599581 0.200000
47.296661 -1.030727 7.630446 0.090000
38.967125 -5.656521 6.351495 0.010000
39.495621 -10.828267 6.593652 0.030000
11.379232 -4.144500 2.165061 0.160000
13.050519 6.117915 1.227562 0.040000
8.153376 2.309499 0.915619 0.090000
13.157810 2.619681 1.124837 0.000000
11.174132 0.981805 1.003569 1.000000
32.184589 -4.439795 1.863268 0.130000
15.762325 -3.861785 1.162542 0.050000
10.573988 -3.710445 0.964560 0.320000
8.243713 3.444252 0.150065 0.120000
8.646296 2.531838 0.137724 0.060000
8.898510 1.636528 0.130054 0.090000
8.980155 0.767920 0.132038 0.120000
9.086943 -0.105134 0.114072 0.030000
8.752860 -0.941753 0.130090 0.030000
8.644689 -1.818925 0.111546 0.030000
46.487919 25.302956 9.221243 0.020000
7.847647 2.246047 1.619592 0.330000
47.417515 -0.839057 7.816476 0.040000
39.860966 -5.625387 6.623947 0.020000
39.858715 -10.751996 6.784885 0.020000
11.418450 -4.108889 2.205296 0.240000
30.542227 6.870274 2.031025 0.000000
11.138390 1.016016 1.033604 0.050000
32.171852 -4.310364 1.958716 0.100000
10.573060 -3.665546 0.989725 0.440000
8.544742 3.655073 0.146634 0.110000
8.933546 2.677347 0.144015 0.060000
9.176624 1.736854 0.136153 0.090000
8.969517 0.797630 0.157121 0.140000
9.376493 -0.079602 0.119922 0.030000
8.762218 -0.911660 0.155226 0.030000
8.940675 -1.868283 0.117136 0.030000
45.364532 24.951488 9.187003 0.030000
7.832118 2.270681 1.639644 0.360000
11.274560 1.064636 2.124151 0.000000
44.988461 -0.614602 7.555967 0.170000
43.271187 -5.957536 7.286621 0.010000
40.915386 -10.867788 7.062216 0.010000
13.062420 6.267857 1.313151 0.030000
7.745125 2.211589 0.934189 0.150000
30.504507 6.999244 2.121407 0.030000
11.112563 1.055437 1.058683 0.060000
32.183998 -4.175474 2.059251 0.050000
13.391914 -3.076970 1.139272 0.040000
10.617481 -3.639819 1.024936 0.180000
8.786233 3.839712 0.152951 0.110000
9.200909 2.817492 0.145234 0.060000
9.489649 1.842868 0.137364 0.090000
8.958891 0.827359 0.177204 0.140000
9.676041 -0.053879 0.125800 0.030000
9.241673 -1.917527 0.117738 0.020000
8.763722 -2.811839 0.113166 0.060000
46.376568 25.844618 9.577970 0.030000
7.826492 2.300505 1.659740 0.350000
11.328596 1.110551 2.159463 0.030000
44.974472 -0.425332 7.691636 0.310000
43.232239 -5.768689 7.407222 0.030000
7.729597 2.236223 0.954241 0.420000
30.446983 7.117833 2.211699 0.030000
11.121716 1.095509 1.088856 0.070000
13.269147 -0.068936 1.190134 0.010000
16.560005 -1.931827 1.351801 0.020000
9.027808 4.019334 0.164250 0.110000
9.473065 2.967712 0.151503 0.060000
9.732865 1.937524 0.143351 0.090000
8.973262 0.857566 0.197354 0.210000
9.940512 -0.023809 0.126602 0.030000
9.753919 -0.987589 0.132532 0.020000
9.472286 -1.948135 0.123226 0.020000
8.979818 -2.867728 0.118522 0.060000
52.671947 29.855558 11.064327 0.040000
7.805964 2.325043 1.679778 0.320000
42.208454 10.293406 7.774261 0.020000
11.247997 1.138957 2.174358 0.040000
44.945808 -0.251290 7.812209 0.130000
43.258842 -5.608610 7.532888 0.020000
11.395275 -3.954599 2.285810 0.020000
16.090477 8.185162 1.608186 0.000000
7.704179 2.255684 0.969247 1.000000
13.153517 2.824122 1.265587 0.010000
11.155878 1.136079 1.114096 0.080000
13.290334 -1.438864 1.210097 0.030000
13.384734 -2.972327 1.204643 0.010000
11.190232 -3.789170 1.105877 0.200000
9.244605 4.188516 0.165445 0.110000
9.745332 3.112952 0.152753 0.050000
9.990996 2.037486 0.144396 0.090000
8.957747 0.882218 0.212406 0.180000
10.184974 0.005860 0.132350 0.030000
9.963866 -0.983586 0.138095 0.020000
52.482441 30.071508 11.189636 0.030000
7.815349 2.355173 1.694914 0.220000
42.155025 10.457026 7.879732 0.010000
11.227279 1.173493 2.194433 0.130000
48.076611 -0.093685 8.470974 0.070000
42.002522 -5.277263 7.435840 0.030000
11.197751 -3.823322 2.275782 0.100000
16.098728 8.270169 1.653524 0.010000
13.132689 2.863638 1.290680 0.010000
11.165249 1.166190 1.134233 0.110000
13.297369 0.016417 1.245525 0.010000
13.129162 -1.382014 1.229888 0.070000
13.423965 -2.936698 1.239878 0.010000
11.174307 -3.744559 1.131002 0.270000
9.476195 4.367965 0.171716 0.120000
9.987782 3.247601 0.158887 0.050000
10.239212 2.132238 0.150397 0.090000
10.439434 0.035720 0.138126 0.030000
10.229009 -0.988509 0.138769 0.020000
9.968618 -2.013659 0.129279 0.020000
9.437199 -2.989027 0.129266 0.060000
44.318748 25.444990 9.611113 0.020000
7.794930 2.374730 1.709934 0.240000
42.116718 10.615972 7.975224 0.010000
40.405384 0.068900 7.231542 0.160000
42.024529 -5.132109 7.516438 0.030000
11.186838 -3.778596 2.295920 0.110000
29.087978 16.121710 2.701627 0.060000
7.658452 2.289723 0.994254 0.120000
30.389917 7.456012 2.427809 0.040000
13.058068 -1.328440 1.249902 0.080000
13.382866 -2.882549 1.259972 0.030000
11.228848 -3.723602 1.156222 0.170000
9.717688 4.552604 0.178033 0.110000
10.240039 3.392439 0.165084 0.050000
10.477334 2.231797 0.156388 0.070000
8.971707 0.932384 0.242629 0.080000
10.688909 0.065503 0.138888 0.030000
10.423959 -0.984793 0.144292 0.020000
10.194234 -2.044362 0.134753 0.020000
9.653308 -3.044898 0.129622 0.050000
43.809917 25.375122 9.639524 0.020000
7.789413 2.399574 1.725012 0.310000
8.867615 0.924614 1.817345 0.050000
40.362885 0.187814 7.311874 0.330000
42.096752 -5.001088 7.622114 0.030000
11.206207 -3.748294 2.316083 0.230000
29.040545 16.240622 2.756946 0.120000
7.657933 2.314662 1.009346 0.110000
30.392748 7.560864 2.488207 0.050000
8.819878 0.916595 1.027182 0.020000
31.493834 0.215856 2.408777 0.020000
13.007176 -1.284462 1.264932 0.150000
13.392032 -2.842458 1.285146 0.030000
11.298592 -3.712338 1.176446 0.330000
10.477503 3.527011 0.166204 0.050000
10.725563 2.326568 0.157389 0.070000
10.953366 0.095555 0.144690 0.030000
10.668983 -0.985137 0.154930 0.020000
10.369462 -2.056045 0.145167 0.020000
9.834110 -3.086479 0.139939 0.050000
11.201940 5.572355 2.600723 0.000000
7.773993 2.419227 1.740045 0.310000
8.857207 0.944382 1.827391 0.030000
40.345078 0.322185 7.397327 0.380000
42.164097 -4.875124 7.717759 0.040000
11.185309 -3.703741 2.331195 0.170000
29.008055 16.359745 2.832304 0.150000
7.632720 2.324145 1.019315 0.210000
30.380581 7.665430 2.548565 0.020000
8.784474 0.935884 1.037161 0.020000
31.501677 0.320823 2.464188 0.010000
12.991361 -1.244831 1.285039 0.130000
13.401212 -2.802349 1.305319 0.010000
11.322960 -3.681939 1.196623 0.350000
10.111647 4.870168 0.190242 0.100000
10.685234 3.645974 0.177188 0.050000
10.953782 2.420937 0.163335 0.070000
11.000883 1.266599 0.169167 0.060000
11.157741 0.129457 0.150349 0.030000
10.873836 -0.976231 0.160498 0.020000
11.161346 5.601546 2.610726 0.000000
7.783391 2.449376 1.750182 0.300000
8.816723 0.968592 1.832375 0.020000
40.387135 0.467796 7.457979 0.220000
42.351345 -4.741827 7.803744 0.030000
11.300293 -3.706668 2.366484 0.240000
28.985054 16.509148 2.882800 0.170000
7.612315 2.343721 1.029335 0.350000
8.774055 0.955633 1.052208 0.020000
31.529612 0.421174 2.519634 0.010000
12.975545 -1.205200 1.305145 0.150000
11.266685 -3.618061 1.211714 0.350000
10.902701 3.780162 0.178255 0.050000
11.167005 2.515019 0.169242 0.070000
11.164881 1.319730 0.174793 0.140000
11.392109 0.163933 0.156089 0.030000
11.083700 -0.967210 0.161079 0.020000
10.760034 -2.083606 0.156085 0.020000
10.210643 -3.164319 0.150633 0.050000
11.130630 5.635890 2.630773 0.030000
7.762985 2.468952 1.760201 0.230000
8.801316 0.988264 1.842408 0.020000
38.765305 0.577525 7.244152 0.110000
42.268330 -4.593610 7.864079 0.020000
43.786827 -10.307261 8.316808 0.000000
11.329660 -3.676173 2.386674 0.430000
28.942522 16.633154 2.938151 0.170000
7.616713 2.373774 1.039458 0.310000
8.758552 0.980304 1.062259 0.020000
31.532480 0.526082 2.565032 0.010000
12.989832 -1.169975 1.320313 0.160000
11.265880 -3.578124 1.226860 0.390000
10.564567 5.243908 0.192813 0.090000
11.015943 3.872329 0.183893 0.050000
11.345329 2.603431 0.175036 0.070000
11.139175 1.354189 0.189854 0.140000
11.556407 0.202086 0.156660 0.030000
11.253368 -0.948976 0.166590 0.020000
10.351000 -3.181634 0.150935 0.040000
11.065354 5.649642 2.630654 0.030000
7.762397 2.498927 1.765311 0.150000
8.137249 1.725933 1.773416 0.000000
8.795825 1.013145 1.847486 0.020000
38.822491 0.718480 7.289825 0.250000
42.255177 -4.433962 7.899639 0.020000
43.778370 -10.132539 8.357436 0.010000
11.333771 -3.631123 2.396853 0.300000
28.919453 16.787592 2.978665 0.160000
7.601319 2.393464 1.044491 0.140000
8.044939 1.686835 1.043023 0.000000
8.753060 1.005185 1.067337 0.020000
31.400263 0.638515 2.580105 0.020000
13.019034 -1.129446 1.330540 0.190000
11.300190 -3.542479 1.232082 0.400000
10.637719 5.340308 0.198363 0.070000
11.094395 3.953846 0.184401 0.040000
11.394266 2.659379 0.175372 0.070000
11.118591 1.383782 0.194910 0.120000
11.620725 0.238325 0.156963 0.030000
11.312878 -0.922831 0.166843 0.020000
10.989703 -2.064204 0.156756 0.020000
10.375312 -3.146180 0.156130 0.040000
11.039496 5.694155 2.630752 0.140000
8.141661 1.756005 1.778540 0.010000
8.770350 1.037662 1.847511 0.020000
38.839626 0.868853 7.285429 0.240000
42.272022 -4.268592 7.895297 0.010000
11.368202 -3.600440 2.392056 0.300000
28.881771 16.932024 2.944103 0.170000
8.019587 1.706390 1.033029 0.000000
8.737611 1.029930 1.057389 0.030000
31.378372 0.743279 2.535437 0.040000
12.026362 -0.988139 1.248474 0.230000
17.059248 -3.483328 1.562339 0.000000
10.320680 5.184246 0.186955 0.070000
10.741677 3.832088 0.178027 0.040000
10.970987 2.566274 0.168920 0.070000
11.200419 0.250277 0.155910 0.020000
10.871536 -0.856254 0.160938 0.020000
10.537310 -1.942828 0.151026 0.010000
10.027432 -2.997780 0.145774 0.040000
11.004716 5.688653 2.585640 0.100000
7.717087 2.518155 1.740264 0.060000
8.106841 1.750447 1.748428 0.010000
8.785221 1.048040 1.822588 0.020000
38.759361 0.902872 7.135345 0.180000
42.677376 -4.270499 7.806347 0.030000
43.955318 -9.948513 8.193580 0.000000
11.363020 -3.585390 2.352098 0.260000
28.906492 16.962925 2.829282 0.130000
18.302919 4.671527 1.705901 0.000000
8.752578 1.035309 1.032448 0.030000
31.388561 0.748879 2.425483 0.040000
12.051449 -0.987530 1.213541 0.110000
17.049311 -3.478298 1.502331 0.010000
11.274393 -3.492744 1.172199 0.150000
9.693162 4.787139 0.188841 0.080000
10.235906 3.607380 0.170872 0.040000
10.493581 2.427125 0.162157 0.070000
10.749244 1.351849 0.153827 0.030000
10.755528 0.241792 0.144717 0.030000
10.475774 -0.818790 0.150044 0.020000
10.155478 -1.850106 0.145374 0.020000
9.654654 -2.854857 0.135332 0.040000
10.995028 5.678631 2.540577 0.170000
7.732150 2.518535 1.715305 0.070000
8.126807 1.755922 1.723500 0.060000
8.795284 1.048324 1.797615 0.030000
38.899937 0.891002 7.015666 0.150000
42.928574 -4.315293 7.696836 0.030000
43.951118 -9.968010 8.033495 0.010000
11.373302 -3.595066 2.317089 0.330000
28.912476 16.928473 2.709168 0.070000
13.186468 3.184615 1.322014 0.000000
8.792635 1.036168 1.007555 0.070000
13.272161 0.285927 1.261462 0.010000
12.998629 -1.094464 1.230616 0.110000
17.024664 -3.488552 1.442228 0.010000
11.264678 -3.502804 1.137136 0.260000
9.238818 4.488403 0.181544 0.080000
9.765018 3.388323 0.168828 0.040000
10.011354 2.277863 0.160343 0.070000
10.275770 1.267767 0.152279 0.030000
10.260909 0.217315 0.143335 0.030000
10.060098 -0.786727 0.144078 0.020000
9.864422 -1.795616 0.129817 0.020000
9.317430 -2.741277 0.129874 0.050000
11.025291 5.669319 2.510621 0.190000
7.707603 2.498153 1.690165 0.090000
8.127050 1.745998 1.703464 0.040000
8.805527 1.038592 1.777606 0.030000
39.041431 0.829086 6.910804 0.180000
42.083733 -4.290387 7.399720 0.010000
44.018154 -10.051154 7.873359 0.010000
11.353601 -3.605299 2.276999 0.320000
7.586422 2.398454 0.969470 0.010000
13.127267 3.148640 1.276725 0.010000
8.763089 1.015690 0.982402 0.090000
13.004102 -1.114234 1.195556 0.150000
13.453972 -2.670948 1.205944 0.020000
11.250059 -3.517958 1.102041 0.410000
8.922915 4.272333 0.174916 0.090000
9.398454 3.206289 0.162195 0.040000
9.688344 2.171676 0.154105 0.070000
9.947007 1.201495 0.141174 0.030000
9.896277 0.195346 0.137301 0.030000
9.784793 -0.771960 0.133415 0.020000
9.523157 -1.732122 0.124162 0.020000
8.990204 -2.627506 0.124443 0.040000
11.055569 5.660026 2.475666 0.160000
7.708052 2.478250 1.665092 0.150000
8.127403 1.731094 1.678409 0.040000
8.815865 1.023861 1.757578 0.060000
43.002163 -4.462883 7.416476 0.020000
11.343982 -3.620357 2.241918 0.300000
13.016745 6.816878 1.370074 0.010000
7.591761 2.383627 0.949429 0.030000
13.157736 3.129348 1.241733 0.000000
8.748431 1.000480 0.962307 0.100000
12.994592 -1.134273 1.155457 0.200000
13.369104 -2.672409 1.160717 0.040000
11.230442 -3.533208 1.066933 0.420000
8.621913 4.061550 0.168347 0.090000
9.081401 3.050208 0.155787 0.050000
9.335531 2.054917 0.147750 0.070000
9.603222 1.134899 0.140029 0.030000
9.616631 0.175005 0.131496 0.030000
9.429284 -0.748764 0.132573 0.020000
9.201876 -1.668264 0.123561 0.020000
8.657953 -2.513867 0.128998 0.040000
11.081038 5.640638 2.440660 0.120000
7.718280 2.468499 1.650082 0.210000
8.861100 1.014799 1.737662 0.100000
42.967579 0.752871 7.300773 0.140000
42.999256 -4.552441 7.276134 0.010000
11.334458 -3.640415 2.206818 0.350000
12.997824 6.766672 1.324837 0.020000
7.616795 2.384162 0.934496 0.050000
8.743690 0.990479 0.937257 0.080000
13.248614 0.225887 1.146176 0.000000
13.000065 -1.154043 1.120397 0.240000
13.364594 -2.692352 1.120630 0.030000
11.205729 -3.543555 1.031830 0.400000
8.350427 3.876336 0.161950 0.080000
8.764239 2.899107 0.154397 0.050000
9.027410 1.953998 0.146571 0.070000
9.249437 1.068112 0.138857 0.030000
9.281981 0.153592 0.130543 0.030000
9.113864 -0.729802 0.131820 0.020000
8.900782 -1.614021 0.122977 0.020000
8.361106 -2.419517 0.123574 0.050000
7.728522 2.458767 1.630072 0.180000
8.851455 0.999703 1.712580 0.110000
43.134285 0.681473 7.185942 0.190000
42.049206 -4.519604 6.993773 0.010000
11.329921 -3.660395 2.176732 0.480000
13.008501 6.737018 1.284755 0.020000
7.622134 2.369335 0.914455 0.090000
13.144002 3.074369 1.161492 0.000000
8.749124 0.970653 0.917197 0.100000
13.264182 0.201310 1.111125 0.010000
13.000731 -1.183907 1.085287 0.230000
11.181113 -3.558901 0.996708 0.330000
8.074120 3.681010 0.160503 0.080000
8.476989 2.753598 0.148107 0.050000
8.729299 1.853289 0.140418 0.080000
8.935551 1.007090 0.137811 0.030000
8.972435 0.127678 0.124638 0.030000
8.833642 -0.720149 0.126124 0.020000
8.564503 -1.550450 0.122335 0.020000
8.104525 -2.339417 0.123202 0.050000
7.738873 2.444054 1.605044 0.160000
8.876776 0.985240 1.697592 0.080000
40.483120 0.532671 6.633462 0.240000
43.123936 -4.759137 7.015688 0.010000
11.325601 -3.690337 2.136609 0.480000
7.597779 2.338955 0.889278 0.090000
13.149680 3.044619 1.121395 0.000000
8.744477 0.955653 0.892129 0.130000
12.996316 -1.208850 1.045183 0.270000
7.812631 3.495987 0.154132 0.090000
8.229431 2.623834 0.146978 0.050000
8.456075 1.758040 0.139351 0.080000
8.666573 0.951947 0.131904 0.030000
8.687776 0.107222 0.123819 0.040000
8.498116 -0.696589 0.130336 0.020000
8.308606 -1.505324 0.116835 0.020000
7.873048 -2.263818 0.117878 0.060000
7.749307 2.424324 1.584998 0.180000
11.030894 1.270446 2.004279 0.160000
40.490452 0.433381 6.473111 0.380000
43.351913 -4.894318 6.885779 0.020000
11.306092 -3.710567 2.096482 0.220000
13.030292 6.657787 1.184516 0.010000
13.140470 3.009601 1.076241 0.000000
8.789713 0.946591 0.872213 0.090000
12.951907 -1.234558 1.004971 0.220000
13.417005 -2.800927 1.000362 0.010000
10.940600 -3.523207 0.916212 0.090000
7.600558 3.341917 0.148006 0.080000
7.961986 2.488706 0.140778 0.050000
8.197765 1.668095 0.133342 0.090000
8.397690 0.891805 0.125978 0.030000
8.393118 0.086576 0.122973 0.040000
8.247889 -0.686361 0.124721 0.030000
8.042697 -1.460409 0.116308 0.020000
7.671948 -2.207641 0.112562 0.060000
7.729950 2.394039 1.559835 0.240000
11.021550 1.240371 1.974142 0.310000
40.497913 0.323999 6.337722 0.350000
43.454834 -5.026875 6.750554 0.010000
40.963371 -9.899608 6.495934 0.010000
11.226238 -3.711914 2.046268 0.200000
13.031476 6.602984 1.134315 0.010000
14.781394 5.316197 1.154099 0.100000
18.548973 4.422901 1.240614 0.010000
8.800256 0.921880 0.847149 0.100000
13.281313 0.107061 0.990818 0.000000
12.912607 -1.265151 0.959754 0.250000
13.387703 -2.831329 0.955172 0.010000
10.906081 -3.543744 0.881045 0.090000
7.378571 3.182637 0.146834 0.080000
7.734136 2.374322 0.139758 0.050000
7.949441 1.578324 0.132360 0.100000
8.128698 0.836644 0.125071 0.030000
8.133454 0.066599 0.122221 0.030000
7.992649 -0.676247 0.124092 0.030000
7.842077 -1.429227 0.110900 0.030000
7.480847 -2.151273 0.107273 0.070000
7.765188 2.384786 1.539892 0.290000
11.101983 1.222000 1.949284 0.210000
40.550747 0.195483 6.202381 0.180000
45.306950 -5.396891 6.869014 0.010000
40.850918 -10.011194 6.335225 0.030000
11.171653 -3.727797 2.001066 0.290000
13.017841 6.537876 1.089037 0.010000
13.132322 2.924742 0.990903 0.000000
8.820700 0.902360 0.822129 0.120000
13.297194 0.067523 0.945712 0.000000
12.903384 -1.300187 0.919599 0.300000
16.529560 -3.686437 0.995195 0.060000
10.816202 -3.545319 0.840805 0.080000
7.166498 3.028567 0.140708 0.080000
7.516394 2.255150 0.133746 0.050000
7.745833 1.504429 0.126554 0.090000
7.894713 0.782172 0.119258 0.030000
7.888896 0.041929 0.116491 0.040000
7.802615 -0.674850 0.113601 0.030000
7.641470 -1.398027 0.100492 0.030000
7.289760 -2.094886 0.096984 0.070000
45.277668 25.968616 8.205547 0.050000
7.750939 2.349617 1.509724 0.320000
11.172527 1.198457 1.919380 0.320000
44.947773 0.068021 6.663390 0.180000
39.772545 -4.824281 5.901687 0.020000
40.909309 -10.164498 6.169806 0.020000
11.187521 -3.767353 1.960960 0.270000
13.019039 6.483091 1.033835 0.020000
13.148108 2.890203 0.945816 0.000000
8.846157 0.882954 0.792123 0.090000
12.889175 -1.335301 0.874431 0.320000
16.550861 -3.745819 0.935029 0.050000
10.751511 -3.556413 0.800594 0.090000
6.969231 2.884782 0.134658 0.090000
7.328263 2.156548 0.127888 0.060000
7.527312 1.425231 0.125689 0.110000
7.680520 0.738062 0.118535 0.030000
7.694233 0.023216 0.110913 0.040000
7.602474 -0.668663 0.108102 0.030000
7.445836 -1.366768 0.100098 0.030000
7.093646 -2.038632 0.096681 0.090000
45.278072 25.719442 7.969620 0.030000
7.771288 2.335095 1.484723 0.350000
57.076504 14.330768 8.673089 0.040000
11.193190 1.168976 1.884324 0.290000
44.941231 -0.086453 6.477797 0.270000
39.750538 -4.959158 5.746126 0.020000
39.887600 -10.042944 5.867587 0.010000
11.193474 -3.812119 1.925809 0.210000
13.040233 6.428689 0.978688 0.010000
13.073168 4.454099 0.936433 0.010000
29.928310 7.166117 1.335515 0.000000
8.891597 0.863913 0.767171 0.080000
15.224264 -0.015402 0.900433 0.000000
10.702007 -3.577218 0.760387 0.110000
6.801658 2.756550 0.133744 0.090000
7.130312 2.047737 0.126967 0.060000
7.328703 1.351432 0.119897 0.110000
7.481432 0.689258 0.112834 0.030000
7.459564 0.003719 0.110228 0.040000
7.402415 -0.667495 0.107584 0.030000
7.169916 -1.322063 0.104544 0.030000
6.932827 -1.996686 0.091417 0.090000
49.500191 27.934044 8.438878 0.020000
7.766943 2.305117 1.454599 0.170000
57.111504 14.102241 8.442328 0.140000
11.208949 1.134400 1.849236 0.170000
44.939655 -0.240869 6.302217 0.200000
40.665825 -5.221547 5.712540 0.020000
40.132195 -10.262840 5.742407 0.010000
13.021721 6.358524 0.923378 0.030000
14.771486 5.081791 0.928200 0.040000
13.179978 2.806147 0.850585 0.010000
13.334840 -0.051282 0.810367 0.010000
10.662599 -3.602830 0.720189 0.160000
6.624100 2.628145 0.127803 0.090000
6.966985 1.959612 0.121213 0.060000
7.134998 1.282729 0.114136 0.110000
7.287235 0.645532 0.112164 0.040000
7.274899 -0.014803 0.104677 0.040000
7.167172 -0.656998 0.107009 0.030000
6.979294 -1.290690 0.099163 0.040000
6.706432 -1.926009 0.091089 0.090000
48.804665 27.221899 8.079412 0.040000
7.787374 2.285578 1.434580 0.190000
57.156914 13.853947 8.201522 0.100000
36.513226 -0.332718 5.039866 0.190000
40.639412 -5.386495 5.551856 0.040000
40.276844 -10.484596 5.601959 0.010000
11.376937 -3.983434 1.870650 0.060000
13.047901 6.304199 0.873244 0.020000
14.723172 5.001053 0.872773 0.100000
13.453082 -3.079277 0.724419 0.020000
10.633367 -3.638268 0.684980 0.230000
6.441625 2.494627 0.126831 0.090000
6.773841 1.860896 0.120342 0.060000
6.956277 1.214294 0.113415 0.120000
7.103036 0.601996 0.111522 0.030000
7.055215 -0.034032 0.109032 0.040000
7.022116 -0.654757 0.101639 0.030000
6.808751 -1.263951 0.098817 0.040000
6.313469 -1.778601 0.115611 0.080000
50.309494 27.770926 8.055380 0.040000
7.778125 2.250505 1.404425 0.290000
57.202335 13.605671 7.955715 0.070000
36.626320 -0.475101 4.909631 0.120000
40.973961 -5.604705 5.436917 0.020000
38.853111 -10.255576 5.259090 0.010000
11.357824 -4.023642 1.825450 0.190000
13.039566 6.224208 0.822924 0.030000
14.739558 4.936557 0.817575 0.190000
13.172228 2.701310 0.760174 0.000000
11.113955 1.031743 0.708595 0.080000
14.947513 -0.165142 0.739153 0.010000
13.329328 -1.576290 0.704683 0.060000
10.624348 -3.683284 0.639789 0.310000
6.303567 2.391965 0.126089 0.090000
6.620512 1.772962 0.114615 0.060000
6.777461 1.150858 0.112712 0.120000
6.928753 0.563670 0.105924 0.040000
6.900545 -0.051979 0.103562 0.040000
6.831960 -0.648398 0.101166 0.030000
6.628305 -1.242403 0.098426 0.040000
6.132436 -1.727077 0.120330 0.170000
50.850822 27.731947 7.876647 0.020000
7.798761 2.220986 1.379369 0.360000
57.213135 13.336710 7.714740 0.070000
11.191566 1.014486 1.728744 0.030000
35.939445 -0.612437 4.677325 0.240000
12.600286 -1.534499 1.862947 0.000000
40.359863 -10.856880 5.275788 0.010000
11.338712 -4.063850 1.780251 0.420000
13.055857 6.164711 0.767745 0.040000
8.128802 2.319891 0.680591 0.030000
13.193204 2.656869 0.715064 0.010000
11.129715 0.997167 0.673507 0.080000
13.262779 -0.187209 0.679672 0.010000
13.435359 -3.184269 0.623981 0.010000
10.600115 -3.718626 0.604594 0.290000
6.170522 2.289417 0.120360 0.080000
6.452160 1.684704 0.118847 0.060000
6.623640 1.087901 0.112077 0.100000
6.764550 0.520518 0.105335 0.040000
6.710867 -0.070615 0.102998 0.040000
6.682002 -0.651252 0.095764 0.030000
6.432576 -1.206145 0.098050 0.050000
6.102686 -1.737576 0.100213 0.220000
45.862633 24.594398 6.886952 0.020000
57.243752 13.078149 7.468857 0.080000
11.127558 0.968417 1.683405 0.110000
36.137691 -0.763227 4.557281 0.270000
12.621345 -1.583957 1.822818 0.010000
39.373535 -10.759781 5.008572 0.010000
11.304494 -4.099365 1.740029 0.440000
13.032634 6.079453 0.712367 0.020000
8.154342 2.295468 0.655567 0.100000
30.554386 6.675147 0.755319 0.010000
11.130572 0.957304 0.638361 0.100000
31.668261 -4.460066 0.601831 0.120000
13.401454 -3.234744 0.573705 0.010000
10.626364 -3.777987 0.564441 0.220000
6.027548 2.181641 0.124586 0.090000
6.318539 1.612150 0.113229 0.050000
6.474626 1.035038 0.111491 0.120000
6.570244 0.481771 0.109684 0.030000
6.581179 -0.088102 0.102594 0.040000
6.496831 -0.644816 0.100304 0.030000
6.292219 -1.188830 0.097748 0.050000
6.057816 -1.743399 0.090074 0.150000
46.378571 24.569788 6.748206 0.040000
7.824941 2.166662 1.329235 0.100000
57.239964 12.788942 7.217769 0.080000
11.128428 0.928573 1.643259 0.150000
35.830875 -0.908505 4.385938 0.210000
12.562253 -1.624913 1.772511 0.050000
39.377605 -10.949132 4.842877 0.020000
13.068811 6.025320 0.662260 0.070000
8.219586 2.286808 0.630704 0.090000
13.185548 2.547033 0.624634 0.010000
11.161520 0.913018 0.603277 0.120000
13.300020 -0.291184 0.589382 0.010000
12.655477 -1.623709 0.567746 0.010000
15.540214 -3.923666 0.511726 0.020000
10.582134 -3.813712 0.529193 0.190000
5.909308 2.089379 0.118935 0.080000
6.150187 1.523892 0.117461 0.050000
6.320708 0.977080 0.110874 0.100000
6.445856 0.449401 0.104239 0.030000
6.376396 -0.102045 0.107008 0.050000
6.331671 -0.637977 0.099899 0.030000
6.126675 -1.161996 0.097416 0.040000
5.896792 -1.691474 0.089847 0.120000
42.437332 22.091583 5.988698 0.030000
7.810789 2.126493 1.299048 0.130000
57.285812 12.515596 6.991870 0.080000
11.204246 0.890110 1.618313 0.130000
12.742357 -0.321160 1.757827 0.110000
11.520169 -1.504281 1.615237 0.060000
39.210972 -11.101708 4.666873 0.020000
13.055477 5.945234 0.611927 0.030000
8.250138 2.262498 0.600694 0.190000
11.147394 0.872887 0.563090 0.110000
12.680528 -0.317907 0.547665 0.010000
12.641446 -1.668839 0.527541 0.020000
13.399002 -3.354463 0.478252 0.010000
10.623669 -3.887783 0.489025 0.170000
5.756336 1.981412 0.123134 0.080000
6.001639 1.446015 0.121784 0.050000
6.171681 0.924198 0.115288 0.090000
6.266547 0.410942 0.108628 0.030000
6.241709 -0.119627 0.106591 0.050000
6.171496 -0.631062 0.104506 0.030000
6.006314 -1.144298 0.097167 0.050000
5.776144 -1.658779 0.089654 0.120000
47.668468 24.630640 6.441796 0.050000
7.836233 2.107069 1.274042 0.210000
57.276917 12.231275 6.745788 0.070000
12.673376 -0.367288 1.702475 0.120000
11.496140 -1.549602 1.575006 0.150000
39.954281 -11.517253 4.587267 0.010000
13.081861 5.880929 0.556756 0.140000
8.260873 2.227789 0.575592 0.150000
11.213240 0.834269 0.528118 0.110000
12.691697 -0.372538 0.502491 0.040000
11.644219 -1.557808 0.495351 0.070000
19.306345 -5.226090 0.331713 0.020000
10.619732 -3.937721 0.448829 0.150000
5.667694 1.909701 0.122636 0.070000
5.882811 1.383728 0.121243 0.040000
6.037665 0.871622 0.114743 0.100000
6.152143 0.378746 0.108210 0.030000
6.096914 -0.132421 0.111165 0.050000
6.051518 -0.633360 0.104185 0.030000
5.870943 -1.126906 0.101878 0.060000
5.640390 -1.621390 0.094438 0.150000
49.001545 25.011421 6.396691 0.020000
7.836956 2.072150 1.253914 0.110000
42.824287 8.820188 4.975364 0.020000
12.634459 -0.417877 1.657185 0.350000
11.487000 -1.589656 1.539833 0.160000
39.858166 -11.698539 4.426341 0.020000
15.315898 2.833507 0.461258 0.000000
11.234094 0.794790 0.493025 0.110000
12.657766 -0.423050 0.462214 0.040000
11.559915 -1.589281 0.455013 0.130000
13.421738 -3.483702 0.382830 0.040000
11.287128 -4.309803 0.394187 0.160000
5.559247 1.827610 0.122048 0.070000
5.768982 1.321537 0.120714 0.040000
5.933451 0.829619 0.114315 0.090000
6.007636 0.350955 0.112729 0.030000
5.982141 -0.144603 0.105820 0.050000
5.921447 -0.630851 0.103854 0.040000
5.775782 -1.118709 0.096661 0.060000
5.534944 -1.598387 0.089249 0.140000
47.320995 23.780613 5.952724 0.040000
7.862495 2.047726 1.228890 0.110000
43.730583 8.772848 4.892553 0.040000
12.690594 -0.471683 1.622131 0.140000
11.462972 -1.634978 1.499601 0.190000
39.525818 -11.814246 4.240042 0.030000
51.816730 -23.946150 5.632041 0.070000
13.080093 5.726235 0.456175 0.110000
15.496595 2.807183 0.401632 0.000000
11.260056 0.750426 0.452928 0.100000
12.994175 -0.486435 0.412856 0.030000
11.570963 -1.638950 0.419857 0.240000
11.227833 -4.340779 0.348917 0.280000
5.485424 1.766204 0.116627 0.080000
5.670054 1.264633 0.120244 0.040000
5.814240 0.787328 0.113846 0.090000
5.918145 0.324254 0.107396 0.030000
5.862341 -0.156918 0.110462 0.050000
5.831477 -0.632556 0.098613 0.040000
5.665515 -1.105818 0.096421 0.060000
5.444481 -1.575116 0.089099 0.130000
47.357502 23.472065 5.731670 0.030000
7.863231 2.012826 1.203762 0.110000
42.500088 8.305244 4.602600 0.060000
12.851779 -0.528514 1.597340 0.180000
11.479018 -1.684551 1.464458 0.170000
39.480080 -12.014571 4.079176 0.020000
51.697720 -24.227636 5.400681 0.070000
8.382304 2.165397 0.495676 0.090000
9.061699 1.423351 0.474691 0.000000
12.500463 -1.855949 0.356476 0.110000
15.764662 -4.373365 0.215637 0.030000
11.229279 -4.410617 0.308661 0.400000
5.401685 1.699588 0.116161 0.080000
5.566128 1.207632 0.119761 0.030000
5.729927 0.750707 0.113490 0.090000
5.813644 0.297248 0.107023 0.030000
5.777658 -0.173524 0.105179 0.050000
5.726496 -0.634567 0.098332 0.040000
5.560247 -1.092832 0.096194 0.070000
5.374220 -1.561441 0.083966 0.130000
45.928585 22.410887 5.348992 0.030000
7.868966 1.978021 1.178647 0.280000
42.977543 8.199846 4.473453 0.060000
53.667927 3.730825 5.294753 0.040000
12.002059 -0.534349 1.475099 0.180000
11.490079 -1.734201 1.424302 0.170000
38.588547 -11.910784 3.847232 0.010000
45.899002 -21.635502 4.650173 0.060000
16.322290 7.234292 0.280243 0.070000
8.407844 2.140974 0.470652 0.140000
9.027537 1.382781 0.449451 0.010000
13.256757 -0.606097 0.323096 0.030000
14.457759 -4.023278 0.198527 0.030000
11.230533 -4.470457 0.268441 0.380000
5.327849 1.638163 0.115740 0.080000
5.521833 1.171814 0.109512 0.030000
5.625712 0.708704 0.113062 0.080000
5.734055 0.275739 0.101735 0.030000
5.687866 -0.185246 0.104901 0.050000
5.636513 -0.636291 0.098090 0.040000
5.490178 -1.089155 0.091025 0.070000
5.268665 -1.533457 0.083795 0.120000
45.930061 22.101612 5.142844 0.030000
7.879604 1.948312 1.153564 0.310000
51.718769 9.700338 5.096854 0.040000
55.066322 3.577873 5.217834 0.020000
11.998013 -0.579306 1.439921 0.510000
11.541202 -1.788121 1.394235 0.140000
17.544361 -5.100643 1.917596 0.000000
45.667828 -21.809225 4.448921 0.030000
14.788797 6.359805 0.262989 0.060000
11.295462 1.786635 0.361871 0.050000
13.296460 -3.705463 0.196677 0.030000
11.246975 -4.540008 0.228225 0.260000
5.273735 1.592137 0.110427 0.070000
5.427796 1.119986 0.114074 0.030000
5.571215 0.682674 0.107823 0.100000
5.639539 0.248905 0.106389 0.030000
5.623083 -0.196470 0.099690 0.050000
5.551529 -0.637918 0.097862 0.050000
5.410001 -1.080689 0.090847 0.070000
5.208498 -1.524590 0.078671 0.130000
47.218338 22.471533 5.097581 0.050000
7.905035 1.928868 1.133558 0.120000
30.691454 5.458995 3.086180 0.060000
31.275787 1.849640 3.049287 0.020000
75.987152 -4.807892 6.591285 47.210999
11.582217 -1.837253 1.369159 0.110000
17.445314 -5.142309 1.852182 0.000000
45.345337 -21.914669 4.242685 0.050000
13.646015 5.712841 0.247601 0.060000
13.115872 3.622172 0.278445 0.080000
11.176808 1.719461 0.331312 0.090000
14.601074 -0.799890 0.190883 0.010000
13.643441 -2.238522 0.193036 0.040000
12.522319 -3.495215 0.185438 0.020000
5.209609 1.545901 0.110088 0.090000
5.373394 1.088957 0.108817 0.030000
5.476808 0.650860 0.107458 0.080000
5.589849 0.232969 0.101200 0.030000
5.538291 -0.208096 0.099426 0.060000
5.501647 -0.643856 0.092710 0.040000
5.324729 -1.067320 0.090674 0.070000
5.117926 -1.496338 0.083539 0.110000
29.542311 13.478019 3.217991 0.010000
7.895760 1.893758 1.113403 0.130000
30.764263 5.325696 2.995873 0.010000
31.323626 1.715899 2.948914 0.010000
11.874670 -0.656407 1.364312 0.770000
11.663527 -1.900597 1.339135 0.070000
17.351448 -5.193896 1.791745 0.000000
17.694357 -7.963111 1.862347 0.000000
12.849719 5.252546 0.233811 0.070000
11.212550 1.685250 0.301277 0.140000
13.917455 0.687280 0.194627 0.010000
12.148213 -0.682066 0.244919 0.020000
11.751682 -1.909859 0.234320 0.050000
11.677686 -3.261350 0.184102 0.100000
10.996808 -4.524558 0.162629 0.070000
5.145675 1.489666 0.109712 0.080000
5.319075 1.052910 0.108541 0.030000
5.432308 0.625021 0.102246 0.090000
5.490251 0.211058 0.100858 0.030000
5.473495 -0.219339 0.099215 0.060000
5.406556 -0.640695 0.097474 0.040000
5.254551 -1.058662 0.090523 0.090000
5.067853 -1.492278 0.078424 0.140000
29.536049 13.298271 3.107305 0.020000
7.931189 1.874506 1.093424 0.120000
17.020161 2.701227 1.800229 0.020000
31.351456 1.581757 2.853487 0.050000
11.890704 -0.705998 1.334169 0.830000
17.469212 -7.947145 1.786818 0.000000
12.261371 4.901253 0.220969 0.070000
12.834915 3.416975 0.216949 0.070000
11.158584 1.634299 0.275947 0.210000
13.148952 0.602565 0.187306 0.010000
12.113970 -0.717618 0.214697 0.030000
11.722437 -1.945315 0.204111 0.060000
10.543264 -4.343194 0.157119 0.060000
5.101367 1.453830 0.104463 0.080000
5.249759 1.016576 0.108225 0.030000
5.367799 0.598781 0.101980 0.060000
5.460557 0.195505 0.095723 0.030000
5.378595 -0.226176 0.103942 0.030000
5.341581 -0.641922 0.092299 0.050000
5.189467 -1.054908 0.090367 0.080000
4.997483 -1.473622 0.078309 0.130000
29.544182 13.148767 3.006770 0.060000
7.956606 1.855045 1.078418 0.530000
8.908946 1.212987 1.128517 0.010000
31.318708 1.476441 2.763009 0.120000
11.886454 -0.740976 1.304028 0.900000
17.208582 -5.291246 1.681009 0.000000
11.697443 4.580433 0.208304 0.070000
12.284081 3.196442 0.199691 0.060000
11.029727 1.576913 0.250397 0.120000
12.550337 0.526124 0.175459 0.010000
12.230106 -0.770256 0.174804 0.040000
11.653008 -1.971539 0.173832 0.050000
10.878959 -3.071540 0.162723 0.050000
10.215860 -4.219405 0.146725 0.070000
5.052143 1.412880 0.104182 0.080000
5.220257 0.991025 0.103053 0.030000
5.313193 0.577732 0.101759 0.040000
5.385845 0.179053 0.100467 0.020000
5.328713 -0.232114 0.098789 0.040000
5.271486 -0.638282 0.097130 0.060000
5.144393 -1.050752 0.085265 0.090000
4.952300 -1.464486 0.078225 0.130000
29.567301 12.999532 2.911274 0.140000
7.937333 1.819743 1.058236 0.490000
8.924475 1.188353 1.108466 0.020000
31.341227 1.357163 2.677624 0.140000
11.882203 -0.775954 1.273886 0.810000
32.467022 -6.502683 2.656344 0.060000
33.310555 -11.127675 2.731354 0.000000
11.222624 4.306309 0.201046 0.070000
11.827534 3.012684 0.192816 0.060000
11.030463 1.542012 0.225269 0.130000
12.096297 0.472437 0.169074 0.010000
11.830098 -0.772899 0.168750 0.020000
11.226950 -1.919672 0.167913 0.050000
10.527230 -2.983223 0.152133 0.040000
9.868064 -4.076022 0.141350 0.060000
5.027640 1.387424 0.099024 0.080000
5.160830 0.959863 0.107782 0.030000
5.263585 0.556778 0.101552 0.040000
5.361150 0.163595 0.095345 0.020000
5.283913 -0.242974 0.098632 0.040000
5.221604 -0.644220 0.091978 0.070000
5.089307 -1.046806 0.085136 0.100000
4.907225 -1.460330 0.073123 0.120000
29.590010 12.870255 2.825852 0.070000
7.932865 1.794726 1.038131 0.480000
8.850321 1.147017 1.083119 0.020000
31.353529 1.247654 2.602248 0.120000
11.883036 -0.815853 1.248740 0.770000
33.278191 -11.252987 2.640803 0.010000
10.851744 4.089204 0.189271 0.080000
11.415704 2.844804 0.181117 0.060000
11.125907 1.523947 0.195450 0.110000
11.667349 0.414230 0.162738 0.010000
11.425091 -0.775638 0.162683 0.020000
10.886165 -1.881173 0.162166 0.060000
10.205578 -2.899350 0.146605 0.050000
9.560657 -3.951851 0.131009 0.060000
4.993125 1.361759 0.098838 0.080000
5.136230 0.939407 0.102642 0.030000
5.223880 0.541015 0.101390 0.030000
5.301353 0.152448 0.095147 0.010000
5.249029 -0.248625 0.093520 0.040000
5.171600 -0.645196 0.096844 0.090000
5.049219 -1.042573 0.085047 0.120000
4.872040 -1.451002 0.073066 0.130000
29.652111 12.771703 2.750647 0.030000
8.766059 1.110471 1.062762 0.100000
31.375528 1.153316 2.531954 0.120000
11.893661 -0.845581 1.228657 0.810000
18.823200 -3.684893 1.651195 0.000000
13.486428 -4.121041 1.325639 0.000000
13.580333 -6.154712 1.348325 0.000000
10.535253 3.903110 0.187753 0.080000
11.127975 2.724290 0.174918 0.060000
11.338190 0.367936 0.156707 0.010000
11.085072 -0.777132 0.156790 0.020000
10.560280 -1.837388 0.156478 0.050000
9.949490 -2.844227 0.141141 0.050000
9.303596 -3.846756 0.130728 0.060000
4.968609 1.336285 0.098680 0.070000
5.091622 0.918549 0.102448 0.030000
5.194173 0.525443 0.101254 0.030000
5.256553 0.141588 0.094990 0.010000
5.204120 -0.254504 0.098381 0.040000
5.136620 -0.645848 0.091750 0.070000
5.009227 -1.043339 0.084940 0.100000
4.836951 -1.446673 0.072991 0.100000
29.570580 12.600386 2.674797 0.090000
8.681798 1.073924 1.042407 0.160000
31.392515 1.058863 2.466646 0.130000
11.909393 -0.880195 1.203569 0.740000
13.365713 -2.512904 1.286302 0.000000
13.537825 -4.189977 1.300517 0.000000
13.611829 -6.229030 1.323131 0.020000
10.303005 3.758673 0.176609 0.080000
10.855146 2.609063 0.168777 0.060000
10.882838 1.424366 0.169446 0.030000
11.058830 0.332598 0.150846 0.010000
10.815136 -0.782284 0.151066 0.020000
10.314860 -1.817066 0.150913 0.060000
9.743583 -2.798144 0.135775 0.040000
9.066820 -3.756274 0.130447 0.060000
4.929192 1.305524 0.098462 0.080000
5.057108 0.892883 0.102262 0.030000
5.159576 0.504795 0.096087 0.040000
5.226750 0.131016 0.094873 0.010000
5.159224 -0.260365 0.098242 0.040000
5.096627 -0.646614 0.091643 0.070000
4.969138 -1.039106 0.084851 0.110000
4.801862 -1.442345 0.072915 0.120000
29.677084 12.532670 2.604822 0.020000
8.667319 1.048697 1.027275 0.240000
31.389589 0.959009 2.406267 0.020000
11.925114 -0.914826 1.183481 0.590000
17.037870 -3.398374 1.467598 0.000000
13.468217 -4.206185 1.265275 0.010000
13.557409 -6.254949 1.287892 0.030000
10.065746 3.614122 0.170453 0.080000
10.552516 2.483263 0.162519 0.060000
10.753860 1.371941 0.153914 0.020000
10.844459 0.298505 0.145160 0.010000
10.545090 -0.782456 0.150360 0.020000
10.099434 -1.796170 0.145429 0.060000
9.512476 -2.742560 0.135378 0.050000
8.840055 -3.665583 0.125192 0.060000
4.904675 1.280051 0.098304 0.080000
5.047410 0.877713 0.097181 0.020000
5.129773 0.494223 0.095970 0.040000
5.177047 0.115061 0.094684 0.010000
5.134433 -0.270823 0.093138 0.040000
5.066729 -0.652187 0.091544 0.070000
4.939144 -1.039681 0.084770 0.090000
4.756583 -1.428209 0.072849 0.120000
29.699440 12.418298 2.544455 0.020000
8.697736 1.029331 1.012282 0.130000
13.251097 0.340515 1.266610 0.020000
13.062945 -1.058225 1.230919 0.470000
17.023993 -3.453558 1.442356 0.010000
13.474322 -4.261004 1.245087 0.000000
13.568706 -6.319671 1.267681 0.020000
9.887997 3.495716 0.164549 0.070000
10.314381 2.383685 0.161528 0.050000
10.535050 1.307739 0.153104 0.020000
10.575192 0.258359 0.139308 0.010000
10.340238 -0.791362 0.144792 0.020000
9.909100 -1.779794 0.139993 0.050000
9.341864 -2.710785 0.125051 0.050000
8.648558 -3.589237 0.124976 0.060000
4.875160 1.254481 0.098132 0.080000
5.022702 0.862237 0.097059 0.010000
5.095054 0.478537 0.100821 0.030000
5.152243 0.104584 0.094580 0.010000
5.109534 -0.276301 0.093053 0.040000
5.041829 -0.657665 0.091458 0.050000
4.914162 -1.040141 0.079703 0.120000
4.726492 -1.423785 0.072787 0.110000
13.083841 4.882858 1.353059 0.000000
13.116655 3.178387 1.291808 0.030000
8.812919 1.021554 1.007554 0.390000
13.311795 0.306727 1.251642 0.040000
13.013691 -1.094083 1.205656 0.520000
13.373290 -2.637524 1.215858 0.010000
11.319363 -3.481643 1.107357 0.010000
13.595107 -6.389085 1.242491 0.010000
9.685334 3.371812 0.163559 0.070000
10.126045 2.295062 0.160707 0.060000
10.351152 1.249225 0.147406 0.020000
10.360807 0.224248 0.138621 0.010000
10.175473 -0.804502 0.139313 0.020000
9.753950 -1.772746 0.134614 0.050000
9.151036 -2.669433 0.124707 0.040000
8.482439 -3.532408 0.124753 0.060000
4.870461 1.239406 0.093063 0.070000
4.998090 0.841762 0.096918 0.010000
5.060444 0.457870 0.100654 0.040000
5.127439 0.094107 0.094477 0.010000
5.069733 -0.287065 0.092909 0.040000
4.996838 -0.658527 0.091338 0.040000
4.889262 -1.045619 0.079618 0.110000
4.691403 -1.419456 0.072712 0.110000
16.109451 6.160406 1.535708 0.020000
13.102655 3.128165 1.276585 0.050000
8.788428 0.996117 0.997395 0.510000
12.999486 -1.134326 1.195470 0.680000
13.349100 -2.677940 1.200644 0.010000
11.269890 -3.507540 1.092132 0.030000
13.611567 -6.463747 1.232257 0.020000
9.586899 3.289931 0.157998 0.070000
10.012230 2.232890 0.155178 0.070000
10.247034 1.202223 0.146960 0.020000
10.216505 0.186477 0.138104 0.010000
10.065781 -0.821606 0.138963 0.020000
9.649065 -1.779756 0.134314 0.050000
9.040756 -2.656561 0.129467 0.050000
8.366885 -3.504616 0.124555 0.060000
4.836030 1.208723 0.097859 0.080000
4.993283 0.831668 0.096868 0.010000
5.070647 0.448082 0.095644 0.030000
5.127644 0.084128 0.089440 0.010000
5.064926 -0.297159 0.092859 0.040000
4.976937 -0.663909 0.091266 0.050000
4.859255 -1.046212 0.084537 0.080000
4.676502 -1.424742 0.072653 0.110000
7.651314 2.404698 0.969663 0.010000
13.108625 3.078289 1.271415 0.050000
8.794003 0.966219 0.997299 0.540000
13.248488 0.220572 1.231157 0.010000
13.005264 -1.174204 1.190336 0.700000
11.255646 -3.547838 1.096945 0.070000
13.617895 -6.533656 1.237013 0.010000
9.662076 3.281369 0.158162 0.070000
10.047785 2.203547 0.160162 0.060000
8.945697 0.986951 0.227764 0.020000
10.377050 0.159547 0.138423 0.010000
10.171623 -0.864586 0.139080 0.020000
9.760181 -1.837656 0.139389 0.050000
9.157268 -2.734343 0.129482 0.050000
8.559628 -3.645950 0.124533 0.060000
4.880925 1.214584 0.097998 0.080000
5.008459 0.821939 0.101872 0.020000
5.095725 0.443543 0.100693 0.030000
5.147819 0.074494 0.094457 0.010000
5.085100 -0.306793 0.097876 0.040000
5.022312 -0.683043 0.091313 0.040000
4.894727 -1.070537 0.084540 0.100000
4.727259 -1.463777 0.072641 0.100000
7.691254 2.405390 0.989770 1.000000
8.799141 0.956242 1.017275 0.280000
13.253876 0.195543 1.266078 0.010000
13.025636 -1.198965 1.230298 0.630000
13.405601 -2.762037 1.245480 0.010000
11.245761 -3.558139 1.126881 0.070000
13.623351 -6.563722 1.281916 0.020000
10.103723 3.459841 0.164978 0.070000
10.540488 2.328006 0.161911 0.050000
8.970736 0.982356 0.247812 0.010000
10.782140 0.157268 0.149472 0.010000
10.532584 -0.912718 0.149843 0.020000
10.086819 -1.921452 0.149930 0.040000
9.484863 -2.868129 0.139840 0.040000
8.847915 -3.815477 0.129655 0.060000
4.945434 1.240824 0.098264 0.090000
5.078158 0.838277 0.102114 0.010000
5.145619 0.449500 0.100845 0.030000
5.212807 0.075739 0.094631 0.010000
5.155279 -0.315450 0.098027 0.040000
5.077576 -0.697006 0.096406 0.050000
4.965289 -1.099191 0.084617 0.080000
4.777824 -1.492814 0.072665 0.120000
7.691189 2.405297 1.014770 1.000000
30.347721 7.819974 2.509053 0.050000
31.488638 0.480638 2.454748 0.030000
13.000536 -1.199592 1.270231 0.420000
13.380405 -2.757666 1.285430 0.010000
11.270844 -3.567807 1.166911 0.080000
13.633302 -6.568734 1.336924 0.010000
11.000870 1.266580 0.174167 0.070000
11.332037 0.167802 0.150947 0.010000
11.023725 -0.968341 0.155919 0.020000
10.544021 -2.032734 0.155710 0.060000
9.877844 -3.020648 0.145298 0.050000
9.252439 -4.047771 0.129848 0.060000
5.009847 1.272063 0.098549 0.080000
5.152774 0.859728 0.097389 0.020000
5.215415 0.460839 0.101070 0.040000
5.277795 0.076984 0.094805 0.020000
5.230456 -0.324012 0.098191 0.050000
5.163052 -0.720355 0.091542 0.040000
5.020662 -1.118134 0.084691 0.090000
4.823282 -1.516966 0.077694 0.120000
7.606836 2.368620 1.029413 0.340000
30.307442 7.818799 2.618945 0.210000
31.503252 0.485516 2.564805 0.020000
12.970354 -1.195298 1.305168 0.510000
11.290927 -3.577571 1.206928 0.090000
11.036118 3.862695 0.188910 0.070000
11.604884 2.628388 0.180806 0.060000
10.980783 1.266067 0.209113 0.090000
11.861912 0.177915 0.162368 0.010000
11.564857 -1.023005 0.162128 0.020000
11.011220 -2.143824 0.161516 0.050000
10.316198 -3.192302 0.150805 0.040000
9.671947 -4.279796 0.135080 0.050000
5.064441 1.293094 0.103769 0.090000
5.212366 0.880854 0.102623 0.030000
5.275199 0.471967 0.106267 0.040000
5.367778 0.078707 0.095047 0.020000
5.355747 -0.336578 0.088471 0.180000
5.218220 -0.729318 0.096653 0.040000
5.076035 -1.137076 0.084766 0.090000
4.889036 -1.555713 0.077721 0.120000
7.611578 2.378621 1.054463 0.420000
8.090275 1.667645 1.058070 0.020000
8.818737 0.966326 1.097365 0.110000
31.542465 0.510849 2.680003 0.010000
13.010134 -1.189700 1.350293 0.420000
11.310737 -3.572319 1.241999 0.100000
55.466862 -30.538082 4.437051 0.030000
12.336010 2.837428 0.183492 0.050000
10.970514 1.275762 0.239123 0.080000
12.206161 -1.085752 0.168569 0.020000
11.618968 -2.282228 0.167588 0.050000
10.794641 -3.368189 0.156400 0.040000
10.121737 -4.526244 0.140338 0.060000
5.118855 1.324142 0.104027 0.090000
5.271972 0.902000 0.102857 0.030000
5.369907 0.488802 0.101577 0.050000
5.452679 0.085353 0.090293 0.030000
5.320522 -0.327306 0.103414 0.260000
5.303601 -0.747668 0.091807 0.060000
5.146501 -1.160731 0.084862 0.100000
4.934411 -1.574848 0.077768 0.120000
7.611322 2.388526 1.079499 0.430000
8.060228 1.666996 1.077989 0.070000
8.818589 0.971250 1.117383 0.090000
31.531523 0.545261 2.785104 0.010000
13.059815 -1.178912 1.395463 0.700000
11.300360 -3.557643 1.277027 0.090000
55.555462 -30.497240 4.672437 0.100000
12.359715 4.468096 0.209616 0.060000
10.950222 1.285228 0.279105 0.100000
13.291140 0.230259 0.176293 0.010000
12.947542 -1.151584 0.175259 0.020000
12.211514 -2.410939 0.178657 0.040000
11.262881 -3.534287 0.167005 0.080000
10.434788 -4.685349 0.160564 0.040000
5.183269 1.355381 0.104311 0.100000
5.331660 0.918127 0.108073 0.030000
5.434703 0.500045 0.101788 0.060000
5.512559 0.091482 0.095472 0.030000
5.435706 -0.335083 0.098686 0.170000
5.388872 -0.761037 0.091980 0.040000
5.196766 -1.174789 0.089941 0.070000
4.994975 -1.603693 0.077819 0.120000
7.621076 2.398642 1.099563 0.340000
8.104772 1.687761 1.103183 0.170000
8.838315 0.981520 1.147473 0.090000
31.515581 0.579577 2.890190 0.010000
13.049438 -1.164236 1.430491 0.680000
11.299981 -3.542776 1.312082 0.080000
55.654079 -30.456188 4.902850 0.090000
13.008997 4.770530 0.227435 0.060000
13.782817 3.275122 0.213896 0.050000
10.969852 1.300497 0.309214 0.130000
14.050684 0.259774 0.188386 0.010000
13.062429 -1.149511 0.210567 0.010000
13.015087 -2.590599 0.185087 0.040000
11.166740 -3.481266 0.206951 0.150000
10.995708 -4.989679 0.165897 0.050000
5.247682 1.386620 0.104595 0.090000
5.430984 0.955054 0.103469 0.030000
5.489488 0.511078 0.106972 0.070000
5.592448 0.098014 0.095705 0.030000
5.525784 -0.338359 0.098909 0.120000
5.464146 -0.774598 0.092126 0.040000
5.287337 -1.203041 0.085072 0.080000
5.050430 -1.627653 0.082875 0.120000
7.615820 2.408451 1.124586 0.240000
8.074615 1.692093 1.128120 0.320000
8.818062 0.991042 1.172455 0.100000
31.504337 0.628967 3.000346 0.010000
13.038939 -1.144599 1.475537 0.580000
17.738756 -3.751389 1.843119 0.000000
11.309600 -3.527718 1.347163 0.080000
51.051586 -27.738285 4.745937 0.030000
10.964583 1.310288 0.339237 0.140000
14.740808 -1.307322 0.194362 0.010000
13.376296 -2.653785 0.210795 0.040000
11.125986 -3.447168 0.241972 0.160000
5.311985 1.422840 0.109898 0.100000
5.475675 0.970895 0.108645 0.030000
5.589099 0.533008 0.102313 0.090000
