# This PCD file was generated using the MATLAB® pcwrite function
# from Computer Vision Toolbox®.
# .PCD v.7 - Point Cloud Data file format
VERSION .7
FIELDS x y z intensity
SIZE 4 4 4 4
TYPE F F F F
COUNT 1 1 1 1
WIDTH 1285
HEIGHT 1
VIEWPOINT 0 0 0 1 0 0 0
POINTS 1285
DATA ascii
10.415095 1.045451 0.136816 0.010000
10.440405 -0.014252 0.132942 0.020000
9.653115 -1.989679 0.123544 0.050000
9.126146 -2.934920 0.113655 0.070000
4.749351 1.557143 0.093928 0.020000
4.882349 1.139580 0.102723 0.010000
5.044519 0.767638 0.096764 0.030000
5.126690 0.394146 0.095590 0.010000
5.114167 0.003837 0.094106 0.030000
5.116462 -0.376168 0.087700 0.030000
5.043880 -0.762589 0.076074 0.070000
4.891396 -1.155561 0.069215 0.120000
16.205236 8.197325 1.618531 0.000000
8.349341 2.507920 1.016869 0.360000
13.139030 2.793747 1.290437 0.040000
11.116490 1.100227 1.138860 0.210000
13.263935 -0.064200 1.235138 0.150000
13.296635 -1.508811 1.224854 0.030000
13.450902 -3.036163 1.229579 0.000000
11.241730 -3.868234 1.115718 0.190000
9.284955 4.169249 0.175478 0.070000
10.019392 3.163173 0.163655 0.060000
10.345234 2.079240 0.155476 0.020000
10.555439 1.028117 0.142118 0.010000
10.631136 -0.050605 0.133305 0.020000
9.749343 -2.052847 0.123560 0.050000
9.237850 -3.022796 0.113620 0.070000
4.744722 1.537032 0.098841 0.030000
4.927354 1.140460 0.097844 0.010000
5.054804 0.752833 0.096736 0.040000
5.156889 0.384741 0.090634 0.010000
5.149352 -0.005491 0.094164 0.020000
5.121748 -0.391069 0.087658 0.030000
5.084461 -0.791799 0.071071 0.070000
4.896682 -1.170462 0.069173 0.130000
16.454237 8.246974 1.654366 0.000000
8.349903 2.477907 1.021759 0.470000
30.453007 7.037219 2.406417 0.170000
11.206901 1.076881 1.159010 0.200000
12.644678 -0.105994 1.213366 0.150000
13.212296 -1.545470 1.234497 0.050000
13.431825 -3.086592 1.244341 0.010000
11.318400 -3.956837 1.130589 0.120000
9.503586 4.243467 0.171325 0.070000
10.203878 3.191711 0.164243 0.060000
10.550099 2.088166 0.156044 0.020000
10.740788 1.011664 0.142540 0.010000
10.766864 -0.088031 0.138520 0.030000
10.376856 -1.135704 0.138608 0.060000
9.900835 -2.129977 0.128669 0.040000
9.359634 -3.115498 0.118593 0.080000
4.784619 1.542798 0.098967 0.030000
4.942530 1.130731 0.102847 0.020000
5.089894 0.748504 0.096811 0.040000
5.187075 0.375317 0.090678 0.010000
5.164637 -0.020201 0.094149 0.030000
5.142019 -0.405702 0.092657 0.040000
5.089734 -0.806719 0.076029 0.050000
4.922253 -1.199978 0.069130 0.140000
29.182135 15.393641 2.629166 0.030000
8.330743 2.432495 1.031540 0.480000
30.500481 6.902958 2.446042 0.090000
11.182742 1.031373 1.168778 0.240000
12.650487 -0.150964 1.233215 0.420000
13.193122 -1.590900 1.249278 0.080000
13.437921 -3.146560 1.264135 0.020000
11.304214 -4.002190 1.150383 0.250000
9.707385 4.307364 0.177094 0.080000
10.442971 3.241299 0.165051 0.070000
10.789863 2.102760 0.156725 0.020000
10.971115 0.996054 0.148084 0.010000
9.266596 -0.102133 0.234553 0.030000
10.543057 -1.197550 0.143812 0.060000
10.072528 -2.216705 0.128795 0.050000
9.521795 -3.227431 0.123600 0.080000
4.819613 1.543468 0.099061 0.040000
4.982522 1.131497 0.102955 0.020000
5.120080 0.739080 0.096855 0.030000
5.222343 0.360972 0.095716 0.010000
5.204916 -0.034432 0.094201 0.030000
5.162303 -0.420316 0.092655 0.050000
5.135314 -0.835833 0.071040 0.040000
4.942728 -1.224590 0.069092 0.150000
29.239841 15.244500 2.688762 0.060000
8.356178 2.407923 1.046515 0.400000
30.443222 6.751633 2.500331 0.060000
12.651393 -0.201029 1.253031 0.350000
12.617393 -1.556883 1.237902 0.050000
9.995401 4.412879 0.183239 0.080000
10.721948 3.296633 0.170985 0.070000
11.059512 2.122909 0.162503 0.020000
11.211440 0.980636 0.153654 0.010000
9.297235 -0.136589 0.244505 0.110000
10.784628 -1.277956 0.149144 0.050000
10.279488 -2.317777 0.133960 0.050000
9.684160 -3.349343 0.123571 0.070000
4.849607 1.544042 0.099141 0.030000
5.012612 1.127072 0.103017 0.020000
5.150157 0.734637 0.101917 0.040000
5.262540 0.351758 0.090787 0.010000
5.230199 -0.048950 0.094213 0.030000
5.207773 -0.444449 0.092684 0.050000
5.160788 -0.860349 0.071015 0.050000
4.968202 -1.249106 0.069067 0.160000
29.223604 15.038915 2.752956 0.120000
30.505545 6.622584 2.560014 0.070000
12.632302 -0.251477 1.272794 0.650000
12.568213 -1.602907 1.257603 0.090000
10.308125 4.533872 0.189505 0.080000
11.060530 3.373113 0.177154 0.060000
11.433771 2.165085 0.163637 0.020000
11.212251 0.935570 0.173488 0.060000
9.262764 -0.167328 0.264301 0.110000
11.091378 -1.367115 0.154613 0.050000
10.471452 -2.419137 0.139084 0.050000
9.932263 -3.509638 0.128623 0.080000
4.894598 1.544904 0.099262 0.040000
5.072505 1.133220 0.103196 0.020000
5.205256 0.730710 0.097046 0.040000
5.297712 0.342412 0.095844 0.020000
5.305582 -0.067491 0.089341 0.030000
5.238151 -0.463871 0.092691 0.050000
5.186153 -0.879885 0.076009 0.050000
4.983761 -1.278832 0.073998 0.160000
29.236664 14.868859 2.827359 0.130000
8.372247 2.348110 1.076335 0.140000
30.562817 6.493364 2.639684 0.030000
31.142834 2.848939 2.597651 0.090000
12.613199 -0.301943 1.297557 0.820000
11.631166 -1.500724 1.225536 0.080000
10.705176 4.691504 0.191127 0.080000
8.742175 2.463039 0.307720 0.150000
11.778201 2.196650 0.174654 0.020000
11.173055 0.889719 0.198216 0.090000
11.418221 -1.460891 0.160118 0.050000
10.789158 -2.558095 0.144397 0.040000
10.170368 -3.670124 0.133648 0.080000
4.944480 1.550842 0.104414 0.050000
5.107690 1.123893 0.103253 0.020000
5.265340 0.726860 0.097189 0.040000
5.357988 0.328564 0.095950 0.020000
5.320840 -0.082238 0.099326 0.030000
5.308726 -0.492506 0.087769 0.050000
5.201616 -0.904612 0.080957 0.050000
5.029519 -1.317963 0.073972 0.140000
29.279882 14.689344 2.911805 0.130000
8.358169 2.297777 1.091112 0.160000
30.595587 6.338690 2.714196 0.130000
31.140430 2.703610 2.667105 0.150000
12.594000 -0.347411 1.322338 0.770000
11.576891 -1.541844 1.245242 0.140000
11.181625 4.880644 0.198074 0.080000
8.708183 2.407305 0.327425 0.090000
12.277233 2.251198 0.181159 0.020000
11.188849 0.844922 0.223091 0.060000
11.549594 -1.533442 0.175191 0.080000
11.147336 -2.721283 0.149725 0.040000
10.519602 -3.888493 0.138747 0.070000
5.004277 1.561989 0.104612 0.050000
5.172583 1.130136 0.103446 0.020000
5.375237 0.733984 0.092502 0.170000
5.393160 0.319218 0.101007 0.020000
5.401221 -0.100684 0.094467 0.040000
5.324080 -0.512252 0.097736 0.050000
5.267275 -0.938360 0.081003 0.040000
5.049982 -1.342593 0.078934 0.150000
29.298204 14.504351 2.996166 0.080000
8.413393 2.283759 1.111204 0.380000
30.578268 6.188056 2.788591 0.200000
31.132906 2.563148 2.746564 0.120000
12.579882 -0.397800 1.352114 0.790000
11.522603 -1.582983 1.269948 0.170000
11.752097 5.121593 0.205459 0.080000
12.836048 2.316875 0.192862 0.010000
11.249539 0.805986 0.248105 0.070000
12.588209 -0.408371 0.187084 0.070000
11.545379 -1.578641 0.205012 0.070000
11.590963 -2.907856 0.160190 0.040000
10.813257 -4.077939 0.148810 0.060000
5.063979 1.578136 0.104828 0.050000
5.217561 1.130980 0.108566 0.020000
5.365595 0.713759 0.102402 0.090000
5.463448 0.305580 0.096140 0.020000
5.436585 -0.120028 0.099488 0.040000
5.409665 -0.540582 0.087854 0.050000
5.287737 -0.962991 0.085965 0.040000
5.100847 -1.386609 0.073903 0.140000
29.366226 14.335312 3.080717 0.020000
8.379401 2.228024 1.130908 0.450000
30.625996 6.033613 2.878143 0.160000
31.175539 2.413608 2.836120 0.050000
12.595951 -0.457613 1.381934 0.750000
11.523496 -1.633067 1.294764 0.190000
18.359291 -5.074646 1.814819 0.000000
17.588335 -7.379800 1.799238 0.000000
12.377259 5.378575 0.218046 0.070000
8.848628 2.379843 0.367690 0.100000
13.644076 2.427370 0.195382 0.010000
11.345222 0.767720 0.273213 0.040000
12.589089 -0.458473 0.216901 0.040000
12.635293 -1.822756 0.191950 0.060000
12.059983 -3.113929 0.165648 0.040000
11.283906 -4.368995 0.153956 0.070000
5.118968 1.579189 0.104975 0.060000
5.312365 1.142816 0.103858 0.020000
5.425680 0.709909 0.102544 0.090000
5.533627 0.296922 0.096291 0.020000
5.526964 -0.138282 0.094656 0.060000
5.465217 -0.569541 0.092891 0.060000
5.363598 -1.006528 0.081001 0.050000
5.121392 -1.416257 0.083846 0.140000
29.394300 14.160434 3.185141 0.020000
8.384923 2.198052 1.150811 0.530000
30.638210 5.903439 2.982692 0.030000
12.616800 -0.507369 1.421804 0.570000
11.509269 -1.678475 1.329558 0.180000
17.324636 -4.839365 1.797993 0.000000
17.792208 -7.591227 1.878985 0.000000
13.091720 5.672255 0.236003 0.070000
8.839522 2.329568 0.392479 0.170000
12.935493 -0.531943 0.242532 0.050000
12.510787 -1.855293 0.231504 0.090000
12.649734 -3.357714 0.176281 0.040000
11.724246 -4.645666 0.169078 0.070000
5.198570 1.600717 0.105263 0.070000
5.367342 1.143851 0.109005 0.030000
5.510760 0.706538 0.102754 0.100000
5.603888 0.283247 0.101423 0.030000
5.587432 -0.162128 0.094725 0.060000
5.540778 -0.598099 0.092982 0.050000
5.404249 -1.040774 0.085980 0.070000
5.192542 -1.474887 0.078814 0.150000
29.392847 13.959967 3.294393 0.010000
8.395527 2.163157 1.175710 0.260000
30.651039 5.743327 3.072131 0.050000
31.220579 2.123705 3.030162 0.020000
12.727812 -0.565418 1.466878 0.520000
11.500042 -1.723788 1.364366 0.150000
17.456934 -4.967093 1.862864 0.000000
50.143940 -23.684694 4.688636 0.040000
15.594155 2.699692 0.221485 0.010000
12.521748 -1.910221 0.266329 0.060000
11.260727 -4.474733 0.228504 0.270000
5.263353 1.611942 0.110474 0.080000
5.462132 1.155668 0.109297 0.030000
5.580734 0.707860 0.107941 0.090000
5.684064 0.274781 0.101601 0.030000
5.667788 -0.180611 0.099866 0.060000
5.596329 -0.627059 0.098020 0.060000
5.475002 -1.079425 0.086021 0.070000
5.258475 -1.523651 0.083805 0.120000
47.038132 22.722631 5.233046 0.030000
8.396132 2.128071 1.200581 0.580000
55.015732 3.606872 5.227810 0.020000
11.500909 -1.773909 1.399183 0.150000
17.624580 -5.114183 1.937756 0.000000
45.646893 -21.769857 4.514014 0.060000
15.551359 6.754460 0.271446 0.070000
11.310215 1.796847 0.381948 0.020000
14.473919 -4.082961 0.193347 0.040000
11.226408 -4.515525 0.263263 0.270000
5.377674 1.649156 0.105910 0.070000
5.532106 1.156990 0.114484 0.030000
5.665814 0.704489 0.108151 0.110000
5.769336 0.261412 0.101774 0.030000
5.743252 -0.204170 0.099975 0.050000
5.702089 -0.665021 0.093155 0.050000
5.530745 -1.118383 0.091022 0.060000
5.324613 -1.582394 0.083759 0.120000
45.454113 21.612080 5.229783 0.060000
8.386835 2.087794 1.225407 0.560000
51.627926 9.457914 5.270718 0.040000
57.437000 3.506741 5.638762 0.050000
9.240397 -0.441379 1.238234 0.120000
11.536852 -1.828377 1.439074 0.110000
39.657627 -12.655972 3.992254 0.030000
45.212910 -21.848751 4.667589 0.130000
17.915998 7.839957 0.276654 0.050000
13.100589 3.621476 0.388404 0.070000
11.236287 1.735291 0.416526 0.060000
13.226565 0.703428 0.362885 0.020000
13.268593 -0.705998 0.352756 0.020000
11.755383 -1.860256 0.364515 0.040000
11.766825 -3.235151 0.324434 0.070000
11.232644 -4.585565 0.303019 0.290000
5.447456 1.660476 0.111135 0.090000
5.641715 1.179111 0.109852 0.030000
5.770794 0.706500 0.108433 0.100000
5.859606 0.248138 0.101960 0.030000
5.833714 -0.227442 0.100125 0.060000
5.772637 -0.693694 0.098232 0.060000
5.611592 -1.161842 0.091072 0.060000
5.395557 -1.631044 0.083763 0.110000
45.369614 21.299765 5.403403 0.070000
8.407245 2.063089 1.250369 0.360000
42.539818 7.540980 4.569862 0.130000
57.401169 3.260259 5.842754 0.060000
9.205914 -0.472137 1.263030 0.230000
11.567796 -1.882941 1.478953 0.110000
39.636253 -12.866987 4.146415 0.020000
45.051414 -22.057524 4.841393 0.120000
13.082071 5.366319 0.424842 0.070000
13.116618 3.561607 0.433224 0.040000
11.202147 1.684482 0.456249 0.140000
12.167670 -0.677316 0.414989 0.040000
11.781233 -1.909916 0.404398 0.130000
11.667013 -3.252231 0.369110 0.170000
11.218405 -4.630992 0.342814 0.310000
5.581665 1.703054 0.111643 0.090000
5.721591 1.185624 0.115085 0.040000
5.890772 0.708798 0.108754 0.120000
5.969764 0.240228 0.107219 0.040000
5.914070 -0.245924 0.105266 0.060000
5.883479 -0.736579 0.098362 0.050000
5.697522 -1.210224 0.096116 0.060000
5.471776 -1.694614 0.088726 0.130000
45.587215 21.133041 5.638354 0.050000
8.387950 2.022620 1.275169 0.190000
42.657692 7.367565 4.744527 0.050000
57.390564 2.999185 6.066759 0.100000
9.136353 -0.498547 1.282750 0.270000
11.633816 -1.941852 1.523906 0.060000
45.167114 -22.386209 5.070476 0.090000
11.173020 1.633787 0.490985 0.170000
24.094728 1.177039 0.288014 0.010000
12.103345 -0.718702 0.454668 0.050000
11.711717 -1.941400 0.444100 0.200000
11.627587 -3.288139 0.408874 1.000000
5.651447 1.714374 0.116868 0.110000
5.851280 1.203111 0.115489 0.040000
6.000751 0.710905 0.109049 0.120000
6.090029 0.227529 0.107485 0.040000
6.049633 -0.273315 0.100518 0.060000
5.959027 -0.765155 0.103453 0.050000
5.803651 -1.268201 0.096178 0.070000
5.553006 -1.758070 0.088702 0.130000
45.616257 20.897913 5.812557 0.090000
8.423153 2.008182 1.305207 0.190000
42.760296 7.208879 4.914207 0.140000
57.394466 2.763375 6.295895 0.090000
9.066698 -0.519958 1.302489 0.290000
45.252766 -22.710415 5.284497 0.150000
14.898094 6.100917 0.517314 0.060000
13.118490 3.451293 0.522820 0.060000
11.163601 1.598472 0.525829 0.220000
25.904903 1.176487 0.352738 0.010000
9.364336 -0.546421 0.528159 0.020000
11.557878 -3.309624 0.448613 0.290000
5.810472 1.767447 0.112480 0.100000
5.970861 1.225387 0.120884 0.040000
6.140629 0.718585 0.109443 0.110000
6.200201 0.219638 0.107744 0.030000
6.165173 -0.301125 0.105716 0.060000
6.094973 -0.812541 0.098632 0.040000
5.899592 -1.316372 0.096249 0.060000
5.654329 -1.826141 0.088714 0.100000
50.356155 22.926189 6.612478 0.060000
8.398858 1.967618 1.329993 0.190000
42.827965 7.044467 5.098774 0.110000
57.353226 2.536756 6.509947 0.050000
8.997138 -0.546368 1.322209 0.410000
45.237026 -22.961512 5.488524 0.080000
14.829866 5.999372 0.576759 0.100000
16.181742 4.350008 0.564157 0.060000
11.194161 1.563904 0.565781 0.110000
13.239734 0.512986 0.542214 0.010000
9.369832 -0.576431 0.558063 0.040000
18.813734 -3.545668 0.456675 0.040000
11.523355 -3.340438 0.488408 0.270000
5.924767 1.804625 0.117917 0.100000
6.150183 1.263864 0.111495 0.040000
6.270509 0.726074 0.109810 0.100000
6.370469 0.207915 0.103144 0.030000
6.325731 -0.328036 0.101035 0.050000
6.195708 -0.850637 0.103753 0.040000
6.020815 -1.379062 0.096332 0.060000
5.755747 -1.899212 0.088707 0.100000
49.944180 22.482670 6.759755 0.060000
8.448962 1.958466 1.360090 0.520000
41.918655 6.731814 5.145238 0.070000
57.371506 2.336301 6.719252 0.060000
8.962462 -0.567128 1.347042 0.360000
45.392830 -23.294413 5.712696 0.060000
14.811164 5.923800 0.631430 0.060000
13.110244 3.345750 0.622407 0.030000
11.189742 1.528685 0.600639 0.130000
30.805101 1.189749 0.525580 0.020000
9.340156 -0.597095 0.582909 0.050000
13.360908 -2.420285 0.551626 0.070000
11.398179 -3.337981 0.528091 0.210000
13.551446 -6.092083 0.483474 0.020000
6.138316 1.883765 0.108768 0.110000
6.319576 1.297114 0.112061 0.040000
6.445298 0.739442 0.105316 0.110000
6.530631 0.200981 0.103537 0.030000
6.471278 -0.355254 0.101314 0.060000
6.366743 -0.902353 0.099007 0.040000
6.126849 -1.432040 0.096412 0.060000
5.887557 -1.991686 0.083707 0.090000
50.592003 22.558954 7.071733 0.060000
8.404685 1.917537 1.379823 0.210000
11.261992 1.521089 1.685810 0.020000
57.344719 2.134872 6.958435 0.050000
8.967862 -0.592139 1.376963 0.250000
45.386711 -15.917913 5.655100 0.010000
46.260494 -23.994146 6.047363 0.050000
14.737828 5.827139 0.695880 0.170000
16.621346 4.357989 0.685335 0.070000
11.240203 1.499500 0.640663 0.630000
30.841700 1.089993 0.645306 0.020000
9.360648 -0.626817 0.612852 0.030000
11.348454 -3.359102 0.572883 0.280000
13.572653 -6.161872 0.533270 0.020000
6.252707 1.915943 0.114186 0.120000
6.478971 1.330173 0.112599 0.040000
6.605172 0.747505 0.105763 0.110000
6.705803 0.194353 0.098969 0.040000
6.626920 -0.387279 0.101601 0.050000
6.482584 -0.945142 0.099151 0.020000
6.293364 -1.508847 0.091561 0.060000
6.014257 -2.079274 0.083712 0.100000
43.648232 19.138006 6.320883 0.050000
8.410002 1.897544 1.404763 0.190000
11.182694 1.479453 1.715449 0.100000
35.490116 1.189661 4.577850 0.030000
8.978261 -0.617054 1.406898 0.230000
11.401469 -3.417351 1.732817 0.000000
46.223690 -24.190657 6.256538 0.020000
14.723838 5.766659 0.750619 0.210000
16.771353 4.350641 0.745700 0.070000
11.906009 -0.888263 0.658525 0.050000
13.377286 -2.505334 0.646354 0.010000
11.303645 -3.375110 0.612707 0.350000
13.558362 -6.207374 0.593064 0.020000
6.441425 1.984570 0.114934 0.130000
6.648365 1.363423 0.113165 0.040000
6.769949 0.760663 0.106242 0.110000
6.856049 0.182210 0.104316 0.040000
6.782466 -0.414305 0.101907 0.060000
6.663604 -0.996684 0.099432 0.030000
6.419573 -1.571459 0.096658 0.060000
6.161051 -2.171479 0.083753 0.090000
8.173217 2.762942 1.467362 0.010000
8.395406 1.872150 1.434630 0.340000
11.163182 1.448946 1.750285 1.000000
57.290218 1.787191 7.387005 0.040000
8.993563 -0.636874 1.436865 0.230000
44.719414 -9.820075 5.801027 0.010000
11.361865 -3.443242 1.767618 0.010000
43.731133 -23.022820 6.154372 0.020000
14.694932 5.700874 0.810300 0.180000
13.122080 3.230443 0.762010 0.040000
31.364136 0.934090 0.886092 0.000000
11.931487 -0.917908 0.693481 0.070000
13.377851 -2.540476 0.686225 0.070000
11.309224 -3.410137 0.647592 0.370000
13.594470 -6.271877 0.642919 0.030000
6.600437 2.037624 0.115546 0.130000
6.837671 1.402074 0.108803 0.050000
6.954723 0.774204 0.106775 0.120000
7.031208 0.175563 0.104749 0.040000
6.948010 -0.441139 0.102239 0.060000
6.799523 -1.044107 0.104610 0.030000
6.601277 -1.657976 0.091811 0.060000
6.292738 -2.258991 0.088771 0.110000
8.252810 2.779322 1.507631 0.040000
8.410625 1.857347 1.459615 0.490000
11.108785 1.412788 1.780009 0.310000
57.272484 1.635962 7.621399 0.040000
9.043941 -0.661042 1.471907 0.190000
39.915699 -8.830377 5.377163 0.030000
11.306975 -3.454423 1.802433 0.020000
43.582417 -23.116344 6.333638 0.050000
14.715443 5.666041 0.870225 0.180000
17.110937 4.356650 0.881610 0.060000
11.081861 1.396046 0.749866 0.110000
31.205399 0.850614 1.000369 0.020000
11.951954 -0.947668 0.733424 0.040000
11.319788 -3.445088 0.687490 0.390000
13.575014 -6.307439 0.692737 0.030000
6.789156 2.106251 0.116294 0.140000
7.002053 1.435209 0.114355 0.050000
7.149399 0.792936 0.107352 0.130000
7.216365 0.169108 0.105208 0.040000
7.108637 -0.473087 0.107540 0.060000
6.950453 -1.091225 0.104829 0.040000
6.782872 -1.739513 0.091982 0.060000
6.419439 -2.346580 0.088776 0.100000
8.223447 2.743699 1.522422 1.000000
11.104186 1.387585 1.809904 0.160000
40.685856 1.050220 5.660905 0.040000
39.791794 -8.908278 5.516551 0.040000
11.272165 -3.470240 1.842284 0.030000
43.468830 -23.219271 6.532961 0.040000
17.250933 4.349092 0.946948 0.060000
11.112148 1.376494 0.784872 0.130000
13.252981 0.307250 0.801486 0.010000
9.221620 -0.694914 0.727237 0.030000
11.310069 -3.465425 0.727390 0.340000
13.606001 -6.367076 0.752596 0.030000
6.982766 2.179953 0.122074 0.130000
7.231051 1.489605 0.115155 0.040000
7.319163 0.806171 0.112845 0.120000
7.431516 0.163228 0.105748 0.040000
7.289179 -0.499634 0.107912 0.050000
7.121462 -1.142978 0.110083 0.040000
6.944266 -1.811453 0.097135 0.050000
6.576422 -2.448592 0.088807 0.110000
8.149366 2.692198 1.542037 0.440000
40.677273 0.954471 5.815529 0.070000
39.928898 -9.041316 5.691416 0.030000
11.393436 -3.543132 1.897330 0.020000
43.279202 -23.263515 6.697304 0.030000
13.085335 4.864441 0.927990 0.100000
13.118548 3.134864 0.896647 0.040000
11.102442 1.356176 0.819772 0.120000
30.952364 0.714937 1.219206 0.010000
9.176754 -0.705867 0.752079 0.070000
13.394208 -2.630692 0.825934 0.020000
11.280271 -3.481126 0.762254 0.330000
13.601542 -6.402351 0.802454 0.020000
7.156679 2.238294 0.122744 0.120000
7.405431 1.522932 0.120734 0.050000
7.548832 0.825573 0.113516 0.110000
7.646668 0.157347 0.106288 0.030000
7.529913 -0.535011 0.103409 0.060000
7.342680 -1.203733 0.105435 0.030000
7.100674 -1.883470 0.097276 0.050000
6.763687 -2.565026 0.088863 0.090000
8.139687 2.671917 1.566937 0.490000
11.204412 1.364170 1.900079 0.250000
43.526573 0.942057 6.362926 0.040000
41.748219 -9.568070 6.104212 0.020000
11.373623 -3.558661 1.937221 0.030000
43.119637 -23.312222 6.871708 0.030000
13.080875 4.829166 0.977848 0.090000
11.112719 1.336223 0.859725 0.080000
9.176867 -0.715976 0.782042 0.090000
13.419661 -2.660375 0.870890 0.060000
11.240256 -3.487059 0.807128 0.360000
13.622162 -6.442165 0.857361 0.020000
7.375092 2.322474 0.128627 0.120000
7.659343 1.582824 0.116620 0.040000
7.748399 0.849381 0.119126 0.110000
7.846809 0.151161 0.111787 0.040000
7.735533 -0.566097 0.108830 0.040000
7.578977 -1.269219 0.105808 0.040000
7.302361 -1.969622 0.097482 0.040000
6.930655 -2.666864 0.093920 0.080000
8.144703 2.666902 1.596932 0.490000
11.154726 1.343105 1.929871 0.420000
43.497505 0.870901 6.522587 0.080000
46.049717 -4.742312 6.808386 0.280000
41.653912 -9.625418 6.248754 0.020000
11.358917 -3.579074 1.972107 0.060000
42.929146 -23.311476 7.036215 0.030000
17.774532 4.398376 1.153500 0.060000
11.117831 1.326209 0.889701 0.070000
13.263790 0.246970 0.931292 0.000000
9.111910 -0.722313 0.806850 0.120000
11.190079 -3.483147 0.842012 0.340000
13.627604 -6.472250 0.907263 0.020000
7.638222 2.422531 0.129686 0.120000
7.848515 1.626418 0.127276 0.040000
7.983068 0.868879 0.119811 0.090000
8.061947 0.145262 0.117327 0.030000
7.941247 -0.602182 0.114233 0.040000
7.775173 -1.330491 0.111092 0.040000
7.473945 -2.051369 0.102626 0.040000
7.148406 -2.807701 0.088965 0.080000
8.130036 2.646544 1.616818 0.390000
11.065266 1.311313 1.949520 0.430000
43.458351 0.804571 6.677240 0.040000
40.996948 -9.538222 6.312364 0.010000
11.344103 -3.594507 2.012012 0.070000
42.678299 -23.291862 7.195635 0.020000
14.797283 5.531558 1.149941 0.080000
17.939032 4.416274 1.223997 0.040000
11.103126 1.305795 0.924588 0.230000
13.329043 0.228051 0.976392 0.000000
9.107038 -0.732500 0.831799 0.110000
11.215545 -3.512811 0.881968 0.310000
13.612861 -6.492719 0.957149 0.020000
8.147130 1.702168 0.123337 0.040000
8.212532 0.898260 0.125519 0.080000
8.347098 0.140740 0.113054 0.030000
8.156878 -0.633058 0.114681 0.040000
7.935992 -1.372437 0.116356 0.030000
7.675620 -2.137540 0.107832 0.030000
7.295173 -2.899943 0.099005 0.070000
8.140053 2.641625 1.646826 0.250000
11.055367 1.300993 1.984456 0.530000
40.525467 0.704374 6.399209 0.040000
45.595303 -4.817073 7.091925 0.050000
41.027744 -9.603268 6.482204 0.010000
11.334206 -3.604827 2.046948 0.050000
42.456905 -23.241625 7.340245 0.020000
14.851937 5.542405 1.205125 0.080000
13.114504 3.059094 1.081357 0.010000
11.113224 1.295859 0.959577 0.350000
9.092071 -0.737879 0.856740 0.110000
11.195553 -3.518324 0.916896 0.350000
13.628289 -6.522630 1.012079 0.020000
8.124573 2.616861 0.136678 0.100000
8.356202 1.751144 0.134065 0.040000
8.546908 0.934689 0.121527 0.080000
8.627129 0.141085 0.118787 0.030000
8.422595 -0.667975 0.115245 0.030000
8.177276 -1.437846 0.121743 0.030000
7.877294 -2.223711 0.113039 0.030000
7.467236 -3.006685 0.104058 0.070000
8.115388 2.621076 1.666686 0.450000
11.065466 1.291056 2.019446 0.520000
40.491081 0.653211 6.533930 0.070000
43.301723 -4.625268 6.896649 0.070000
11.329390 -3.620068 2.086879 0.050000
42.326595 -23.249727 7.504877 0.020000
8.281440 2.671997 0.922301 0.040000
13.114687 3.043949 1.121302 0.030000
11.048446 1.279505 0.989348 0.340000
9.097183 -0.747893 0.886717 0.130000
13.430543 -2.730821 1.045659 0.000000
11.195748 -3.533451 0.951841 0.260000
13.643744 -6.552505 1.057009 0.040000
8.412397 2.732376 0.142859 0.100000
8.644903 1.821686 0.135081 0.040000
8.796370 0.964454 0.127289 0.080000
8.927264 0.136833 0.119554 0.030000
8.723401 -0.707221 0.115884 0.040000
8.453757 -1.512564 0.122187 0.030000
8.094061 -2.314595 0.118267 0.030000
7.659487 -3.123042 0.109127 0.070000
8.115418 2.615984 1.691667 0.570000
11.070469 1.286023 2.054440 0.550000
40.471363 0.617277 6.683747 0.070000
51.337635 -5.576687 8.319102 0.110000
11.299304 -3.620773 2.121798 0.050000
42.226387 -23.262236 7.664570 0.030000
8.311273 2.677478 0.947399 0.090000
13.134757 3.034166 1.166318 0.020000
11.053545 1.269473 1.024324 0.470000
9.102213 -0.752889 0.911712 0.120000
13.435713 -2.745889 1.090617 0.010000
11.145379 -3.519542 0.986761 0.150000
8.715041 2.858194 0.144117 0.100000
8.948396 1.902494 0.141173 0.030000
9.140635 1.006054 0.128342 0.080000
9.252299 0.138058 0.120407 0.030000
9.069295 -0.750604 0.116626 0.040000
8.740237 -1.587091 0.122658 0.030000
8.381402 -2.434113 0.118572 0.030000
7.882019 -3.253821 0.114222 0.060000
8.115449 2.610892 1.716649 0.780000
11.065571 1.275799 2.089390 0.480000
40.431595 0.586015 6.818528 0.080000
50.977268 -5.579066 8.448154 0.080000
11.314497 -3.635613 2.156783 0.050000
11.356755 -5.335544 2.270576 0.010000
8.291499 2.662004 0.972290 0.180000
11.053549 1.264344 1.059305 0.490000
16.393728 0.230627 1.289405 0.000000
9.097244 -0.758077 0.936680 0.120000
13.395507 -2.741824 1.135527 0.010000
13.633855 -6.573082 1.161908 0.020000
9.514797 1.053228 0.129495 0.080000
9.617314 0.140030 0.126367 0.030000
9.259795 -0.777015 0.132025 0.130000
9.081993 -1.675561 0.123221 0.030000
8.683837 -2.558342 0.118900 0.030000
8.134942 -3.404004 0.114324 0.050000
8.120383 2.610895 1.741662 0.650000
11.065575 1.270670 2.124371 0.490000
40.276585 0.567585 6.943057 0.060000
42.024918 -4.580703 7.163485 0.100000
11.289397 -3.636240 2.196716 0.050000
11.336559 -5.331077 2.310540 0.010000
8.326222 2.672561 1.002421 0.420000
13.114840 3.018489 1.246209 0.010000
11.023668 1.253659 1.089188 0.630000
16.403692 0.225634 1.339412 0.010000
13.430683 -2.756299 1.175566 0.020000
11.221019 -3.563394 1.066796 0.120000
13.638915 -6.583171 1.211884 0.020000
9.404712 3.141416 0.156970 0.100000
9.679892 2.091519 0.148785 0.040000
9.888852 1.105383 0.135665 0.090000
9.972330 0.141811 0.132301 0.030000
9.234638 -0.772588 0.156976 0.200000
9.423738 -1.764050 0.128784 0.030000
9.041645 -2.701515 0.119302 0.030000
8.458523 -3.587839 0.114485 0.060000
8.100513 2.600421 1.766571 0.810000
11.055498 1.270367 2.154344 0.460000
40.356464 0.553562 7.093215 0.060000
42.019718 -4.591354 7.313433 0.200000
11.284307 -3.636467 2.231702 0.050000
11.321362 -5.326514 2.350518 0.000000
8.271660 2.646438 1.022181 0.440000
13.124720 3.018513 1.291235 0.050000
11.023590 1.253548 1.119188 0.630000
16.363569 0.224682 1.389305 0.020000
9.452953 -0.801529 1.007447 0.060000
13.410569 -2.756850 1.220512 0.020000
11.251209 -3.577947 1.101822 0.150000
11.272639 -5.222955 1.130763 0.010000
10.107691 2.209714 0.155341 0.030000
10.352246 0.149070 0.138320 0.030000
9.229657 -0.777794 0.186944 0.240000
9.750292 -1.842828 0.134344 0.030000
9.389346 -2.839899 0.124695 0.030000
8.782187 -3.776692 0.119628 0.060000
8.105351 2.605423 1.791603 0.470000
11.065405 1.270428 2.189371 0.420000
40.371071 0.553292 7.243253 0.070000
42.269833 -4.622285 7.508973 0.160000
11.274218 -3.636788 2.266675 0.040000
8.261596 2.646154 1.047154 0.560000
30.329540 7.729739 2.473670 0.050000
11.023499 1.253418 1.154187 0.560000
13.229180 0.180085 1.260956 0.010000
9.432892 -0.802005 1.032394 0.060000
13.395372 -2.752286 1.260489 0.040000
11.256212 -3.582980 1.136816 0.170000
13.628655 -6.583734 1.311856 0.020000
10.208198 3.486810 0.175351 0.090000
10.475775 2.311745 0.166682 0.030000
10.671942 1.210344 0.153099 0.070000
10.787248 0.152384 0.144467 0.030000
9.244589 -0.777600 0.211984 0.230000
10.086832 -1.921434 0.144930 0.030000
9.711751 -2.963783 0.135076 0.030000
9.136036 -3.974969 0.124814 0.050000
11.070217 1.275393 2.224402 0.400000
40.415382 0.568593 7.393427 0.060000
42.244171 -4.608305 7.653959 0.140000
11.284111 -3.636745 2.306701 0.040000
8.256436 2.650964 1.072159 0.590000
30.308887 7.748961 2.578688 0.090000
11.018312 1.258191 1.189192 0.550000
9.412639 -0.792483 1.057376 0.080000
11.250739 -3.563210 1.171876 0.210000
10.718777 3.721611 0.182557 0.080000
10.975901 1.266138 0.164100 0.200000
9.259329 -0.767408 0.237061 0.150000
10.408183 -1.990328 0.155513 0.020000
10.064163 -3.087074 0.140538 0.030000
9.474410 -4.148538 0.130052 0.050000
8.085046 2.614871 1.836585 0.170000
11.059854 1.290087 2.254430 0.400000
40.763386 0.649576 7.584639 0.020000
42.377579 -4.546326 7.814539 0.160000
11.313726 -3.621304 2.341836 0.050000
8.246194 2.660697 1.092169 0.580000
30.282316 7.818135 2.668877 0.070000
11.017768 1.283093 1.214283 0.530000
9.427297 -0.777273 1.077471 0.050000
11.265274 -3.543038 1.201989 0.250000
11.340508 2.593319 0.179986 0.030000
11.055067 1.307589 0.184461 0.340000
11.541314 0.206798 0.156638 0.030000
9.238814 -0.742851 0.252099 0.170000
10.749269 -2.043805 0.156204 0.020000
10.365819 -3.171330 0.146012 0.020000
9.746741 -4.268362 0.135318 0.060000
8.054833 2.624257 1.846541 0.170000
11.094098 1.325639 2.284652 0.390000
38.717197 0.731429 7.299599 0.050000
9.174571 -0.750060 1.881921 0.000000
43.730377 -10.223089 8.251973 0.010000
11.333179 -3.596018 2.366981 0.050000
8.567328 1.821699 1.089888 0.020000
11.131819 1.330194 1.239756 0.320000
31.465290 0.639816 2.565280 0.000000
9.116135 -0.718185 1.066879 0.040000
11.319841 -3.522044 1.217210 0.120000
34.476383 -18.227171 2.863008 0.010000
11.238096 4.021574 0.195028 0.090000
11.543746 2.687228 0.180865 0.030000
11.034470 1.337163 0.194517 0.400000
11.725513 0.250334 0.157281 0.020000
10.879136 -2.036335 0.161571 0.020000
10.496081 -3.183837 0.146306 0.020000
9.917872 -4.325076 0.130554 0.050000
8.059136 2.659309 1.856683 0.230000
11.198055 1.377548 2.310116 0.380000
38.869164 0.884183 7.350564 0.050000
9.189076 -0.724796 1.887053 0.020000
43.802231 -10.061776 8.277761 0.010000
11.342410 -3.555834 2.367155 0.040000
11.303356 -5.187292 2.475989 0.000000
8.512051 1.835642 1.089795 0.050000
11.126054 1.370091 1.239890 0.240000
31.388004 0.758357 2.565519 0.010000
9.060474 -0.684245 1.066859 0.040000
18.023336 -3.700233 1.654050 0.000000
11.276760 4.092345 0.190392 0.080000
11.517984 2.726742 0.180945 0.030000
11.063698 1.377730 0.194745 0.400000
11.714831 0.285117 0.162382 0.030000
10.883465 -2.001246 0.161713 0.020000
10.465020 -3.129441 0.151427 0.030000
9.911806 -4.270201 0.135742 0.060000
8.053453 2.694188 1.861798 0.510000
50.458355 14.228647 10.115449 0.100000
38.751461 1.027028 7.330787 0.040000
9.128443 -0.690914 1.877020 0.040000
43.828873 -9.886235 8.278482 0.010000
11.317491 -5.142014 2.476195 0.010000
8.556276 1.876497 1.090063 0.140000
11.140393 1.405390 1.235058 0.170000
31.440720 0.879424 2.556106 0.000000
9.059913 -0.654232 1.061970 0.040000
18.403706 -3.718006 1.669977 0.000000
33.307262 -11.727551 2.649115 0.130000
11.077551 4.048503 0.194709 0.090000
11.447531 2.750415 0.175849 0.030000
11.097855 1.423428 0.185003 0.430000
11.579185 0.317525 0.162149 0.020000
10.782238 -1.938173 0.161683 0.020000
10.383612 -3.055969 0.146487 0.030000
9.769424 -4.147924 0.140825 0.050000
8.052892 2.724201 1.856908 0.480000
50.389748 14.422533 10.070991 0.070000
38.908581 1.180100 7.321766 0.040000
9.107815 -0.656248 1.862095 0.050000
43.880711 -9.715065 8.239254 0.020000
11.355709 -3.465527 2.357525 0.020000
8.501121 1.885478 1.079952 0.340000
31.468672 0.990071 2.531590 0.020000
8.954192 -0.616213 1.051835 0.070000
18.743916 -3.726511 1.675833 0.000000
10.908075 4.020271 0.189161 0.090000
11.198153 2.715633 0.175069 0.040000
11.097210 1.458459 0.175132 0.230000
11.353558 0.348209 0.161674 0.030000
11.020371 -0.793374 0.156560 0.030000
10.575647 -1.857116 0.161445 0.020000
10.262005 -2.973283 0.146477 0.020000
9.632163 -4.030514 0.135903 0.060000
8.052342 2.754232 1.847018 0.510000
8.393717 1.905693 1.824755 0.010000
11.126134 1.481299 2.280314 0.180000
39.370434 1.343846 7.358581 0.040000
9.112361 -0.631120 1.852201 0.080000
43.887619 -9.544664 8.174905 0.010000
11.254286 -3.387327 2.322551 0.040000
29.589127 12.660330 2.790069 0.100000
8.470770 1.904937 1.069945 0.390000
31.361811 1.093226 2.481694 0.040000
8.983829 -0.595605 1.041989 0.080000
18.983706 -3.711879 1.666513 0.000000
33.211094 -11.394004 2.560103 0.030000
10.694074 3.966163 0.188402 0.100000
11.003477 2.696901 0.174491 0.030000
11.143035 0.374200 0.156221 0.030000
10.834352 -0.741927 0.156266 0.020000
10.419335 -1.790097 0.161286 0.020000
10.120319 -2.885963 0.141432 0.020000
9.504996 -3.917911 0.130990 0.070000
8.041892 2.779073 1.837083 0.560000
8.353380 1.924979 1.809721 0.020000
11.265028 1.538932 2.290891 0.430000
40.022114 1.516174 7.410923 0.040000
9.131891 -0.605723 1.847346 0.090000
11.268569 -3.346973 2.302738 0.060000
44.783688 -23.288269 9.036162 0.060000
29.621281 12.816156 2.740732 0.060000
8.465221 1.934873 1.060042 0.410000
31.359724 1.208371 2.437116 0.040000
9.073442 -0.573867 1.037303 0.050000
13.474407 -2.445865 1.301835 0.010000
13.440652 -4.076800 1.295684 0.030000
18.171558 -8.563235 1.631359 0.000000
10.425574 3.886025 0.182403 0.100000
10.719392 2.646451 0.173562 0.040000
10.876620 1.489295 0.159671 0.080000
10.942497 0.400364 0.155795 0.020000
10.628349 -0.690845 0.150918 0.030000
10.247956 -1.718330 0.151106 0.020000
9.958543 -2.794026 0.136351 0.020000
9.347726 -3.800902 0.131014 0.070000
8.382730 1.960584 1.799930 0.110000
11.194640 1.562698 2.260795 0.340000
41.527874 1.724334 7.610630 0.010000
11.267676 -3.296890 2.277921 0.040000
44.713112 -22.979071 8.902126 0.090000
29.564053 12.940302 2.681043 0.220000
8.454783 1.959733 1.045107 0.390000
31.352583 1.328476 2.377544 0.040000
9.092999 -0.548433 1.022449 0.050000
13.443424 -2.391357 1.276957 0.020000
13.424475 -4.012007 1.270882 0.030000
13.593230 -6.039298 1.308787 0.010000
10.181878 3.816364 0.176508 0.110000
10.450222 2.601307 0.167691 0.040000
10.601780 1.479048 0.153915 0.070000
10.702089 0.420800 0.145243 0.030000
10.402351 -0.640146 0.145517 0.030000
10.081658 -1.651485 0.145920 0.020000
9.756390 -2.682860 0.131237 0.030000
9.159995 -3.659454 0.126050 0.060000
8.357390 1.980157 1.784936 0.360000
41.739872 1.888569 7.571793 0.020000
45.163406 -22.985319 8.868279 0.040000
29.531832 13.064945 2.616422 0.230000
8.469245 1.990070 1.030257 0.200000
13.165301 1.944082 1.292347 0.020000
13.281888 0.561162 1.262510 0.020000
9.147632 -0.527346 1.012670 0.040000
13.367163 -2.322714 1.252012 0.020000
13.448660 -3.966462 1.251115 0.010000
13.526200 -5.930471 1.284017 0.050000
9.903560 3.726018 0.175445 0.110000
10.180956 2.561161 0.161839 0.040000
10.331926 1.468878 0.153173 0.070000
10.461559 0.446198 0.144709 0.030000
10.206443 -0.593872 0.140177 0.030000
9.885162 -1.575235 0.145691 0.030000
9.584505 -2.586135 0.131148 0.030000
8.936971 -3.503698 0.126047 0.060000
8.297276 1.989100 1.759812 0.520000
41.267639 2.025191 7.396066 0.020000
40.894020 -2.987300 7.226456 0.070000
43.885818 -22.028280 8.503497 0.070000
29.514034 13.219871 2.551950 0.210000
13.174407 1.994357 1.267557 0.010000
52.632732 2.682524 3.458135 0.150000
9.212179 -0.501050 0.997936 0.030000
11.724816 -1.938678 1.134152 0.070000
13.520047 -5.865449 1.249242 0.020000
9.600463 3.625232 0.164279 0.120000
9.896980 2.505731 0.155892 0.040000
10.077096 1.459032 0.142471 0.080000
10.191144 0.466041 0.139077 0.030000
9.985443 -0.543077 0.134789 0.030000
9.673695 -1.499235 0.135421 0.020000
9.347167 -2.465641 0.125976 0.030000
8.754334 -3.367153 0.121077 0.060000
8.286755 2.018977 1.739896 0.520000
41.708790 2.233768 7.372993 0.010000
40.975967 -2.815388 7.142308 0.090000
44.037651 -21.844900 8.384574 0.100000
13.074932 5.347769 1.354764 0.030000
31.301420 1.678309 2.173708 0.060000
9.281713 -0.474677 0.988215 0.020000
11.638665 -1.875207 1.104163 0.080000
13.431534 -3.846531 1.186515 0.020000
9.322062 3.539903 0.158236 0.120000
9.617800 2.460376 0.154994 0.040000
9.777344 1.443289 0.141630 0.080000
9.915633 0.490787 0.133450 0.030000
9.764443 -0.492282 0.129401 0.030000
9.406924 -1.409328 0.135059 0.020000
9.074534 -2.330838 0.125766 0.020000
8.501015 -3.196993 0.126049 0.070000
8.286220 2.049027 1.725006 0.340000
41.715637 2.414353 7.258681 0.010000
41.093044 -2.647750 7.043236 0.090000
45.460930 -22.278103 8.491680 0.040000
13.073586 5.422885 1.320040 0.040000
31.298851 1.823579 2.094241 0.040000
12.600435 -0.656646 1.131203 0.090000
11.632787 -1.825201 1.074333 0.210000
13.527572 -5.724987 1.169783 0.040000
8.974426 3.413223 0.156857 0.120000
9.304021 2.394374 0.148930 0.040000
9.492698 1.422852 0.135811 0.080000
9.660311 0.505918 0.127840 0.030000
9.513449 -0.442062 0.123932 0.030000
9.175351 -1.328730 0.129754 0.030000
8.776907 -2.196514 0.125488 0.030000
8.273005 -3.041314 0.121032 0.060000
8.265796 2.073713 1.705044 0.200000
42.087849 7.761895 7.424533 0.050000
41.792339 2.601222 7.159575 0.010000
41.235104 -2.479651 6.949231 0.060000
44.885075 -21.677999 8.212405 0.030000
29.430365 13.709345 2.283549 0.180000
8.665532 2.194085 0.971527 0.040000
15.378524 2.581636 1.285494 0.000000
13.233391 0.760727 1.138124 0.010000
12.584476 -0.601813 1.096365 0.110000
11.566645 -1.761328 1.039397 0.210000
13.494596 -3.735047 1.117094 0.020000
8.641692 3.291829 0.155537 0.120000
8.985230 2.328257 0.147852 0.040000
9.153145 1.396344 0.134826 0.080000
9.324990 0.519499 0.127015 0.030000
9.217355 -0.387723 0.123362 0.030000
8.873491 -1.234495 0.129316 0.030000
8.574946 -2.095346 0.120337 0.030000
8.009700 -2.871327 0.120977 0.070000
8.270081 2.113876 1.685204 0.230000
42.198723 7.994481 7.310686 0.060000
11.262429 0.659479 2.082613 0.000000
41.261497 -2.273651 6.825064 0.070000
40.066460 -7.221917 6.668549 0.010000
40.425068 -12.661963 6.909265 0.000000
44.006523 -20.933502 7.887876 0.070000
13.080906 5.573327 1.245617 0.040000
8.610308 2.208103 0.951435 0.060000
15.237805 2.624114 1.240284 0.010000
31.224077 2.097874 1.910064 0.040000
12.548712 -0.557362 1.061436 0.130000
11.565956 -1.721224 1.009544 0.280000
8.358579 3.191408 0.149425 0.110000
8.641637 2.251662 0.146670 0.050000
8.843586 1.370411 0.133922 0.090000
8.979768 0.527889 0.126145 0.030000
8.921369 -0.338364 0.117772 0.030000
8.621922 -1.154280 0.123958 0.030000
8.332596 -1.974966 0.120152 0.030000
7.852442 -2.754300 0.116001 0.150000
53.564880 26.689997 10.264882 0.060000
8.259464 2.148752 1.665306 0.510000
11.241649 0.704199 2.052724 0.010000
46.131748 -2.327661 7.457583 0.060000
40.178192 -7.034322 6.554537 0.030000
40.556808 -12.473968 6.790307 0.010000
44.157562 -20.705036 7.744118 0.060000
8.589802 2.237808 0.926492 0.090000
13.174567 2.270014 1.103581 0.010000
13.221563 0.865776 1.068483 0.010000
12.572840 -0.506763 1.026687 0.130000
11.559981 -1.666219 0.979733 0.310000
13.477125 -3.595063 1.037567 0.020000
13.583754 -5.508432 1.050733 0.020000
8.065550 3.085777 0.148267 0.110000
8.382561 2.201710 0.140808 0.050000
8.544025 1.344670 0.133044 0.090000
8.719433 0.542906 0.125521 0.030000
8.640463 -0.293736 0.117205 0.030000
8.355343 -1.074371 0.123559 0.030000
8.110638 -1.874181 0.114947 0.030000
7.715386 -2.646869 0.106043 0.090000
49.862263 25.086992 9.379250 0.040000
8.283746 2.189297 1.645520 0.190000
43.072807 8.591840 7.175187 0.040000
11.245864 0.749397 2.022903 1.000000
43.050892 -1.964327 6.830885 0.120000
40.255165 -6.857340 6.425394 0.040000
40.392040 -12.201415 6.610888 0.020000
44.343906 -20.490862 7.590399 0.070000
13.102948 5.739072 1.166290 0.060000
8.574199 2.272606 0.901580 0.110000
15.220565 2.754155 1.145722 0.030000
12.576877 -0.451547 0.991903 0.140000
11.569209 -1.620906 0.944925 0.360000
15.478389 -4.166910 1.060666 0.020000
10.645277 -4.028897 0.898561 0.060000
7.817238 2.996024 0.142286 0.110000
8.078863 2.130882 0.139752 0.050000
8.284374 1.324712 0.127292 0.090000
8.414203 0.552062 0.124759 0.030000
8.334454 -0.244606 0.121589 0.030000
8.118950 -1.003886 0.123204 0.030000
7.878478 -1.763608 0.114752 0.030000
7.512836 -2.515725 0.106002 0.080000
49.252655 25.101383 9.087708 0.070000
8.263240 2.219002 1.620577 0.190000
43.058685 8.827143 7.031023 0.020000
11.215112 0.793963 1.982988 1.000000
43.077461 -1.763214 6.676701 0.120000
39.975838 -6.606931 6.230594 0.030000
40.428249 -11.980078 6.446804 0.020000
45.978233 -20.969849 7.647885 0.080000
8.623200 2.328646 0.876916 0.060000
15.313845 2.851124 1.101325 0.040000
15.555869 1.185556 1.070765 0.000000
12.610908 -0.395757 0.957198 0.130000
11.578244 -1.565594 0.910154 0.350000
15.652912 -4.133379 1.011245 0.100000
10.593749 -3.944741 0.863739 0.080000
7.563928 2.906175 0.136290 0.100000
7.829785 2.081121 0.133917 0.050000
8.004906 1.294354 0.126450 0.090000
8.159072 0.557195 0.119112 0.030000
8.078651 -0.204480 0.116070 0.030000
7.902662 -0.937999 0.117884 0.030000
7.736997 -1.686267 0.104670 0.030000
7.350676 -2.403792 0.100994 0.070000
49.118561 25.344664 8.868260 0.060000
8.272536 2.259279 1.595750 0.240000
43.249294 9.076314 6.902445 0.030000
11.144476 0.832782 1.937948 0.130000
42.893967 -1.555995 6.486989 0.080000
39.942348 -6.401931 6.066267 0.030000
38.900562 -11.277781 6.055422 0.020000
44.509819 -19.961180 7.207797 0.060000
13.080435 5.884033 1.066769 0.080000
8.632498 2.368923 0.852090 0.060000
15.340191 1.226635 1.015354 0.010000
12.630146 -0.350234 0.917417 0.120000
11.627656 -1.529513 0.875416 0.300000
10.592690 -3.884622 0.828960 0.160000
7.305701 2.811213 0.135263 0.110000
7.600703 2.031743 0.128136 0.050000
7.775140 1.279951 0.125796 0.100000
7.908831 0.567404 0.118496 0.030000
7.837834 -0.164085 0.115592 0.040000
7.781657 -0.885270 0.107764 0.030000
7.530215 -1.595211 0.104469 0.040000
6.148949 -1.817070 0.200040 0.120000
48.939678 25.577105 8.643656 0.040000
8.262029 2.289174 1.570834 0.490000
43.250797 9.281984 6.738212 0.020000
11.098931 0.867081 1.892956 0.180000
50.288963 -1.607549 7.371110 0.070000
41.313042 -6.430832 6.109738 0.020000
38.942223 -11.081380 5.901259 0.020000
11.306333 -4.230269 1.989550 0.010000
8.626798 2.408913 0.827223 0.100000
15.221931 2.964768 0.996507 0.010000
11.256138 0.898910 0.853474 0.010000
15.454212 -3.926744 0.901494 0.100000
10.576552 -3.819773 0.789158 0.150000
7.052569 2.711347 0.134231 0.110000
7.376703 1.977444 0.127349 0.050000
7.555577 1.255760 0.120133 0.100000
7.683681 0.573093 0.117930 0.030000
7.662210 -0.132425 0.110251 0.040000
7.535361 -0.819975 0.107364 0.020000
7.333540 -1.508944 0.099276 0.040000
6.118215 -1.777615 0.190106 0.180000
46.816841 24.738317 8.084991 0.030000
8.261328 2.329259 1.545981 0.510000
43.122471 9.480240 6.553612 0.010000
11.118048 0.917566 1.863193 0.090000
49.684250 -1.328055 7.090568 0.060000
39.273277 -5.878167 5.661463 0.030000
39.068756 -10.878371 5.752343 0.010000
11.355552 -4.184190 1.954849 0.110000
13.057825 6.033993 0.967267 0.030000
8.601306 2.438540 0.797267 0.100000
13.189459 2.566121 0.894718 0.040000
11.210471 0.938171 0.818500 0.040000
12.729414 -1.603224 0.823018 0.100000
15.493102 -3.860786 0.846840 0.060000
10.570591 -3.764750 0.754347 0.200000
6.829336 2.617055 0.133298 0.120000
7.162606 1.928335 0.126608 0.060000
7.340905 1.236645 0.119502 0.110000
7.473542 0.579088 0.112404 0.040000
7.431582 -0.101836 0.109763 0.040000
7.359353 -0.768319 0.102097 0.030000
7.101654 -1.413386 0.104026 0.040000
6.127882 -1.757353 0.170206 0.200000
48.977600 26.264437 8.241305 0.040000
8.240931 2.353983 1.516019 0.480000
57.143024 12.987867 8.378267 0.150000
46.909786 -1.044123 6.534375 0.100000
39.310486 -5.711894 5.517177 0.030000
38.542843 -10.542541 5.522216 0.020000
11.319347 -4.114688 1.905012 0.170000
13.051628 6.104088 0.912510 0.020000
8.585812 2.468359 0.767337 0.160000
13.183537 2.621201 0.844907 0.020000
11.169816 0.977546 0.778540 0.070000
12.743570 -1.552779 0.778242 0.080000
10.600019 -3.729033 0.714556 0.200000
6.615909 2.532953 0.132428 0.110000
6.973421 1.884722 0.120952 0.060000
7.116426 1.207341 0.118807 0.100000
7.278483 0.580352 0.111899 0.030000
7.241043 -0.075481 0.109363 0.040000
7.128138 -0.707755 0.106718 0.030000
6.925154 -1.336753 0.103850 0.040000
6.137549 -1.737091 0.150307 0.180000
49.027088 26.581192 8.037610 0.030000
8.265212 2.394529 1.496233 0.250000
57.158421 13.259017 8.159313 0.090000
36.674053 -0.634673 5.034164 0.070000
40.460297 -5.689832 5.510260 0.010000
38.760376 -10.392853 5.388339 0.030000
11.323218 -4.049438 1.860265 0.350000
8.600012 2.513730 0.742542 0.100000
11.129245 1.011904 0.743561 0.070000
10.604164 -3.678798 0.674753 0.300000
6.462005 2.475014 0.126811 0.100000
6.749517 1.825423 0.120147 0.060000
6.936760 1.188915 0.113269 0.120000
7.078424 0.581521 0.111381 0.040000
7.020509 -0.049700 0.108884 0.040000
7.002312 -0.665138 0.101548 0.030000
6.778852 -1.269525 0.098718 0.040000
6.182592 -1.736155 0.130428 0.110000
50.386162 27.687452 8.035270 0.040000
8.239816 2.419157 1.466258 0.360000
57.228367 13.556271 7.925599 0.080000
11.210704 1.054731 1.763944 0.020000
36.636551 -0.484852 4.894621 0.150000
40.943756 -5.590170 5.406892 0.030000
39.008671 -10.282583 5.254396 0.010000
11.372739 -4.018337 1.820509 0.190000
13.113428 6.285671 0.813346 0.040000
8.594517 2.543740 0.712639 0.050000
11.093576 1.051356 0.708615 0.100000
14.976958 -0.134536 0.729343 0.010000
13.423340 -3.084628 0.664321 0.020000
10.643686 -3.647889 0.634971 0.270000
6.268478 2.396293 0.126013 0.090000
6.585231 1.787289 0.114576 0.050000
6.747179 1.165280 0.112687 0.120000
6.893376 0.582996 0.105904 0.030000
6.865072 -0.027654 0.103560 0.040000
6.781299 -0.614362 0.101160 0.030000
6.622649 -1.207487 0.093541 0.040000
6.328436 -1.773222 0.090670 0.110000
48.986649 27.187138 7.599752 0.030000
8.259110 2.459625 1.441458 0.440000
57.214085 13.811886 7.696509 0.080000
11.299891 1.101539 1.739350 0.080000
36.694126 -0.338210 4.755315 0.290000
40.604946 -5.365868 5.201839 0.030000
39.100895 -10.115219 5.100257 0.020000
11.311252 -3.934316 1.770660 0.200000
14.693299 5.010922 0.752730 0.190000
13.155937 2.776213 0.705410 0.010000
11.162805 1.097836 0.668968 0.080000
13.245509 -0.067482 0.670072 0.010000
15.830382 -3.683452 0.618377 0.010000
10.668007 -3.607288 0.600185 0.210000
6.124572 2.338546 0.120423 0.080000
6.391213 1.733545 0.118870 0.060000
6.582497 1.147123 0.112189 0.110000
6.718409 0.579644 0.105434 0.030000
6.689626 -0.006010 0.103182 0.050000
6.660555 -0.576668 0.100985 0.030000
6.451326 -1.140775 0.098342 0.040000
6.222115 -1.705246 0.090645 0.100000
48.858059 27.405558 7.370226 0.030000
8.248603 2.489521 1.416542 0.270000
57.239620 14.073153 7.497545 0.080000
11.199451 1.129786 1.694193 0.090000
36.541576 -0.185554 4.605483 0.280000
57.353458 -7.461857 6.977784 0.080000
39.087662 -9.924870 4.945929 0.020000
11.199500 -3.836237 1.715733 0.180000
13.041608 6.394700 0.708562 0.020000
29.876228 7.097307 0.735118 0.010000
11.142229 1.132577 0.634043 0.090000
13.352093 -1.445464 0.605227 0.030000
13.391391 -2.969871 0.569663 0.030000
10.737798 -3.590820 0.565428 0.130000
5.941127 2.254999 0.124634 0.080000
6.246911 1.695775 0.118353 0.050000
6.402997 1.118662 0.116615 0.110000
6.563342 0.581675 0.105037 0.030000
6.544174 0.016208 0.102885 0.040000
6.479713 -0.535142 0.105667 0.030000
6.310203 -1.083467 0.098187 0.030000
6.090702 -1.632750 0.090572 0.100000
50.736416 28.806595 7.430338 0.020000
57.225826 14.303792 7.263364 0.080000
11.218773 1.170291 1.659393 0.230000
36.409336 -0.047476 4.445650 0.330000
57.409821 -7.239914 6.753754 0.050000
39.130196 -9.773442 4.786601 0.020000
11.178485 -3.776446 1.665900 0.230000
15.285472 7.788139 0.659599 0.030000
13.144353 2.871338 0.615732 0.000000
11.046860 1.155883 0.598880 0.080000
15.604466 0.023078 0.576565 0.010000
9.245539 -0.878956 0.581614 0.010000
5.807110 2.202423 0.124088 0.070000
6.067903 1.642337 0.117687 0.050000
6.238411 1.095506 0.116099 0.100000
6.393361 0.578401 0.109581 0.030000
6.363811 0.032738 0.107476 0.040000
6.344081 -0.502716 0.100434 0.040000
6.189267 -1.035775 0.098048 0.030000
5.934089 -1.550753 0.095468 0.100000
46.303520 26.419228 6.604884 0.030000
8.242694 2.544619 1.361731 0.120000
57.242233 14.525025 7.024227 0.080000
11.153423 1.194209 1.614311 0.250000
36.192287 0.078958 4.290552 0.360000
50.129234 -6.095517 5.748993 0.020000
41.217712 -10.153732 4.845637 0.010000
11.197915 -3.740921 1.626082 0.270000
15.130850 7.775396 0.599147 0.040000
13.148512 2.921592 0.570929 0.010000
11.086190 1.196790 0.559134 0.290000
13.263258 0.068358 0.540622 0.010000
9.310222 -0.857604 0.551862 0.030000
