# This PCD file was generated using the MATLAB® pcwrite function
# from Computer Vision Toolbox®.
# .PCD v.7 - Point Cloud Data file format
VERSION .7
FIELDS x y z intensity
SIZE 4 4 4 4
TYPE F F F F
COUNT 1 1 1 1
WIDTH 1287
HEIGHT 1
VIEWPOINT 0 0 0 1 0 0 0
POINTS 1287
DATA ascii
9.936106 -0.839074 0.133560 0.030000
9.528870 -1.772093 0.144029 0.120000
9.283120 -2.776922 0.124652 0.030000
8.721048 -3.717853 0.119687 0.050000
8.417274 2.761222 1.847997 0.460000
11.064952 1.295461 2.179462 0.430000
40.084553 0.643169 7.147838 0.050000
42.227795 -4.507850 7.449288 0.240000
11.313949 -3.620988 2.256837 0.050000
11.320639 -5.291595 2.370646 0.010000
8.647940 2.838532 1.063878 0.320000
13.118985 3.053318 1.316350 0.020000
11.008061 1.278181 1.139239 0.590000
13.258556 0.215728 1.241165 0.020000
13.005091 -1.169316 1.220354 0.110000
13.424747 -2.716644 1.240698 0.010000
11.255486 -3.542932 1.121963 0.260000
13.627475 -6.518653 1.287095 0.030000
10.068633 3.464170 0.164903 0.080000
10.320913 2.303796 0.161248 0.040000
10.511697 1.222295 0.147725 0.080000
10.566631 0.183182 0.139006 0.030000
10.256512 -0.857959 0.139326 0.030000
9.498331 -1.747765 0.169040 0.140000
9.559875 -2.866656 0.130041 0.030000
8.978478 -3.842963 0.124894 0.060000
8.416826 2.781126 1.873070 0.470000
11.064490 1.315345 2.209536 0.350000
43.500332 0.796010 7.867330 0.040000
42.371117 -4.440661 7.604913 0.210000
11.358740 -3.615275 2.296976 0.060000
11.279623 -5.242463 2.395721 0.000000
8.652490 2.858531 1.088964 0.310000
11.067480 1.304196 1.174491 0.270000
12.994522 -1.144643 1.255419 0.100000
13.398991 -2.682260 1.275759 0.010000
11.275116 -3.527663 1.152071 0.210000
10.375579 3.625040 0.176302 0.110000
10.618915 2.409485 0.172419 0.030000
10.845376 1.293680 0.153862 0.090000
10.911158 0.209748 0.150004 0.030000
10.581808 -0.871769 0.150124 0.030000
9.492897 -1.727939 0.189099 0.090000
9.902002 -2.975141 0.135531 0.030000
9.326767 -4.011322 0.125177 0.060000
8.396585 2.790666 1.893052 0.590000
11.183572 1.357450 2.260003 0.550000
38.706467 0.791821 7.139793 0.030000
42.408962 -4.345378 7.730368 0.180000
43.865002 -10.179916 8.092484 0.010000
11.337912 -3.575759 2.322068 0.050000
11.283969 -5.212485 2.425845 0.010000
8.652055 2.878453 1.109038 0.210000
11.126733 1.340245 1.199780 0.210000
31.360048 0.668245 2.445110 0.010000
11.294568 -3.502378 1.177216 0.090000
11.051164 2.557808 0.169098 0.030000
11.069254 1.352942 0.164667 0.210000
11.240520 0.246063 0.150999 0.020000
10.907035 -0.880541 0.150940 0.030000
9.487367 -1.703114 0.209178 0.120000
10.113005 -3.026128 0.140892 0.030000
9.543534 -4.102206 0.130405 0.050000
8.410860 2.825873 1.913221 0.510000
38.828789 0.918819 7.240586 0.040000
42.411152 -4.210624 7.815875 0.090000
43.872002 -10.035069 8.178041 0.010000
11.357377 -3.550455 2.342214 0.030000
11.298244 -5.177279 2.446013 0.010000
8.646441 2.908296 1.124134 0.160000
18.248501 4.630203 1.780606 0.000000
11.121024 1.375087 1.214895 0.190000
31.417894 0.774188 2.495655 0.000000
11.900946 -0.965481 1.233230 0.030000
18.013239 -3.690296 1.619060 0.000000
10.979224 3.961642 0.184129 0.100000
11.269289 2.656985 0.175036 0.030000
11.018745 1.376923 0.179624 0.300000
11.499802 0.286035 0.151824 0.030000
11.116804 -0.866522 0.151540 0.020000
9.466660 -1.668560 0.224252 0.160000
10.313829 -3.067289 0.141263 0.020000
9.739840 -4.168458 0.130671 0.060000
8.405260 2.855734 1.923317 0.580000
50.442894 14.263651 10.035538 0.120000
38.771000 1.057572 7.285951 0.030000
43.204357 -4.136116 8.008224 0.100000
43.848534 -9.860652 8.223628 0.010000
11.302245 -5.127248 2.461210 0.010000
8.625940 2.932871 1.134172 0.230000
11.145309 1.410503 1.230090 0.180000
31.440664 0.884479 2.541125 0.000000
11.850163 -0.926484 1.243243 0.090000
18.423716 -3.717605 1.665030 0.000000
33.312180 -11.722438 2.644147 0.120000
11.437629 2.745224 0.175804 0.030000
11.082845 1.423123 0.189963 0.300000
11.639091 0.323691 0.157328 0.020000
11.236385 -0.844246 0.156935 0.030000
9.455966 -1.633795 0.234353 0.220000
10.469171 -3.084335 0.146605 0.020000
9.885578 -4.205673 0.130913 0.050000
8.414466 2.895881 1.933491 0.570000
50.393940 14.462565 10.086150 0.070000
38.933044 1.205500 7.341925 0.040000
42.414917 -3.895771 7.892056 0.070000
43.880096 -9.685127 8.254363 0.020000
11.360600 -3.460451 2.362557 0.020000
8.635255 2.968037 1.139327 0.430000
31.438421 0.999401 2.556546 0.030000
11.799310 -0.882450 1.243274 0.100000
18.839216 -3.744780 1.701014 0.010000
11.155921 4.135038 0.190235 0.090000
11.466569 2.800788 0.176086 0.030000
11.052179 1.457541 0.190011 0.160000
11.683317 0.364546 0.157595 0.020000
11.300798 -0.813007 0.157219 0.020000
9.445297 -1.598993 0.234455 0.200000
10.523777 -3.063285 0.146826 0.020000
9.920080 -4.180026 0.136099 0.060000
11.200645 1.502601 2.315588 0.130000
39.454582 1.375097 7.458918 0.040000
42.341660 -3.727163 7.897491 0.070000
43.926861 -9.519294 8.280102 0.010000
11.233868 -3.367770 2.337570 0.050000
31.386105 1.118384 2.566852 0.030000
11.808528 -0.842285 1.248447 0.100000
19.204357 -3.752899 1.731938 0.000000
33.190468 -11.374743 2.655122 0.080000
11.145047 4.179819 0.195373 0.080000
11.420990 2.829902 0.181075 0.030000
11.096405 1.498396 0.190278 0.310000
11.657542 0.404041 0.162675 0.020000
11.295115 -0.778128 0.162334 0.020000
9.479907 -1.578327 0.234622 0.150000
9.550958 -2.672049 0.200742 0.070000
9.929312 -4.139843 0.136272 0.060000
11.244749 1.548417 2.325874 0.280000
40.550934 -3.400227 7.574029 0.090000
44.023750 -9.357446 8.290956 0.000000
11.278367 -3.341931 2.342782 0.070000
45.039684 -23.374334 9.296514 0.040000
31.348825 1.237709 2.562198 0.040000
11.882844 -0.805855 1.248777 0.100000
32.523426 -6.566376 2.591254 0.050000
18.150682 -8.528922 1.711433 0.000000
11.054873 4.188094 0.195169 0.090000
11.370424 2.858939 0.181051 0.030000
11.145546 1.544363 0.185578 0.330000
11.596883 0.437885 0.162642 0.020000
11.234278 -0.734267 0.157338 0.020000
9.520005 -2.622633 0.200844 0.130000
9.908261 -4.085236 0.136420 0.060000
45.422367 13.585644 9.129903 0.010000
11.214219 1.577893 2.310903 0.390000
41.691177 1.781610 7.846271 0.010000
40.617905 -3.238842 7.554804 0.110000
11.262342 -3.287192 2.332944 0.040000
45.034763 -23.109161 9.237486 0.060000
29.587440 13.000119 2.856328 0.280000
8.747751 2.060141 1.106245 0.000000
31.336580 1.357569 2.542612 0.050000
11.917167 -0.770191 1.248999 0.110000
32.460506 -6.412498 2.576662 0.130000
10.924993 4.180605 0.194802 0.100000
11.255255 2.866735 0.180780 0.040000
11.149792 1.584470 0.180738 0.300000
11.491232 0.470867 0.162489 0.030000
11.133421 -0.691209 0.162235 0.030000
9.539439 -2.592237 0.196008 0.180000
9.801173 -3.977268 0.136542 0.060000
8.431549 2.016364 1.845265 0.000000
41.598164 1.945040 7.796635 0.020000
41.761398 -3.172536 7.723037 0.130000
45.171188 -22.916386 9.203558 0.060000
29.544952 13.134458 2.821717 0.270000
8.702512 2.074332 1.091180 0.020000
31.319387 1.477408 2.503012 0.040000
11.946529 -0.734568 1.234208 0.110000
32.498318 -6.291588 2.532210 0.040000
18.172333 -8.348329 1.672160 0.000000
10.760529 4.152487 0.184268 0.100000
11.080396 2.858403 0.175292 0.040000
11.280696 0.496840 0.162036 0.020000
11.012498 -0.643498 0.157097 0.020000
10.572678 -1.702145 0.162014 0.030000
9.508596 -2.547802 0.191093 0.170000
9.719560 -3.893816 0.136639 0.050000
8.475678 2.062217 1.845551 0.030000
41.740120 2.107861 7.777611 0.030000
41.448078 -2.988137 7.622903 0.200000
43.777843 -21.921576 8.843616 0.050000
29.512367 13.273987 2.787150 0.230000
31.312084 1.602418 2.468457 0.050000
11.985782 -0.693772 1.224462 0.080000
11.734440 -1.928749 1.204215 0.020000
13.482347 -3.906026 1.311428 0.000000
18.140104 -8.228833 1.647520 0.000000
10.571248 4.113873 0.178630 0.100000
10.900634 2.844976 0.169773 0.040000
11.043618 1.647521 0.160695 0.090000
11.115069 0.528692 0.156722 0.030000
10.821493 -0.592129 0.151789 0.020000
10.461561 -1.644245 0.156939 0.030000
9.502856 -2.507868 0.181226 0.200000
9.562111 -3.766791 0.131700 0.070000
41.562107 2.274775 7.697766 0.020000
41.379524 -2.794178 7.558445 0.110000
43.964764 -21.752800 8.799730 0.080000
29.494408 13.433817 2.747697 0.230000
8.736094 2.150025 1.081549 0.070000
31.284800 1.727064 2.428849 0.040000
11.628158 -1.860717 1.189190 0.040000
13.486236 -3.845886 1.296661 0.010000
13.553299 -5.785091 1.329628 0.000000
10.327539 4.044194 0.177735 0.110000
10.666253 2.810481 0.169033 0.040000
10.808675 1.643039 0.155065 0.080000
10.909451 0.559778 0.151301 0.030000
10.655483 -0.540281 0.146549 0.030000
10.280171 -1.572688 0.151731 0.030000
9.497130 -2.467916 0.166360 0.290000
9.414742 -3.644591 0.131770 0.070000
50.529751 24.254734 10.712912 0.070000
8.529161 2.143293 1.835992 0.090000
42.732044 2.531750 7.831777 0.020000
42.462429 -2.688786 7.661664 0.120000
44.974335 -21.993820 8.886471 0.050000
29.451519 13.593263 2.683177 0.220000
8.715480 2.184710 1.061624 0.040000
31.272358 1.862052 2.374318 0.040000
12.624883 -0.641541 1.231324 0.080000
11.622170 -1.805731 1.164378 0.130000
9.635095 -2.483503 1.046671 0.010000
13.577209 -5.724531 1.304916 0.010000
10.068833 3.974227 0.176800 0.110000
10.426790 2.780908 0.163298 0.030000
10.563625 1.643346 0.154426 0.080000
10.693929 0.585673 0.145835 0.030000
10.449468 -0.489217 0.146201 0.020000
10.123776 -1.500652 0.146591 0.030000
9.516386 -2.427503 0.156560 0.260000
9.247200 -3.512758 0.126823 0.070000
42.383808 7.905755 7.925845 0.090000
11.327530 0.635208 2.222694 0.000000
42.228546 -2.472824 7.551856 0.120000
45.725567 -22.054535 8.913206 0.070000
29.443119 13.778336 2.628842 0.220000
8.714835 2.219740 1.051752 0.180000
13.230772 2.180359 1.298396 0.000000
13.267771 0.775930 1.263272 0.030000
12.568987 -0.592530 1.211360 0.100000
11.556085 -1.746912 1.144424 0.150000
9.644461 -2.448262 1.031826 0.010000
13.510097 -5.610686 1.275163 0.050000
9.800429 3.889090 0.170782 0.100000
8.949933 2.332288 0.227776 0.030000
10.333586 1.643959 0.148828 0.070000
10.443400 0.610879 0.145274 0.030000
10.238370 -0.433232 0.140858 0.030000
9.957287 -1.423808 0.141442 0.020000
9.064550 -3.376232 0.126853 0.060000
8.493097 2.202723 1.806118 0.210000
42.235683 8.083371 7.811118 0.080000
11.266853 0.674163 2.192680 0.020000
45.845726 -21.786819 8.814514 0.070000
29.409723 13.962931 2.574441 0.200000
8.758799 2.275629 1.042075 0.390000
13.214691 2.240154 1.273576 0.010000
31.272017 2.157537 2.255414 0.020000
12.572997 -0.537352 1.186576 0.120000
11.520103 -1.692500 1.119532 0.280000
16.809860 -7.153295 1.423044 0.010000
9.512125 3.798571 0.164693 0.120000
8.924401 2.361859 0.212819 0.050000
10.033929 1.623216 0.147969 0.080000
10.182983 0.630914 0.139669 0.030000
10.027369 -0.382245 0.135496 0.030000
9.705623 -1.338595 0.136102 0.020000
8.831446 -3.215650 0.121842 0.070000
52.293205 26.173717 10.759649 0.030000
8.492370 2.242771 1.791265 0.400000
42.679810 8.397006 7.793443 0.030000
11.226077 0.718500 2.162738 0.030000
52.378723 -2.593880 9.057916 0.090000
39.870022 -6.931783 6.984118 0.020000
9.424900 -2.330544 1.876699 0.000000
44.386986 -20.763018 8.389508 0.180000
29.391691 14.132927 2.490025 0.210000
30.665207 5.901632 2.252748 0.010000
31.199532 2.296430 2.185740 0.020000
12.557107 -0.487556 1.161719 0.130000
11.544384 -1.651955 1.099746 0.280000
9.386286 -2.277993 0.981785 0.010000
13.527389 -5.460090 1.210768 0.010000
9.233820 3.708243 0.158631 0.110000
9.490045 2.602955 0.155191 0.040000
9.798999 1.618753 0.137339 0.080000
9.927469 0.656043 0.134095 0.030000
9.826378 -0.331049 0.125162 0.030000
9.474036 -1.258016 0.135797 0.030000
9.151741 -2.184334 0.126512 0.030000
8.638702 -3.074316 0.121864 0.070000
52.642456 26.745708 10.707686 0.040000
8.466852 2.272361 1.771308 0.480000
42.715931 8.613084 7.699339 0.020000
11.195381 0.758010 2.137805 0.100000
46.715752 -2.083376 7.990021 0.080000
39.941685 -6.745066 6.899998 0.030000
9.409011 -2.280748 1.851843 0.000000
44.204906 -20.370794 8.215488 0.130000
29.328558 14.307042 2.410506 0.190000
8.707763 2.334809 1.002161 0.130000
16.534204 3.063451 1.400303 0.020000
16.594561 1.224429 1.353624 0.030000
12.566226 -0.437262 1.131929 0.150000
11.533410 -1.597045 1.069921 0.350000
9.390584 -2.237812 0.956945 0.060000
10.649636 -4.014307 1.033628 0.030000
8.906180 3.581946 0.157306 0.120000
9.221066 2.547812 0.149284 0.070000
9.464637 1.582343 0.136331 0.090000
9.652246 0.665792 0.128413 0.030000
9.570468 -0.285942 0.124662 0.030000
9.222564 -1.182800 0.130420 0.030000
8.889395 -2.064337 0.126273 0.030000
8.380589 -2.914231 0.121786 0.070000
52.676132 27.096966 10.559078 0.070000
8.466233 2.307428 1.751436 0.420000
42.697262 8.823258 7.565071 0.050000
11.139634 0.802097 2.097823 0.120000
46.236252 -1.821688 7.764740 0.140000
39.928013 -6.534796 6.765743 0.040000
9.418307 -2.240472 1.827016 0.010000
44.144173 -20.046221 8.031535 0.140000
29.255861 14.461043 2.310888 0.070000
8.746754 2.390639 0.982470 0.390000
12.580247 -0.381874 1.102172 0.140000
11.582700 -1.556002 1.045202 0.330000
9.379680 -2.187939 0.937102 1.000000
10.583015 -3.925438 0.998785 0.050000
8.598250 3.471029 0.156090 0.110000
8.917273 2.481982 0.148246 0.040000
9.164980 1.561600 0.135471 0.070000
9.317008 0.674355 0.132570 0.030000
9.249474 -0.237081 0.124005 0.030000
8.955889 -1.097892 0.130039 0.030000
8.667341 -1.958552 0.121087 0.030000
8.193049 -2.782781 0.116785 0.050000
52.679760 27.452703 10.395409 0.060000
8.480516 2.347782 1.731624 0.200000
42.648857 9.017824 7.440666 0.030000
11.103952 0.841531 2.067876 0.130000
41.845592 -1.452705 6.934642 0.090000
39.854450 -6.330673 6.631308 0.030000
9.412621 -2.200464 1.797150 0.010000
11.266418 -4.261736 2.179330 0.010000
13.039767 5.892577 1.251697 0.020000
8.746039 2.430705 0.962617 0.470000
30.557690 6.330639 1.984059 0.040000
12.654353 -0.330335 1.072556 0.130000
11.601912 -1.510516 1.015421 0.260000
9.318620 -2.128988 0.907161 0.150000
10.581944 -3.865338 0.969005 0.170000
8.280610 3.344923 0.154792 0.120000
8.633380 2.421535 0.147280 0.050000
8.825701 1.520077 0.139431 0.090000
8.996877 0.678225 0.131749 0.030000
8.963569 -0.192549 0.123425 0.030000
8.649221 -1.013751 0.129552 0.030000
8.450370 -1.857690 0.120895 0.030000
6.153574 -1.807237 0.270089 0.100000
48.652016 25.598593 9.462993 0.020000
8.479802 2.387849 1.711770 0.380000
42.257370 -1.269493 6.856397 0.140000
39.485142 -6.081987 6.436266 0.040000
9.467170 -2.174359 1.782389 0.040000
11.300628 -4.215963 2.149590 0.030000
8.720631 2.455315 0.937642 0.450000
13.159766 2.519756 1.109471 0.010000
11.265483 0.913579 0.993554 0.010000
12.683577 -0.284639 1.037802 0.090000
9.192188 -2.051285 0.877120 0.160000
10.560794 -3.800603 0.934190 0.140000
8.002591 3.239599 0.148675 0.120000
8.334790 2.345821 0.141219 0.050000
8.556148 1.494928 0.133634 0.080000
8.716750 0.682879 0.126035 0.030000
8.657763 -0.153398 0.122772 0.030000
8.427934 -0.947959 0.124218 0.020000
8.198226 -1.747481 0.115647 0.030000
6.137945 -1.772475 0.255177 0.160000
45.950924 24.419109 8.781550 0.030000
8.479088 2.427916 1.691917 0.370000
42.424091 -1.080845 6.742532 0.190000
39.471680 -5.881696 6.296975 0.020000
9.421229 -2.120083 1.742471 0.020000
11.329756 -4.165268 2.114854 0.160000
13.042019 6.047959 1.167279 0.010000
8.724928 2.495496 0.912802 0.350000
30.522745 6.615736 1.790026 0.020000
11.164923 0.946787 0.958415 0.010000
9.241861 -2.030239 0.852327 0.120000
10.569912 -3.750310 0.904400 0.230000
7.724751 3.124257 0.147521 0.120000
8.060991 2.280566 0.140262 0.060000
8.261778 1.459284 0.132733 0.080000
8.431707 0.682420 0.125289 0.030000
8.377049 -0.118768 0.122168 0.030000
8.221740 -0.886879 0.118907 0.040000
7.991457 -1.656407 0.110445 0.030000
6.142600 -1.752327 0.240264 0.140000
44.951885 24.146175 8.437925 0.050000
8.488467 2.463175 1.672073 0.240000
42.620785 -0.891659 6.638748 0.160000
39.072266 -5.628604 6.106871 0.040000
11.363965 -4.119494 2.085113 0.290000
13.114905 6.164523 1.127903 0.040000
8.729226 2.535677 0.887963 0.600000
13.157866 2.630033 1.029875 0.010000
11.194133 0.992465 0.928660 0.040000
15.333151 -0.238924 1.054888 0.270000
32.219929 -4.418087 1.583438 0.150000
9.527805 -2.074715 0.837908 0.320000
10.579139 -3.704997 0.869593 0.300000
7.506339 3.040077 0.141638 0.110000
7.792383 2.205408 0.139282 0.050000
8.017316 1.429616 0.126985 0.080000
8.151568 0.687056 0.124575 0.030000
8.111333 -0.083851 0.121604 0.040000
8.025640 -0.830606 0.113604 0.030000
7.794769 -1.570158 0.110253 0.030000
44.911793 24.436100 8.263896 0.040000
11.270554 1.035141 1.964029 0.010000
42.797573 -0.702727 6.499910 0.200000
39.274776 -5.479241 5.982954 0.040000
11.413486 -4.088394 2.045357 0.150000
8.733524 2.575858 0.863123 0.550000
11.093585 1.025691 0.888521 0.070000
13.328645 -1.572128 0.929699 0.140000
9.517023 -2.029804 0.808047 0.280000
10.613553 -3.669203 0.834815 0.310000
7.238497 2.924927 0.140511 0.090000
7.588214 2.161527 0.128586 0.050000
7.762843 1.399737 0.126209 0.090000
7.916530 0.687573 0.118963 0.030000
7.895716 -0.052957 0.116156 0.030000
7.794437 -0.770023 0.113226 0.030000
7.628389 -1.498295 0.100085 0.030000
7.246492 -2.185731 0.096533 0.080000
45.357140 24.960144 8.152005 0.050000
8.512060 2.543824 1.622434 0.200000
11.264879 1.075167 1.929163 0.010000
42.929546 -0.524673 6.365915 0.090000
39.422295 -5.330932 5.858889 0.030000
9.499590 -2.023290 1.668034 0.000000
13.047976 6.278627 1.028151 0.030000
8.747833 2.616249 0.833310 0.360000
13.245581 2.762047 0.945594 0.010000
11.098005 1.060911 0.853663 0.090000
13.347883 -1.526604 0.889918 0.120000
9.521430 -1.994603 0.778189 0.200000
10.617685 -3.618987 0.800012 0.250000
7.035081 2.841035 0.134668 0.100000
7.339507 2.091752 0.127677 0.060000
7.558277 1.375833 0.120587 0.090000
7.686573 0.683168 0.118347 0.030000
7.680194 -0.027062 0.110690 0.030000
7.603432 -0.718654 0.107918 0.030000
7.411705 -1.412430 0.099839 0.030000
7.089605 -2.088718 0.096484 0.090000
45.461338 25.287821 7.983494 0.020000
8.496553 2.573624 1.597504 0.260000
57.109779 13.896255 8.691561 0.030000
11.284188 1.115654 1.899363 0.040000
44.951458 -0.361361 6.491801 0.130000
39.780190 -5.203688 5.760295 0.020000
9.508995 -1.987993 1.638190 0.010000
13.036862 6.343609 0.978363 0.020000
8.757034 2.661525 0.808502 0.460000
11.167112 1.112353 0.824034 0.030000
13.269734 -0.052694 0.855192 0.010000
13.321964 -1.471908 0.840053 0.170000
9.530945 -1.964287 0.743326 0.220000
10.672397 -3.597789 0.760233 0.150000
6.792139 2.731363 0.133626 0.100000
7.145418 2.043044 0.121989 0.070000
7.333894 1.341530 0.119873 0.080000
7.486527 0.684355 0.112829 0.030000
7.489655 -0.000706 0.110290 0.040000
7.392417 -0.667686 0.107557 0.030000
7.174915 -1.321967 0.104557 0.030000
6.927828 -1.996782 0.091404 0.090000
49.509876 27.949196 8.448959 0.040000
8.520847 2.614188 1.572718 0.150000
57.110615 14.147195 8.452494 0.140000
11.213757 1.144494 1.849286 0.080000
44.943588 -0.185802 6.307431 0.240000
40.679661 -5.161289 5.717800 0.010000
9.533494 -1.957409 1.608367 0.010000
11.239227 -3.846120 1.890801 0.100000
13.040567 6.418895 0.923652 0.020000
8.766440 2.696821 0.778658 0.470000
29.913998 7.146261 1.220403 0.000000
11.166546 1.147495 0.784163 0.040000
12.925157 -1.374307 0.789379 0.130000
9.530353 -1.929182 0.713455 0.230000
10.747187 -3.581225 0.725490 0.110000
6.613527 2.657948 0.127887 0.090000
6.941415 1.989128 0.121256 0.060000
7.124413 1.312513 0.119219 0.090000
7.296563 0.680716 0.112319 0.030000
7.269217 0.020076 0.109792 0.040000
7.171405 -0.616910 0.107169 0.030000
6.983514 -1.250620 0.104323 0.040000
6.750945 -1.900152 0.091301 0.090000
50.236694 28.658625 8.348493 0.030000
8.520351 2.644294 1.542828 0.090000
57.161499 14.394038 8.228541 0.090000
11.218081 1.184712 1.814447 0.220000
36.876987 -0.010878 5.092013 0.130000
46.199989 -5.722609 6.260128 0.010000
11.213213 -3.786424 1.840955 0.080000
13.044452 6.484165 0.873904 0.020000
13.193356 2.896566 0.810956 0.010000
11.061178 1.170610 0.748974 0.140000
13.268231 0.037605 0.770523 0.000000
12.864327 -1.325298 0.744402 0.260000
9.534855 -1.898981 0.683578 0.230000
10.832179 -3.574449 0.685736 0.100000
6.420192 2.569230 0.127052 0.080000
6.757407 1.935594 0.120577 0.060000
6.929928 1.283783 0.118604 0.120000
7.086602 0.676695 0.111756 0.030000
7.083881 0.036548 0.104370 0.050000
6.995575 -0.575270 0.106865 0.030000
6.832405 -1.193486 0.099141 0.040000
6.584155 -1.808330 0.091207 0.090000
50.212196 28.924009 8.129414 0.020000
8.529744 2.679572 1.517983 0.170000
57.172565 14.630098 8.009445 0.070000
11.127736 1.208151 1.769298 0.220000
36.929729 0.125633 4.962657 0.270000
45.726089 -5.490782 6.024751 0.010000
38.687984 -9.463489 5.231603 0.030000
11.212455 -3.741284 1.801120 0.270000
11.075596 1.206020 0.714143 0.310000
13.242587 0.077286 0.725603 0.010000
12.888660 -1.284678 0.704616 0.140000
9.559449 -1.873395 0.653737 0.170000
10.912160 -3.567788 0.650970 0.100000
6.251565 2.495987 0.126340 0.070000
6.568497 1.876966 0.119866 0.050000
6.740538 1.250150 0.117985 0.120000
6.921742 0.668554 0.106296 0.030000
6.883523 0.052695 0.108907 0.040000
6.839933 -0.543245 0.106578 0.030000
6.701388 -1.140967 0.093994 0.030000
6.412366 -1.716604 0.091100 0.100000
50.776325 29.515413 7.998083 0.030000
8.529344 2.704679 1.488075 0.240000
57.189114 14.841259 7.790271 0.070000
11.037500 1.226609 1.719130 0.320000
40.316803 0.274592 5.227055 0.180000
52.217724 -6.118713 6.624368 0.020000
38.811123 -9.345595 5.092361 0.020000
11.307420 -3.734354 1.771394 0.110000
13.052316 6.609704 0.774390 0.020000
14.668378 5.265435 0.768612 0.140000
18.589907 4.440411 0.770781 0.020000
11.015220 1.229997 0.679074 0.420000
12.958286 -1.258175 0.659896 0.110000
9.548955 -1.843481 0.623821 0.170000
11.007246 -3.565820 0.611225 0.100000
6.078131 2.412651 0.125577 0.070000
6.399487 1.823720 0.119227 0.060000
6.590962 1.227300 0.112509 0.110000
6.731860 0.659898 0.110768 0.030000
6.738179 0.069933 0.103591 0.040000
6.669199 -0.506508 0.106268 0.030000
6.530162 -1.079254 0.098776 0.030000
6.275955 -1.644204 0.091013 0.090000
45.707649 26.661320 7.024233 0.020000
8.548734 2.740148 1.463257 0.160000
57.191124 15.032248 7.540984 0.050000
11.022128 1.251466 1.679182 0.390000
36.176266 0.352636 4.581530 0.180000
57.391342 -6.571048 7.001194 0.040000
39.733227 -9.437714 5.029425 0.020000
11.347037 -3.708444 1.731593 0.450000
13.036613 6.654632 0.714516 0.010000
13.136528 3.011011 0.671232 0.010000
11.034745 1.260523 0.639238 0.800000
12.992822 -1.227343 0.615101 0.110000
9.563647 -1.823086 0.593935 0.180000
11.238553 -3.626254 0.571603 0.180000
5.944305 2.350077 0.124995 0.070000
6.235476 1.770569 0.118601 0.050000
6.416461 1.198934 0.116949 0.110000
6.586887 0.657121 0.110379 0.030000
6.552913 0.081368 0.108150 0.040000
6.533566 -0.474082 0.101035 0.030000
6.379136 -1.027137 0.098576 0.030000
6.114343 -1.562303 0.095895 0.090000
51.742172 30.570307 7.674522 0.030000
8.538431 2.760064 1.433304 0.110000
50.146530 13.265889 6.461019 0.060000
11.021645 1.281590 1.644292 0.380000
36.184685 0.453292 4.451925 0.200000
40.588089 -4.444946 4.910215 0.020000
39.580551 -9.274967 4.854630 0.020000
11.341473 -3.673398 1.691708 0.370000
11.720871 5.904465 0.663292 0.010000
17.991137 4.389430 0.634027 0.010000
13.325816 0.189394 0.591236 0.000000
13.072433 -1.200667 0.575407 0.090000
9.543154 -1.793363 0.563991 0.180000
11.263174 -3.600631 0.531763 0.350000
5.785772 2.272027 0.124291 0.060000
6.061549 1.712209 0.122930 0.050000
6.247068 1.165684 0.116383 0.100000
6.412112 0.643771 0.109873 0.030000
6.412748 0.088685 0.107812 0.040000
6.352916 -0.442554 0.105681 0.030000
6.258309 -0.984425 0.093419 0.030000
5.993228 -1.504594 0.090794 0.090000
48.196785 28.569675 6.942823 0.020000
8.567821 2.795725 1.408513 0.160000
50.059589 13.394999 6.256269 0.110000
11.036254 1.307003 1.609425 0.350000
36.153236 0.548220 4.312194 0.250000
13.214783 -1.232438 1.800673 0.010000
11.340919 -3.638237 1.646837 0.290000
11.705525 5.929359 0.613344 0.050000
13.098685 4.735885 0.597544 0.030000
17.925756 4.418439 0.563964 0.010000
18.994690 0.313296 0.521493 0.000000
13.127156 -1.179450 0.530628 0.100000
9.542862 -1.773237 0.529065 0.180000
11.116581 -3.513277 0.491704 0.330000
5.652043 2.204454 0.123691 0.060000
5.917439 1.664441 0.122376 0.040000
6.092672 1.132721 0.115857 0.100000
6.262331 0.630900 0.109435 0.030000
6.227482 0.100121 0.112371 0.040000
6.227461 -0.419953 0.105437 0.030000
6.132566 -0.946827 0.093231 0.030000
5.877100 -1.446808 0.090705 0.100000
48.149494 28.719603 6.723255 0.030000
8.567502 2.815814 1.383587 0.310000
50.022903 13.510031 6.061599 0.080000
11.145628 1.344196 1.584848 0.230000
36.167149 0.623994 4.177511 0.170000
13.114179 -1.194157 1.745552 0.020000
11.279994 -3.584230 1.601878 0.510000
11.566627 5.876855 0.567786 0.090000
14.680335 5.456541 0.539351 0.080000
17.930063 4.463768 0.499143 0.010000
10.973689 1.329751 0.534335 0.060000
18.954113 0.352783 0.451533 0.000000
13.161884 -1.158617 0.485796 0.190000
9.527464 -1.748417 0.499117 0.210000
11.116111 -3.483134 0.451815 0.340000
5.533215 2.142167 0.123149 0.050000
5.778327 1.616768 0.121836 0.040000
5.953164 1.105026 0.120390 0.110000
6.102540 0.617819 0.113969 0.030000
6.107409 0.102822 0.112067 0.040000
6.086912 -0.392640 0.105172 0.030000
6.016821 -0.909037 0.093069 0.030000
5.776065 -1.393733 0.090639 0.090000
48.260590 28.952505 6.524408 0.020000
8.577195 2.836113 1.353687 0.230000
49.956600 13.609622 5.831794 0.060000
11.165236 1.369704 1.549994 0.240000
34.921555 0.681139 3.904469 0.210000
13.123816 -1.168802 1.700671 0.050000
11.294725 -3.563779 1.556992 0.470000
11.516658 5.881063 0.522671 0.200000
14.709502 5.507292 0.489615 0.100000
13.184319 3.152630 0.486881 0.010000
11.008390 1.350547 0.499502 0.070000
24.532530 0.510233 0.306678 0.010000
13.176616 -1.138166 0.440910 0.130000
9.547347 -1.737925 0.469207 0.190000
11.120927 -3.467892 0.411883 0.330000
5.429193 2.090166 0.122685 0.050000
5.669018 1.579668 0.121413 0.040000
5.818764 1.072447 0.119918 0.110000
6.002667 0.610924 0.108682 0.020000
5.977242 0.110330 0.111755 0.050000
5.991655 -0.379444 0.099972 0.030000
5.906075 -0.871151 0.092921 0.030000
5.670127 -1.345754 0.090541 0.090000
48.412098 29.166233 6.310596 0.020000
8.571987 2.851126 1.323729 0.230000
57.274548 15.798198 6.394037 0.050000
189.307907 28.407877 19.385689 50.000000
34.805790 0.739446 3.764382 0.250000
13.143545 -1.148256 1.655799 0.060000
150.090530 -35.173885 14.806920 0.010000
11.304444 -3.543442 1.517093 0.740000
11.496505 5.895864 0.472673 0.170000
11.013194 1.365770 0.464571 0.070000
22.422455 0.499966 0.261132 0.010000
9.532045 -1.718104 0.439241 0.200000
11.155833 -3.457075 0.372014 0.320000
5.330170 2.038260 0.122233 0.040000
5.559805 1.537569 0.120971 0.040000
5.724082 1.055649 0.114609 0.100000
5.877882 0.598532 0.108311 0.020000
5.892175 0.113720 0.106546 0.040000
5.881293 -0.361554 0.099751 0.040000
5.795521 -0.843264 0.092736 0.030000
5.589388 -1.307275 0.085473 0.090000
55.469143 33.740032 6.936026 0.020000
8.601555 2.876770 1.303902 0.200000
57.263512 15.878697 6.204306 0.070000
11.134946 1.394385 1.480006 0.220000
34.770164 0.789231 3.639473 0.270000
11.830746 -0.992802 1.497948 0.030000
11.304152 -3.523316 1.482167 0.600000
11.407105 5.869293 0.432340 0.140000
13.077090 4.846205 0.402896 0.040000
13.124086 3.176811 0.396813 0.020000
11.017997 1.380993 0.429640 0.070000
13.284290 0.299425 0.371534 0.010000
9.542026 -1.712802 0.409286 0.190000
11.185931 -3.456352 0.332095 0.320000
5.260962 1.996946 0.116899 0.040000
5.480312 1.511061 0.115665 0.030000
5.614569 1.028528 0.119222 0.110000
5.792994 0.591905 0.108064 0.030000
5.772088 0.116402 0.111242 0.050000
5.785927 -0.343377 0.099569 0.040000
5.725068 -0.819590 0.087640 0.030000
5.488545 -1.264199 0.085370 0.090000
52.978222 32.274029 6.389069 0.020000
8.606441 2.886976 1.273952 0.230000
57.277313 15.974858 5.964697 0.070000
11.154746 1.409896 1.445115 0.250000
34.764740 0.829611 3.509608 0.310000
11.845656 -0.982368 1.458025 0.080000
145.810593 -33.700039 13.286211 0.020000
11.349344 -3.527305 1.442269 0.380000
11.322896 5.832821 0.391984 0.190000
11.007898 1.390930 0.394650 0.070000
9.506715 -1.693383 0.384266 0.170000
11.216018 -3.455647 0.297176 0.420000
5.166938 1.945136 0.116461 0.040000
5.386096 1.469249 0.115264 0.030000
5.549894 1.012323 0.108993 0.100000
5.688205 0.579896 0.107746 0.020000
5.697115 0.114984 0.106041 0.050000
5.680660 -0.330391 0.099343 0.030000
5.634619 -0.796300 0.082490 0.030000
5.433089 -1.240238 0.080314 0.090000
53.160477 32.448318 6.180190 0.030000
8.616217 2.902257 1.249034 0.270000
57.301640 16.041143 5.745004 0.050000
11.119761 1.414373 1.405040 0.340000
34.794365 0.865606 3.394818 0.280000
11.840557 -0.972336 1.423049 0.100000
18.629814 -3.819904 2.000191 0.000000
11.263491 5.806825 0.351732 0.190000
14.797568 5.639809 0.270335 0.030000
15.247595 3.818161 0.249738 0.010000
11.007798 1.401058 0.359687 0.070000
15.808482 0.388388 0.213452 0.020000
15.280599 -1.292000 0.200828 0.030000
9.521708 -1.687967 0.349325 0.170000
11.226037 -3.450289 0.252222 0.370000
5.092731 1.903726 0.111113 0.040000
5.306590 1.442721 0.114958 0.030000
5.455282 0.990489 0.113665 0.100000
5.608425 0.568384 0.102495 0.020000
5.622046 0.118566 0.100859 0.050000
5.605482 -0.321829 0.099178 0.030000
5.564153 -0.772645 0.082394 0.030000
5.347339 -1.201874 0.080233 0.100000
28.893187 17.055595 3.399597 0.000000
8.616199 2.907368 1.219053 0.220000
30.288486 8.216692 3.115379 0.020000
11.119757 1.419502 1.370058 0.310000
31.381073 0.801728 2.975666 0.150000
11.885557 -0.966326 1.383188 0.070000
18.348499 -3.739911 1.899754 0.000000
11.238626 5.806532 0.301666 0.200000
13.458591 5.054117 0.249663 0.030000
14.153314 3.512223 0.225744 0.010000
10.982894 1.400709 0.324620 0.070000
14.538746 0.364103 0.200047 0.010000
11.983272 -0.950345 0.263491 0.010000
9.516678 -1.682971 0.324330 0.160000
11.215939 -3.440353 0.217232 0.310000
5.023511 1.862393 0.110779 0.030000
5.212374 1.400910 0.114556 0.030000
5.375694 0.968980 0.108377 0.100000
5.528631 0.556854 0.102244 0.020000
5.522065 0.116651 0.100591 0.040000
5.530317 -0.313249 0.094014 0.030000
5.473787 -0.754373 0.082226 0.030000
5.261684 -1.168508 0.080133 0.100000
28.923111 17.076612 3.279752 0.020000
8.611265 2.907365 1.194039 0.230000
30.273777 8.216813 3.005340 0.020000
11.124752 1.424727 1.335090 0.290000
31.376251 0.807022 2.870672 0.190000
11.865665 -0.966561 1.343135 0.060000
18.263205 -3.716302 1.834618 0.000000
11.233827 5.801586 0.261634 0.190000
12.714818 4.724887 0.226497 0.040000
13.168590 3.228332 0.217118 0.010000
10.947992 1.400169 0.289527 0.110000
13.639036 0.341905 0.187616 0.010000
12.018465 -0.954526 0.223567 0.060000
9.491665 -1.678339 0.294282 0.120000
4.954291 1.821060 0.110444 0.030000
5.142962 1.369575 0.114259 0.020000
5.305994 0.952642 0.108134 0.090000
5.438840 0.545132 0.101966 0.020000
5.452078 0.115310 0.100403 0.050000
5.410039 -0.300569 0.098747 0.030000
5.383325 -0.731101 0.082077 0.030000
5.191218 -1.144854 0.080037 0.110000
28.898659 17.066639 3.144650 0.040000
8.611343 2.907477 1.164040 0.140000
18.196924 4.693750 1.910709 0.010000
11.139827 1.425126 1.305131 0.240000
31.391428 0.812698 2.765732 0.200000
11.835570 -0.957007 1.308092 0.050000
18.122662 -3.678712 1.759390 0.000000
11.199225 5.786067 0.221486 0.150000
11.980923 4.400812 0.213377 0.040000
12.457403 3.024731 0.199505 0.010000
10.948084 1.400299 0.254527 0.110000
12.744312 0.319784 0.180199 0.020000
11.943365 -0.945852 0.193403 0.050000
9.481649 -1.673420 0.264274 0.170000
4.890082 1.779841 0.105124 0.030000
5.093368 1.348640 0.109051 0.020000
5.221489 0.926019 0.107815 0.110000
5.397101 0.114275 0.095255 0.040000
5.379962 -0.296126 0.093685 0.100000
5.302956 -0.712637 0.081936 0.030000
5.140857 -1.125796 0.074977 0.130000
28.889370 17.046915 3.019551 0.080000
8.626310 2.912856 1.139099 0.110000
18.301569 4.720961 1.856082 0.010000
11.139918 1.425256 1.270131 0.250000
31.401903 0.803301 2.655723 0.190000
11.890843 -0.965822 1.273203 0.050000
18.007578 -3.665657 1.689137 0.000000
33.416801 -11.980956 2.773460 0.150000
11.356240 4.118835 0.200698 0.040000
11.840899 2.837927 0.187201 0.010000
10.983169 1.401100 0.219621 0.080000
12.119742 0.292854 0.168468 0.020000
11.728184 -0.934880 0.167882 0.040000
9.491904 -1.683134 0.239264 0.230000
10.450516 -3.154705 0.146295 0.060000
4.840667 1.748889 0.104879 0.030000
5.023956 1.317305 0.108754 0.020000
5.156884 0.904778 0.107567 0.110000
5.284348 0.517169 0.101459 0.010000
5.307201 0.107534 0.099996 0.030000
5.319987 -0.297256 0.088524 0.100000
5.227683 -0.699076 0.081790 0.040000
5.065379 -1.102256 0.079867 0.110000
28.895723 16.992449 2.904364 0.100000
8.636565 2.903142 1.114089 0.120000
18.118250 4.642729 1.775312 0.000000
11.145296 1.410485 1.235090 0.250000
31.387960 0.763430 2.545537 0.270000
11.921299 -0.985132 1.243210 0.040000
17.927763 -3.666947 1.623924 0.000000
11.319580 -3.507010 1.207265 0.030000
10.845853 3.874035 0.193455 0.050000
11.304078 2.667634 0.180167 0.010000
11.048426 1.392458 0.189759 0.080000
11.630243 0.263511 0.157081 0.020000
11.202350 -0.894907 0.156658 0.040000
9.487270 -1.698115 0.209196 0.250000
10.073025 -3.026875 0.135785 0.060000
4.781540 1.702749 0.104554 0.020000
4.984456 1.291562 0.103555 0.020000
5.102278 0.883728 0.107346 0.070000
5.239561 0.506327 0.096302 0.010000
5.242309 0.101290 0.099803 0.030000
5.234894 -0.293903 0.093315 0.040000
5.182595 -0.694939 0.081687 0.040000
5.020209 -1.093101 0.074783 0.110000
28.917540 16.913256 2.794126 0.080000
8.636918 2.888238 1.089034 0.170000
18.258341 4.645577 1.730688 0.000000
11.115764 1.390025 1.204937 0.210000
31.434433 0.699639 2.455420 0.100000
13.013987 -1.119339 1.275564 0.050000
17.069639 -3.497985 1.522311 0.000000
11.380592 -3.555758 1.182243 0.070000
9.589497 4.715104 0.198303 0.050000
10.434692 3.671162 0.181628 0.050000
10.841956 2.513775 0.173389 0.010000
11.160823 0.229533 0.150729 0.020000
10.781866 -0.872937 0.150642 0.050000
9.492719 -1.717923 0.184136 0.280000
9.735992 -2.923293 0.130290 0.060000
4.737219 1.666893 0.104305 0.020000
4.915126 1.255210 0.108239 0.020000
5.057670 0.862870 0.107152 0.040000
5.199856 0.490564 0.096139 0.010000
5.197509 0.090430 0.099646 0.030000
5.189902 -0.294765 0.093194 0.030000
5.107405 -0.686396 0.086523 0.040000
4.990228 -1.093657 0.069703 0.120000
28.924786 16.808706 2.703755 0.050000
8.657253 2.873698 1.069033 0.210000
13.157175 3.143955 1.346787 0.000000
11.126306 1.365315 1.179872 0.240000
13.237799 0.250208 1.276239 0.020000
12.989549 -1.144701 1.245406 0.130000
13.489082 -2.685517 1.270982 0.000000
11.295591 -3.552275 1.152033 0.150000
9.328296 4.515085 0.191877 0.050000
10.142731 3.510560 0.175269 0.050000
10.524233 2.392687 0.167109 0.010000
10.846375 0.198524 0.144793 0.020000
10.461639 -0.864069 0.149839 0.050000
9.498249 -1.742748 0.164058 0.290000
9.484615 -2.853077 0.124895 0.060000
4.702896 1.631230 0.104082 0.030000
4.905524 1.235040 0.103139 0.010000
5.023072 0.842222 0.101985 0.040000
5.155152 0.474705 0.095964 0.010000
5.137616 0.084282 0.099467 0.030000
5.150005 -0.300530 0.093068 0.020000
5.082518 -0.691855 0.081437 0.040000
4.929938 -1.079828 0.074597 0.120000
29.001678 16.720419 2.633627 0.020000
8.652868 2.843664 1.053910 0.170000
13.202710 3.119915 1.321816 0.010000
11.087049 1.329648 1.154637 0.200000
13.288608 0.211247 1.256227 0.090000
12.975287 -1.179889 1.220237 0.130000
13.399466 -2.702126 1.240686 0.000000
11.266141 -3.577752 1.126861 0.410000
9.126413 4.351208 0.185741 0.050000
9.905375 3.371008 0.169130 0.060000
10.291015 2.298222 0.161149 0.010000
10.506315 1.242196 0.147785 0.010000
10.546909 0.167783 0.143897 0.020000
10.271784 -0.872688 0.144311 0.050000
9.478770 -1.768070 0.148913 0.300000
9.298800 -2.811610 0.119564 0.060000
4.663561 1.595452 0.108847 0.030000
4.851096 1.203974 0.107881 0.010000
5.003364 0.826842 0.101877 0.040000
5.130444 0.459229 0.095842 0.010000
5.097911 0.068519 0.099304 0.030000
5.110109 -0.306295 0.092943 0.020000
5.037527 -0.692717 0.081317 0.040000
4.904943 -1.080306 0.074530 0.120000
8.683272 2.824280 1.043917 0.090000
13.129023 3.053565 1.301377 0.040000
11.047862 1.288946 1.139383 0.570000
12.996185 -1.224442 1.205126 0.150000
11.216681 -3.603631 1.106636 0.360000
9.023362 4.249235 0.180093 0.050000
9.737419 3.262772 0.168290 0.050000
10.112581 2.214790 0.160373 0.020000
10.332401 1.183855 0.147114 0.010000
10.407511 0.135108 0.143412 0.020000
10.117017 -0.885636 0.138859 0.050000
9.504462 -1.802548 0.138852 0.230000
9.158348 -2.789295 0.119280 0.060000
4.688583 1.595968 0.098914 0.020000
4.846398 1.188900 0.102813 0.010000
4.983750 0.806463 0.101750 0.040000
5.115734 0.443945 0.095746 0.010000
5.118112 0.058922 0.094321 0.030000
5.070308 -0.317060 0.092799 0.020000
5.032719 -0.702811 0.081267 0.040000
4.885056 -1.085670 0.069458 0.120000
13.010156 6.636665 1.384387 0.000000
8.668972 2.789036 1.033749 0.150000
13.115035 3.003361 1.281153 0.040000
11.018565 1.253415 1.129174 0.690000
13.250226 0.130608 1.225827 0.070000
13.032067 -1.268726 1.195055 0.140000
13.406459 -2.801900 1.210333 0.000000
11.308293 -3.686891 1.106566 0.260000
8.935295 4.147530 0.179485 0.060000
9.653872 3.186159 0.167787 0.060000
10.043661 2.158479 0.154984 0.020000
10.238281 1.137044 0.146695 0.010000
10.303201 0.098104 0.143002 0.020000
10.012324 -0.902644 0.138523 0.060000
9.083458 -2.795731 0.119061 0.070000
4.674065 1.570685 0.098782 0.020000
4.851684 1.173998 0.102771 0.010000
4.993940 0.796656 0.101740 0.030000
5.100928 0.433659 0.095670 0.010000
5.093308 0.048445 0.094218 0.030000
5.075499 -0.326962 0.092776 0.020000
5.022926 -0.712982 0.076203 0.040000
4.880344 -1.100763 0.069390 0.120000
13.021426 6.571906 1.374175 0.000000
8.669668 2.754080 1.023620 0.250000
13.111008 2.953294 1.275957 0.040000
11.044244 1.218919 1.124113 0.760000
13.236117 0.085367 1.215622 0.080000
13.038037 -1.318602 1.189885 0.140000
9.588531 -1.874122 1.003814 0.000000
11.314263 -3.736767 1.101396 0.210000
8.936074 4.107556 0.174338 0.060000
9.639750 3.140898 0.162582 0.060000
9.994533 2.112530 0.154685 0.020000
10.218969 1.101686 0.141513 0.010000
10.248799 0.067075 0.137745 0.020000
9.977905 -0.933308 0.138319 0.050000
9.018566 -2.801975 0.118868 0.070000
4.679351 1.555784 0.098741 0.020000
4.861874 1.164192 0.102761 0.010000
4.994132 0.786658 0.101703 0.030000
5.111227 0.418872 0.090641 0.010000
5.083584 0.033238 0.099136 0.030000
5.070787 -0.342055 0.092707 0.020000
5.008107 -0.723286 0.081126 0.050000
4.870537 -1.110952 0.069326 0.130000
13.032574 6.512109 1.373982 0.000000
8.675339 2.719182 1.023505 0.370000
13.111979 2.903322 1.270773 0.050000
11.159688 1.196108 1.129330 0.370000
9.609293 -1.913731 1.003721 0.000000
11.189121 -3.729126 1.091097 0.330000
8.971451 4.088230 0.174359 0.070000
9.670224 3.116478 0.162570 0.060000
9.990300 2.072442 0.154525 0.020000
10.224543 1.071788 0.141416 0.010000
10.289462 0.032847 0.137724 0.020000
9.968482 -0.963494 0.138182 0.050000
9.536604 -1.911896 0.123529 0.050000
8.978956 -2.822737 0.118687 0.070000
4.714262 1.561472 0.093853 0.020000
4.862162 1.149195 0.102706 0.010000
5.009334 0.776966 0.096707 0.030000
5.111419 0.408874 0.090605 0.010000
5.093787 0.023450 0.094126 0.030000
5.075991 -0.351939 0.087684 0.020000
5.008395 -0.738283 0.081071 0.050000
4.870825 -1.125950 0.069271 0.130000
13.019013 6.436836 1.373667 0.000000
8.680912 2.689284 1.023409 0.390000
13.122934 2.853523 1.270617 0.060000
11.180355 1.161497 1.129255 0.220000
13.247840 -0.004425 1.215318 0.070000
9.514515 -1.925530 0.998430 0.010000
11.185081 -3.779212 1.090901 0.300000
9.021729 4.074191 0.174438 0.060000
9.725514 3.102553 0.157663 0.060000
10.060670 2.053786 0.154639 0.020000
10.265206 1.037560 0.141395 0.010000
10.325126 -0.001476 0.137689 0.020000
9.999256 -1.002893 0.133116 0.050000
9.557366 -1.951506 0.123436 0.050000
9.035205 -2.886653 0.113597 0.070000
4.704730 1.536266 0.098734 0.020000
4.872351 1.139388 0.102696 0.010000
5.004622 0.761873 0.096638 0.030000
5.121704 0.394069 0.090577 0.010000
5.089076 0.008357 0.094058 0.030000
5.091275 -0.366648 0.087669 0.020000
5.028787 -0.757878 0.076052 0.050000
4.866017 -1.136043 0.069221 0.110000
13.035256 6.372136 1.373469 0.000000
8.676584 2.654195 1.023267 0.290000
13.128892 2.803628 1.270447 0.060000
11.136226 1.115644 1.128969 0.210000
13.243703 -0.049512 1.215140 0.070000
13.336488 -1.497973 1.204998 0.020000
9.469907 -1.946388 0.998236 0.030000
11.196119 -3.834028 1.095726 0.270000
9.121628 4.081123 0.169724 0.070000
9.800787 3.088992 0.157809 0.060000
10.150953 2.040531 0.149825 0.020000
10.360681 1.014403 0.136558 0.010000
10.390798 -0.035206 0.132735 0.020000
8.846497 -0.880224 0.205564 0.030000
9.593223 -1.995827 0.123365 0.040000
9.091344 -2.945588 0.113524 0.080000
4.724835 1.531669 0.093770 0.030000
4.892456 1.134791 0.097732 0.010000
5.019811 0.752162 0.096642 0.030000
5.116884 0.383956 0.095526 0.010000
5.114263 -0.001162 0.094088 0.030000
5.091563 -0.381646 0.087614 0.040000
5.034074 -0.772779 0.076010 0.060000
4.881507 -1.160733 0.064170 0.130000
8.692130 2.624450 1.033197 0.240000
13.134823 2.753696 1.280277 0.060000
11.151880 1.080919 1.133881 0.210000
13.229638 -0.099827 1.224916 0.090000
13.287237 -1.538960 1.214717 0.020000
9.430381 -1.972168 1.003037 0.020000
11.353337 -3.951112 1.115701 0.130000
9.241126 4.108417 0.170138 0.070000
9.955471 3.106957 0.158279 0.060000
10.256208 2.027526 0.155052 0.020000
10.466126 0.991400 0.141748 0.010000
10.536537 -0.072421 0.132977 0.020000
10.125944 -1.090501 0.138121 0.060000
9.694449 -2.058899 0.123395 0.050000
9.132473 -3.004829 0.118411 0.070000
4.740011 1.521940 0.098773 0.030000
4.912644 1.125176 0.097749 0.020000
5.025084 0.737242 0.101600 0.030000
5.157081 0.374743 0.090597 0.010000
5.119549 -0.016063 0.094046 0.030000
5.116845 -0.396164 0.087626 0.040000
5.059452 -0.792296 0.076004 0.070000
4.886780 -1.175653 0.069128 0.130000
16.509935 8.213090 1.639385 0.000000
8.667984 2.578962 1.037965 0.360000
13.155738 2.704033 1.295147 0.030000
11.222499 1.047211 1.148940 0.230000
12.680355 -0.140299 1.208332 0.270000
13.222990 -1.580234 1.224396 0.030000
9.375761 -1.993236 1.007816 0.030000
11.288802 -3.977389 1.125435 0.290000
9.410233 4.156664 0.170758 0.080000
10.115153 3.125019 0.158763 0.060000
10.431176 2.030878 0.155521 0.020000
10.586583 0.968703 0.141978 0.010000
10.632273 -0.110613 0.138085 0.020000
10.251975 -1.143097 0.138254 0.050000
9.760573 -2.117662 0.128349 0.050000
9.254284 -3.097494 0.113385 0.080000
4.765101 1.517419 0.098822 0.030000
4.937735 1.120655 0.097797 0.010000
5.070185 0.733124 0.096703 0.040000
5.157355 0.359727 0.095542 0.010000
5.159829 -0.030294 0.094099 0.030000
5.122118 -0.411084 0.092585 0.030000
5.079844 -0.811891 0.070984 0.050000
4.912364 -1.205150 0.064085 0.150000
29.209343 15.284289 2.588830 0.040000
8.683530 2.549217 1.047895 0.430000
30.502296 6.813105 2.410713 0.050000
11.198244 1.006702 1.158726 0.260000
12.676192 -0.185423 1.218153 0.240000
13.239002 -1.634992 1.239234 0.020000
9.326223 -2.019226 1.017590 0.030000
11.315100 -4.046953 1.140245 0.340000
9.574517 4.194799 0.176329 0.080000
10.324527 3.159016 0.164436 0.040000
10.621140 2.034517 0.156030 0.020000
10.816923 0.953112 0.142521 0.010000
10.753099 -0.153324 0.143242 0.020000
10.393181 -1.205422 0.143391 0.060000
9.927267 -2.204484 0.128461 0.050000
9.386259 -3.200003 0.118348 0.080000
4.799999 1.523089 0.098934 0.030000
4.962909 1.111118 0.102828 0.020000
5.090360 0.723490 0.101719 0.040000
5.202551 0.350609 0.090626 0.010000
5.175114 -0.045004 0.094084 0.030000
5.152509 -0.430487 0.087592 0.040000
5.105319 -0.836407 0.070960 0.050000
4.922732 -1.224973 0.069039 0.130000
29.222754 15.099331 2.638178 0.090000
8.674380 2.504016 1.052703 0.220000
30.480167 6.657507 2.450077 0.090000
12.687096 -0.235296 1.237997 0.630000
12.603119 -1.592089 1.217734 0.090000
9.236322 -2.025967 1.022331 0.060000
9.832745 4.289761 0.177356 0.080000
10.880900 2.049494 0.156764 0.020000
11.037349 0.932311 0.148020 0.010000
10.954007 -0.199503 0.148595 0.020000
10.574475 -1.271980 0.148617 0.050000
10.078951 -2.291613 0.133533 0.050000
9.508235 -3.302704 0.123285 0.080000
4.830090 1.518664 0.098996 0.040000
4.988000 1.106597 0.102876 0.020000
5.140459 0.719467 0.096835 0.040000
5.222726 0.340976 0.095643 0.010000
5.220393 -0.059140 0.094150 0.030000
5.172876 -0.450119 0.092572 0.050000
5.120687 -0.856135 0.075926 0.050000
4.948398 -1.259488 0.068977 0.160000
29.231047 14.919238 2.697531 0.130000
8.684901 2.474139 1.072620 0.120000
30.622053 6.549931 2.525048 0.010000
12.652912 -0.281033 1.257738 0.660000
12.528751 -1.628593 1.237404 0.060000
9.272222 -2.075362 1.042241 0.040000
10.086246 4.369612 0.183315 0.090000
9.179075 2.636638 0.254506 0.060000
11.170449 2.075026 0.162615 0.020000
11.207866 0.905536 0.158365 0.050000
11.210000 -0.249628 0.154077 0.020000
10.836151 -1.356983 0.148984 0.050000
10.280912 -2.392781 0.138684 0.050000
9.695774 -3.434154 0.128286 0.070000
4.870082 1.519430 0.099103 0.040000
5.047893 1.112745 0.103056 0.020000
5.155635 0.709738 0.101839 0.040000
5.283016 0.327146 0.090749 0.010000
5.230665 -0.073964 0.099121 0.030000
5.203253 -0.469540 0.092579 0.060000
5.141162 -0.880747 0.075888 0.050000
4.953671 -1.274408 0.073936 0.150000
29.279139 14.749908 2.757027 0.130000
8.675739 2.428919 1.082428 0.100000
30.570395 6.368744 2.569240 0.100000
31.145124 2.739220 2.527248 0.160000
12.603936 -0.337035 1.272402 0.820000
11.606907 -1.536104 1.200341 0.110000
9.318311 -2.134563 1.062141 0.030000
10.433786 4.501291 0.184711 0.090000
11.480091 2.095941 0.168501 0.020000
11.193583 0.865182 0.178178 0.050000
11.536089 -0.303392 0.154728 0.020000
11.117810 -1.441622 0.154405 0.050000
10.508169 -2.508450 0.138848 0.050000
9.928797 -3.589718 0.128316 0.080000
4.919977 1.525387 0.099256 0.040000
5.073080 1.103226 0.103086 0.020000
5.215733 0.705906 0.096981 0.040000
5.313189 0.317704 0.095793 0.010000
5.281052 -0.092984 0.094182 0.030000
5.248724 -0.493674 0.092608 0.050000
5.161624 -0.905378 0.080850 0.060000
4.994443 -1.313615 0.068896 0.130000
29.292759 14.549841 2.836320 0.120000
8.661565 2.383584 1.097223 0.260000
30.602766 6.234047 2.648825 0.200000
31.137409 2.608756 2.606744 0.140000
12.589724 -0.382426 1.302196 0.790000
11.547428 -1.567340 1.225070 0.120000
9.329023 -2.174438 1.082021 0.030000
10.821005 4.648696 0.196270 0.080000
11.540030 3.402265 0.188514 0.070000
11.874525 2.128483 0.174652 0.020000
11.259380 0.821361 0.198187 0.070000
11.947341 -0.365545 0.160570 0.020000
11.449830 -1.545318 0.164886 0.060000
10.810962 -2.652713 0.149102 0.040000
10.217563 -3.784241 0.133347 0.070000
4.954957 1.526039 0.104349 0.050000
5.142972 1.109566 0.103292 0.020000
5.270805 0.701942 0.102110 0.050000
5.368465 0.303760 0.095885 0.020000
5.331317 -0.107042 0.099261 0.030000
5.289100 -0.512904 0.092642 0.050000
5.207191 -0.934510 0.080861 0.060000
5.009906 -1.338342 0.073845 0.150000
29.300985 14.369655 2.920672 0.100000
8.701984 2.359281 1.117238 0.400000
30.625237 6.094160 2.728364 0.180000
31.184874 2.469347 2.686350 0.140000
12.560718 -0.438083 1.326914 0.840000
11.528337 -1.617788 1.244833 0.160000
9.651829 -2.323429 1.122310 0.040000
11.337267 4.848619 0.198361 0.090000
9.022480 2.448368 0.318398 0.090000
12.378652 2.178128 0.181152 0.020000
11.345175 0.777923 0.218250 0.060000
12.428866 -0.441355 0.166546 0.020000
11.571301 -1.623061 0.179914 0.050000
11.174138 -2.815804 0.154444 0.040000
10.491127 -3.969071 0.143374 0.070000
5.019753 1.537282 0.104560 0.050000
5.188046 1.105410 0.108394 0.020000
5.395725 0.709391 0.087464 0.170000
5.418744 0.289721 0.095964 0.020000
5.401796 -0.130678 0.094357 0.040000
5.349663 -0.541749 0.092693 0.050000
5.227653 -0.959141 0.085823 0.060000
5.060759 -1.382376 0.073814 0.130000
29.334303 14.184949 3.005074 0.080000
8.672896 2.308641 1.136974 0.140000
30.632998 5.938987 2.807808 0.230000
31.162653 2.313619 2.760714 0.120000
12.606685 -0.492322 1.356833 0.690000
11.499140 -1.663447 1.269587 0.190000
9.662624 -2.368322 1.147172 0.030000
