# This PCD file was generated using the MATLAB® pcwrite function
# from Computer Vision Toolbox®.
# .PCD v.7 - Point Cloud Data file format
VERSION .7
FIELDS x y z intensity
SIZE 4 4 4 4
TYPE F F F F
COUNT 1 1 1 1
WIDTH 1286
HEIGHT 1
VIEWPOINT 0 0 0 1 0 0 0
POINTS 1286
DATA ascii
11.594488 -1.442168 1.430660 0.090000
38.452038 -10.523005 3.812034 0.020000
11.345627 -4.117517 1.450066 0.030000
8.671209 2.491116 0.462641 0.530000
11.041338 0.951511 0.388104 0.060000
14.724577 -3.593074 0.195822 0.030000
10.626768 -3.762005 0.299499 0.230000
5.250372 1.766702 0.116015 0.050000
5.459341 1.300622 0.114828 0.030000
5.583229 0.837913 0.113431 0.090000
5.711568 0.405331 0.102158 0.030000
5.710288 -0.049774 0.100463 0.050000
5.643829 -0.496126 0.098630 0.050000
5.557687 -0.957820 0.086689 0.050000
5.346172 -1.401931 0.079486 0.130000
47.860672 25.703232 5.431275 0.050000
8.514542 2.470325 1.222163 0.290000
30.466103 6.764507 3.200446 0.020000
11.252786 0.996847 1.403835 0.030000
12.620676 -0.197497 1.492966 0.360000
17.439772 -4.337438 1.900160 0.000000
11.410227 -4.091147 1.415332 0.190000
14.279297 6.850115 0.268482 0.040000
16.001980 3.337579 0.234921 0.000000
10.975758 0.985371 0.358058 0.090000
15.820170 -0.221496 0.211216 0.020000
14.820721 -1.825938 0.207642 0.040000
13.768062 -3.261316 0.189559 0.030000
9.758210 -3.323562 0.298862 0.150000
5.165867 1.740079 0.115696 0.050000
5.349744 1.278519 0.114460 0.030000
5.508160 0.841494 0.108249 0.080000
5.631391 0.413797 0.101980 0.030000
5.615018 -0.036596 0.100263 0.050000
5.588373 -0.472165 0.093575 0.040000
5.476935 -0.919360 0.086621 0.050000
5.275227 -1.353281 0.079482 0.140000
29.229862 15.411919 3.349365 0.010000
8.499035 2.500125 1.197233 0.440000
30.478718 6.905195 3.086000 0.030000
11.192135 1.035839 1.363821 0.020000
11.389007 -4.021376 1.370536 0.230000
13.174509 6.308916 0.248586 0.040000
14.552259 3.049800 0.220067 0.010000
10.950088 1.025015 0.323138 0.110000
14.663605 -0.148578 0.193468 0.010000
13.987274 -1.651815 0.191114 0.030000
12.912293 -2.967635 0.183417 0.040000
9.762508 -3.283381 0.274022 0.270000
5.086361 1.713552 0.115390 0.050000
5.294864 1.272485 0.109294 0.030000
5.428271 0.834963 0.108016 0.110000
5.546216 0.422167 0.101789 0.030000
5.554646 -0.017749 0.100176 0.050000
5.507909 -0.448702 0.093452 0.050000
5.436381 -0.890113 0.081624 0.040000
5.209268 -1.304554 0.084491 0.150000
29.147661 15.540752 3.244629 0.020000
8.518317 2.540575 1.177433 0.450000
30.471476 7.035428 2.991465 0.050000
11.206431 1.076211 1.339008 0.130000
11.312496 -3.937680 1.330647 0.330000
12.371872 5.918512 0.235039 0.050000
8.798341 2.653892 0.378577 0.080000
13.620335 2.881959 0.207010 0.010000
11.009292 1.071267 0.293464 0.100000
13.797260 -0.085122 0.181442 0.020000
13.133902 -1.483110 0.184514 0.040000
12.217480 -2.720843 0.167520 0.040000
9.746645 -3.233547 0.239165 0.540000
5.036492 1.707632 0.105237 0.050000
5.205155 1.255746 0.113998 0.020000
5.373199 0.838927 0.102887 0.090000
5.471134 0.425730 0.101607 0.030000
5.469375 -0.004380 0.100003 0.040000
5.462438 -0.424569 0.093423 0.040000
5.385816 -0.861077 0.081600 0.040000
5.168714 -1.275308 0.079494 0.140000
29.100069 15.690252 3.140059 0.030000
8.502810 2.570375 1.152503 0.420000
30.499010 7.176291 2.907059 0.150000
11.150862 1.110282 1.303989 0.190000
13.035160 -1.459470 1.404356 0.020000
19.581800 -4.681402 1.884473 0.000000
11.200609 -3.834658 1.290737 0.240000
11.688158 5.585396 0.222016 0.050000
8.807638 2.694168 0.353751 0.200000
12.813182 2.726492 0.199325 0.010000
10.988704 1.105989 0.263539 0.070000
12.956076 -0.031222 0.179446 0.010000
12.441073 -1.341335 0.178232 0.040000
11.698853 -2.535724 0.161855 0.030000
9.766023 -3.198097 0.219348 0.270000
4.922350 1.660401 0.114764 0.030000
5.170078 1.260093 0.108922 0.020000
5.273383 0.826977 0.112582 0.080000
5.415952 0.434675 0.101496 0.020000
5.414098 0.009564 0.099911 0.040000
5.386973 -0.401010 0.093314 0.040000
5.365462 -0.841426 0.071620 0.040000
5.112862 -1.231369 0.079511 0.130000
29.101868 15.870667 3.045733 0.030000
8.512190 2.605634 1.132659 0.260000
30.407179 7.284919 2.807222 0.270000
11.175156 1.150846 1.279203 0.260000
13.029403 -1.414426 1.364508 0.040000
19.690870 -4.624102 1.829970 0.000000
11.184663 -3.779807 1.250899 0.250000
11.073762 5.288613 0.209309 0.050000
8.787132 2.723872 0.328808 0.120000
12.249929 2.630706 0.192499 0.010000
11.027995 1.146840 0.238794 0.040000
12.385141 0.012870 0.173120 0.020000
11.948988 -1.235704 0.167340 0.050000
11.265784 -2.378972 0.156307 0.040000
4.926992 1.680530 0.104851 0.040000
5.090477 1.238565 0.108635 0.020000
5.263124 0.841820 0.102610 0.250000
5.365879 0.438735 0.096380 0.010000
5.333825 0.023029 0.099751 0.030000
5.326602 -0.382163 0.093226 0.040000
5.264592 -0.798387 0.081517 0.040000
5.087400 -1.206834 0.074536 0.130000
29.089216 16.020763 2.961258 0.080000
8.511571 2.640702 1.112787 0.230000
30.405088 7.405193 2.727663 0.270000
11.154554 1.185549 1.254278 0.300000
12.988530 -1.365090 1.334585 0.030000
11.193947 -3.739548 1.231073 0.350000
10.568456 5.038892 0.207062 0.050000
11.741570 2.540972 0.185838 0.010000
10.997491 1.176353 0.213823 0.080000
11.994366 0.050410 0.167239 0.020000
11.492061 -1.139438 0.166505 0.050000
10.873079 -2.241469 0.155793 0.040000
4.867386 1.659385 0.104617 0.030000
5.050484 1.237799 0.108527 0.020000
5.178318 0.830175 0.107346 0.070000
5.305698 0.447584 0.096256 0.010000
5.303544 0.037452 0.099726 0.030000
5.281227 -0.363028 0.093179 0.060000
5.219122 -0.774254 0.081488 0.040000
5.046833 -1.177606 0.074539 0.130000
29.042147 16.140194 2.876578 0.100000
8.511131 2.665753 1.097879 0.380000
30.383181 7.515068 2.653014 0.270000
11.039367 1.198455 1.224025 0.310000
18.290735 0.090540 1.673839 0.010000
12.952753 -1.320657 1.304656 0.090000
17.025183 -3.794054 1.566095 0.000000
11.298992 -3.737445 1.206354 0.250000
10.172089 4.846285 0.200311 0.050000
10.994109 3.706882 0.183221 0.060000
11.372720 2.478934 0.174645 0.010000
11.006884 1.211630 0.188979 0.080000
11.573690 0.082378 0.161260 0.020000
11.155603 -1.065850 0.160901 0.050000
10.555756 -2.122507 0.150407 0.040000
10.026292 -3.197800 0.135027 0.070000
4.822587 1.648525 0.104459 0.030000
5.000589 1.231842 0.108375 0.020000
5.123328 0.829122 0.107198 0.050000
5.270609 0.451912 0.096180 0.010000
5.253361 0.046492 0.099628 0.030000
5.255957 -0.348491 0.088167 0.040000
5.173651 -0.750120 0.081459 0.050000
5.021372 -1.153071 0.069563 0.140000
29.024677 16.280178 2.797052 0.100000
8.505610 2.695726 1.077976 0.340000
30.381256 7.625307 2.583418 0.200000
11.018765 1.233158 1.199100 0.610000
31.613054 0.247888 2.479208 0.110000
12.977143 -1.285092 1.279852 0.070000
13.446765 -2.831500 1.310329 0.000000
11.328560 -3.711801 1.186527 0.530000
9.810414 4.669327 0.198709 0.050000
10.631189 3.594911 0.181857 0.060000
11.013841 2.417050 0.173478 0.010000
10.981365 1.241220 0.169022 0.050000
11.238095 0.110974 0.155490 0.020000
10.879436 -1.006092 0.150402 0.050000
10.324100 -2.036891 0.140120 0.040000
9.778764 -3.067499 0.129865 0.060000
4.787702 1.642874 0.099347 0.030000
4.970608 1.231286 0.103295 0.020000
5.088335 0.828451 0.107104 0.040000
5.225522 0.456050 0.096078 0.010000
5.228187 0.056030 0.094598 0.030000
5.215677 -0.334260 0.088114 0.020000
5.138275 -0.730794 0.081438 0.040000
4.990898 -1.128650 0.069575 0.120000
29.002359 16.410011 2.732476 0.060000
8.505170 2.720777 1.063068 0.290000
30.354610 7.720052 2.518700 0.050000
11.023229 1.263304 1.184224 0.620000
31.531239 0.351596 2.409379 0.160000
13.006519 -1.249450 1.260061 0.110000
13.435983 -2.786588 1.280468 0.000000
11.267391 -3.647869 1.161604 0.320000
9.557582 4.554483 0.192622 0.050000
10.317986 3.498914 0.175683 0.050000
10.709773 2.366236 0.167495 0.010000
10.962585 0.135720 0.149863 0.020000
10.603146 -0.941372 0.149921 0.060000
10.092323 -1.946314 0.139852 0.040000
9.576515 -2.951334 0.124769 0.070000
4.752900 1.632206 0.099217 0.020000
4.925712 1.225425 0.103156 0.020000
5.073255 0.833182 0.102083 0.040000
5.185433 0.460283 0.095989 0.010000
5.188003 0.065262 0.094527 0.030000
5.170385 -0.320143 0.093049 0.030000
5.107897 -0.711373 0.081431 0.040000
4.970519 -1.109037 0.069594 0.110000
28.975235 16.529751 2.667849 0.040000
8.519523 2.756095 1.053236 0.210000
11.017707 1.293277 1.164321 0.590000
13.229168 0.180067 1.265956 0.080000
13.000915 -1.214459 1.235176 0.120000
13.390016 -2.732349 1.250549 0.010000
11.216315 -3.588745 1.136691 0.500000
9.270141 4.418972 0.186368 0.050000
10.054485 3.418872 0.169698 0.060000
10.415704 2.315614 0.161539 0.010000
10.656178 1.250049 0.153206 0.010000
10.697060 0.160639 0.149263 0.020000
10.407142 -0.890099 0.144600 0.060000
9.931025 -1.879373 0.134680 0.050000
9.394536 -2.849801 0.124672 0.060000
4.713003 1.626441 0.099091 0.020000
4.890814 1.219756 0.103043 0.020000
5.018265 0.832128 0.101935 0.030000
5.140346 0.464420 0.095887 0.010000
5.152818 0.074590 0.094470 0.030000
5.130105 -0.305912 0.092997 0.020000
5.067521 -0.692143 0.081397 0.050000
4.940045 -1.084617 0.069605 0.120000
8.514084 2.781050 1.038315 0.130000
13.118245 3.093347 1.306497 0.030000
13.288442 0.221283 1.246264 0.170000
12.975218 -1.174853 1.210256 0.140000
13.379208 -2.687475 1.230688 0.010000
11.250882 -3.563005 1.116876 0.530000
9.017392 4.299111 0.185263 0.050000
9.800874 3.344002 0.168757 0.050000
10.181322 2.281119 0.160799 0.020000
10.411237 1.245376 0.147549 0.010000
10.486537 0.186631 0.143810 0.020000
10.186142 -0.839304 0.139212 0.050000
9.784833 -1.817126 0.124529 0.040000
9.252851 -2.762481 0.119626 0.070000
4.673203 1.615677 0.098947 0.020000
4.865724 1.224276 0.102995 0.010000
4.998173 0.836744 0.101900 0.030000
5.125170 0.474149 0.090883 0.010000
5.102623 0.083612 0.099373 0.030000
5.089825 -0.291681 0.092944 0.020000
5.027145 -0.672912 0.081363 0.040000
4.899465 -1.055407 0.074608 0.110000
8.503741 2.800910 1.023361 0.120000
13.117531 3.133414 1.286643 0.040000
11.111330 1.370194 1.134851 0.190000
13.388492 -2.647216 1.210861 0.020000
11.255154 -3.522861 1.102037 0.440000
8.833780 4.225600 0.179510 0.060000
9.562164 3.274418 0.167875 0.050000
9.981756 2.257311 0.155190 0.020000
10.201180 1.246353 0.147004 0.010000
10.291108 0.207910 0.138379 0.020000
10.040306 -0.797089 0.138988 0.060000
9.623425 -1.745204 0.124375 0.040000
9.106153 -2.675275 0.119568 0.060000
4.638388 1.604990 0.103817 0.020000
4.840741 1.223816 0.097928 0.010000
4.948169 0.835768 0.106766 0.030000
5.099983 0.483669 0.090853 0.010000
5.072341 0.098034 0.099347 0.020000
5.089550 -0.276666 0.087999 0.020000
5.011861 -0.658203 0.081378 0.040000
4.879086 -1.035794 0.074628 0.100000
13.010583 6.876752 1.375280 0.000000
8.503097 2.835941 1.013490 0.180000
13.101710 3.178174 1.271768 0.040000
11.105783 1.400130 1.124947 0.260000
31.394053 0.754810 2.200518 0.440000
11.806359 -0.971872 1.117958 0.090000
8.674851 4.167527 0.183879 0.050000
9.442474 3.257123 0.167499 0.050000
9.836879 2.249535 0.154783 0.020000
10.100816 1.264434 0.146809 0.010000
10.165447 0.240491 0.143172 0.020000
9.949461 -0.753821 0.138912 0.050000
9.562574 -1.701362 0.124379 0.040000
9.039921 -2.611532 0.119632 0.060000
4.628198 1.614796 0.103826 0.020000
4.835537 1.233700 0.102951 0.010000
4.942978 0.845671 0.106789 0.030000
5.069854 0.488037 0.105791 0.010000
5.077231 0.103111 0.104379 0.020000
5.069336 -0.267088 0.097982 0.020000
5.036747 -0.652743 0.086463 0.050000
4.914175 -1.040123 0.074703 0.110000
28.930281 17.059259 2.594699 0.010000
8.482857 2.845482 1.033473 0.150000
13.125943 3.213516 1.306963 0.030000
11.090433 1.414746 1.149962 0.230000
13.241521 0.320383 1.251510 0.220000
11.826073 -0.961621 1.153048 0.100000
17.018515 -3.428659 1.442434 0.010000
9.908362 3.476084 0.169529 0.050000
10.314189 2.393683 0.161564 0.010000
10.574482 1.338518 0.148321 0.010000
10.740257 0.256520 0.139732 0.020000
10.410429 -0.800001 0.139943 0.060000
9.984604 -1.803297 0.125102 0.040000
9.468194 -2.778360 0.120130 0.060000
4.682612 1.645844 0.104084 0.020000
4.875229 1.249444 0.108113 0.010000
5.002776 0.856818 0.106987 0.030000
5.154756 0.494683 0.101037 0.010000
5.167227 0.104853 0.099620 0.020000
5.139611 -0.280744 0.098115 0.020000
5.092120 -0.671686 0.086538 0.040000
4.959645 -1.064256 0.074732 0.120000
28.926540 16.978788 2.699392 0.050000
8.483079 2.830392 1.058417 0.090000
11.110625 1.400002 1.184960 0.190000
31.378750 0.743818 2.390439 0.370000
11.831364 -0.981652 1.187988 0.070000
11.304701 -3.507130 1.162225 0.070000
9.525002 4.688883 0.193037 0.050000
10.360103 3.649748 0.176354 0.050000
10.787076 2.507741 0.168223 0.010000
10.913899 1.369969 0.164324 0.020000
11.175437 0.249817 0.150843 0.020000
10.831666 -0.861982 0.150813 0.050000
10.321418 -1.896918 0.140633 0.040000
9.821264 -2.936662 0.130463 0.060000
4.751942 1.682196 0.099400 0.020000
4.934835 1.270590 0.108347 0.010000
5.077474 0.873251 0.107243 0.030000
5.199747 0.495545 0.101158 0.010000
5.237419 0.096214 0.094771 0.020000
5.219896 -0.294191 0.093274 0.020000
5.147493 -0.690629 0.086612 0.050000
5.030303 -1.097909 0.074792 0.110000
28.932894 16.893509 2.804092 0.080000
8.488314 2.815416 1.078376 0.080000
11.115942 1.380009 1.209900 0.200000
11.926926 -1.014956 1.223114 0.070000
11.335370 -3.546678 1.197158 0.250000
10.811843 3.823412 0.183178 0.050000
11.304775 2.632678 0.170039 0.020000
11.113714 1.378724 0.184879 0.050000
11.645720 0.238803 0.157030 0.020000
11.263009 -0.928751 0.156690 0.040000
10.713727 -2.014444 0.146221 0.040000
4.806439 1.708226 0.104639 0.030000
5.009451 1.292041 0.103622 0.020000
5.127369 0.879208 0.107395 0.050000
5.289648 0.502286 0.096417 0.010000
5.277494 0.091962 0.099860 0.030000
5.295183 -0.307733 0.088421 0.040000
5.212973 -0.714361 0.081694 0.050000
5.070870 -1.127137 0.074789 0.110000
28.929838 16.778065 2.903656 0.100000
8.473825 2.785041 1.103225 0.090000
18.612370 4.687035 1.821767 0.010000
11.141147 1.365379 1.239912 0.290000
31.530800 0.610992 2.585344 0.070000
11.852066 -1.026483 1.247876 0.060000
11.315679 -3.567168 1.227031 0.420000
10.435331 5.201389 0.202318 0.050000
11.777743 2.741719 0.181679 0.010000
10.984426 1.336131 0.214383 0.070000
12.136094 0.223174 0.163252 0.020000
11.744535 -1.004561 0.162666 0.050000
10.522527 -3.258326 0.141098 0.060000
4.870948 1.734467 0.104905 0.030000
5.049335 1.297787 0.108747 0.020000
5.197165 0.890547 0.107619 0.060000
5.344637 0.503339 0.096565 0.010000
5.337675 0.083113 0.099985 0.030000
5.365553 -0.326388 0.088535 0.090000
5.288534 -0.742919 0.081785 0.050000
5.111342 -1.151366 0.074805 0.110000
28.936422 16.682844 2.993320 0.100000
8.479060 2.770066 1.123183 0.200000
30.354753 7.939195 2.764517 0.090000
11.076777 1.329066 1.259609 0.300000
31.507128 0.530231 2.664983 0.060000
11.807487 -1.052433 1.272663 0.040000
11.291084 -3.592754 1.256872 0.470000
10.836288 5.414051 0.219156 0.040000
11.874323 4.223775 0.202440 0.060000
12.400027 2.888644 0.188849 0.010000
10.924921 1.304857 0.249112 0.070000
12.686444 0.208675 0.174634 0.020000
12.276243 -1.089411 0.168738 0.050000
11.618994 -2.282191 0.157589 0.040000
11.152980 -3.536282 0.136710 0.090000
4.915653 1.750325 0.105081 0.030000
5.118938 1.319124 0.109008 0.020000
5.262056 0.896791 0.107812 0.070000
5.399710 0.499375 0.101694 0.020000
5.427767 0.079856 0.095208 0.040000
5.340614 -0.331922 0.103449 0.100000
5.359013 -0.766555 0.076881 0.040000
5.171906 -1.180211 0.074855 0.110000
28.957800 16.597889 3.088061 0.060000
8.489293 2.755186 1.143155 0.250000
30.306349 7.842921 2.854034 0.220000
11.022297 1.297926 1.284351 0.440000
31.533325 0.455389 2.754774 0.070000
13.030601 -1.219460 1.390236 0.140000
11.281569 -3.623070 1.291735 0.490000
12.937888 3.003929 0.200682 0.010000
10.955330 1.280344 0.274100 0.080000
12.943310 -1.191672 0.175099 0.050000
11.213944 -3.590234 0.166669 0.200000
4.980161 1.776566 0.105346 0.030000
5.168737 1.330080 0.109179 0.020000
5.321949 0.902939 0.107991 0.070000
5.474709 0.500830 0.096895 0.020000
5.487947 0.071007 0.095332 0.040000
5.476094 -0.354295 0.093720 0.070000
5.419481 -0.790401 0.076951 0.040000
5.207365 -1.204555 0.079857 0.120000
28.984629 16.487999 3.192724 0.030000
8.474818 2.724830 1.163004 0.200000
30.337698 7.758121 2.958802 0.090000
11.012699 1.272628 1.314232 0.540000
31.539680 0.370111 2.859474 0.120000
13.051054 -1.249238 1.435180 0.140000
17.323935 -3.754059 1.767025 0.000000
11.327428 -3.672328 1.326672 0.570000
12.281139 6.216827 0.235911 0.050000
13.165309 4.703511 0.227594 0.050000
11.030538 1.266690 0.299246 0.210000
14.132585 0.161325 0.188233 0.020000
13.089258 -1.243996 0.205286 0.030000
12.896503 -2.662810 0.164508 0.040000
11.108777 -3.587376 0.201405 0.200000
5.029947 1.787503 0.110517 0.040000
5.253338 1.351704 0.109480 0.030000
5.401743 0.914469 0.108242 0.090000
5.539683 0.502056 0.102069 0.030000
5.568220 0.057542 0.095491 0.040000
5.536466 -0.373142 0.093807 0.070000
5.510230 -0.828670 0.077045 0.040000
5.273119 -1.243302 0.079885 0.120000
8.495120 2.705105 1.192984 0.150000
30.364157 7.668246 3.058537 0.030000
11.023181 1.242695 1.349149 0.640000
31.541143 0.279756 2.959143 0.070000
13.031637 -1.284745 1.469997 0.180000
17.385120 -3.823101 1.821929 0.000000
11.312914 -3.702740 1.361521 0.550000
14.814940 3.434917 0.217184 0.010000
11.060933 1.242158 0.329235 0.330000
13.119831 -1.278545 0.240238 0.070000
5.119177 1.829237 0.105905 0.040000
5.313135 1.362851 0.109678 0.020000
5.481536 0.925999 0.108493 0.100000
5.619764 0.498589 0.102265 0.020000
5.613389 0.048388 0.100575 0.050000
5.631927 -0.396318 0.093970 0.070000
5.570685 -0.852535 0.082114 0.040000
5.333861 -1.282164 0.084899 0.130000
48.976231 28.284815 5.508784 0.030000
8.485644 2.674845 1.212847 0.100000
30.360909 7.562798 3.158138 0.020000
11.033676 1.212780 1.379065 0.360000
34.957375 0.193756 3.352745 0.140000
13.027313 -1.324963 1.504837 0.180000
17.557014 -3.930084 1.891981 0.000000
14.468282 7.428892 0.256126 0.030000
8.845326 2.804635 0.429261 0.020000
10.991621 1.200695 0.363900 0.610000
13.130588 -1.323493 0.280099 0.050000
14.541397 -3.166470 0.186930 0.030000
10.893225 -3.571795 0.280901 0.090000
5.178757 1.850345 0.116139 0.050000
5.412638 1.389761 0.110038 0.030000
5.561426 0.932530 0.108726 0.110000
5.709747 0.500313 0.102507 0.030000
5.703660 0.035114 0.100761 0.050000
5.687287 -0.415279 0.099044 0.060000
5.651340 -0.885996 0.082201 0.040000
5.419816 -1.330508 0.079944 0.130000
48.906334 27.992764 5.687518 0.020000
8.510861 2.660233 1.237859 0.300000
57.285053 14.550360 5.794420 0.080000
11.168820 1.200201 1.424372 0.370000
34.884331 0.076970 3.452121 0.250000
13.027975 -1.365104 1.544690 0.120000
39.285526 -9.656981 3.842429 0.010000
11.183344 -3.735466 1.426062 0.340000
14.988768 7.663755 0.298358 0.020000
8.692098 2.706573 0.458496 0.080000
19.175875 4.473693 0.212428 0.000000
10.892398 1.153639 0.403467 0.330000
13.254356 0.038916 0.340487 0.000000
10.793139 -3.573858 0.320633 0.090000
5.273068 1.887158 0.116522 0.040000
5.482420 1.401082 0.115262 0.030000
5.656216 0.944348 0.109018 0.100000
5.804825 0.497133 0.102743 0.030000
5.788918 0.021726 0.105934 0.050000
5.787857 -0.443340 0.094203 0.050000
5.712000 -0.919840 0.082233 0.040000
5.500855 -1.383966 0.079957 0.130000
52.143711 29.648022 6.257127 0.030000
8.471762 2.609384 1.262568 0.330000
57.288776 14.324567 6.018592 0.070000
11.164401 1.164982 1.459230 0.320000
36.561325 -0.051999 3.746022 0.210000
40.162651 -10.056189 4.098238 0.010000
11.204372 -3.795239 1.470895 0.220000
13.026736 6.430539 0.403654 0.020000
8.712481 2.681830 0.493458 1.000000
13.185194 2.857906 0.400787 0.010000
13.295107 -0.005458 0.380429 0.010000
13.307454 -1.430418 0.360164 0.080000
16.021025 -3.663440 0.248945 0.020000
10.728334 -3.590249 0.360403 0.110000
5.367380 1.923971 0.116905 0.050000
5.601822 1.433374 0.115694 0.030000
5.741187 0.945957 0.114245 0.130000
5.909902 0.494145 0.103006 0.030000
5.904184 0.008931 0.106188 0.050000
5.868308 -0.466821 0.099325 0.050000
5.792738 -0.958319 0.087301 0.030000
5.571692 -1.427635 0.084979 0.120000
47.032085 26.340807 5.886487 0.040000
8.477271 2.579393 1.287472 0.200000
57.288033 14.073756 6.222661 0.080000
37.438774 -0.200991 3.957761 0.160000
40.281437 -10.274521 4.252738 0.000000
11.195145 -3.840552 1.505703 0.160000
13.032864 6.365480 0.448428 0.040000
8.643579 2.620408 0.518050 0.190000
13.156137 2.802175 0.445504 0.000000
11.158053 1.113500 0.464011 0.050000
13.255859 -0.051383 0.425157 0.010000
13.428068 -3.028427 0.364539 0.030000
10.678732 -3.616332 0.395177 0.160000
5.491507 1.971375 0.112405 0.050000
5.696517 1.450191 0.116003 0.040000
5.865876 0.963348 0.114636 0.130000
6.019977 0.491253 0.103283 0.030000
5.999550 -0.009245 0.106369 0.050000
5.988956 -0.499517 0.099519 0.050000
5.878476 -0.996702 0.092382 0.040000
5.662824 -1.485900 0.085001 0.120000
46.339798 25.651932 6.017120 0.040000
8.472864 2.544192 1.317329 0.130000
57.292183 13.822893 6.466741 0.070000
11.175749 1.084929 1.528962 0.250000
35.141029 -0.329744 3.876284 0.260000
40.058510 -10.404326 4.391675 0.030000
11.382623 -3.977224 1.570685 0.150000
8.639173 2.585208 0.547908 0.140000
24.425951 5.543934 0.365113 0.000000
11.263517 1.085386 0.499183 0.300000
13.403818 -3.074065 0.409306 0.020000
10.669395 -3.656665 0.435003 0.110000
5.590805 2.008265 0.117802 0.060000
5.820919 1.482579 0.116448 0.040000
6.000659 0.975932 0.115034 0.120000
6.155047 0.488839 0.103626 0.030000
6.134908 -0.026656 0.106658 0.050000
6.089499 -0.527614 0.104677 0.050000
5.984415 -1.044682 0.092480 0.050000
5.753957 -1.544165 0.085022 0.120000
51.576511 28.364624 6.880882 0.020000
8.518052 2.529927 1.352395 0.370000
57.256863 13.546325 6.695623 0.070000
35.003437 -0.472826 3.990394 0.370000
40.590302 -5.553780 4.546095 0.030000
40.312897 -10.660270 4.601389 0.020000
11.318010 -4.003613 1.610419 0.530000
13.045257 6.225289 0.557941 0.010000
8.629958 2.539913 0.577716 0.330000
27.026178 6.068569 0.443851 0.000000
11.109496 1.027280 0.538565 0.130000
14.993418 -0.178385 0.499221 0.000000
13.309976 -1.580892 0.494613 0.030000
9.802802 -3.328405 0.488962 0.260000
5.714919 2.055650 0.118302 0.070000
5.960318 1.515254 0.116934 0.040000
6.155356 0.993916 0.110505 0.120000
6.280107 0.486215 0.108943 0.030000
6.265267 -0.044163 0.106933 0.050000
6.235347 -0.569810 0.099901 0.040000
6.070248 -1.088064 0.097543 0.040000
5.855267 -1.612255 0.090033 0.130000
46.324955 25.065060 6.419904 0.040000
8.469063 2.473905 1.372059 0.420000
57.256474 13.275481 6.909618 0.080000
11.097319 0.993172 1.593417 0.120000
35.531101 -0.633446 4.181176 0.360000
12.620922 -1.548611 1.727947 0.010000
39.909386 -10.758455 4.719973 0.020000
11.349228 -4.073192 1.655242 1.509000
13.071367 6.160595 0.607769 0.030000
8.675159 2.525666 0.607781 0.500000
13.163836 2.641781 0.584929 0.000000
11.110267 0.982158 0.573400 0.110000
15.104417 -0.236453 0.549295 0.010000
13.430961 -3.198915 0.503914 0.010000
9.813667 -3.378334 0.523805 0.260000
5.839116 2.098018 0.123784 0.070000
6.139435 1.563712 0.112581 0.040000
6.315039 1.011977 0.110989 0.100000
6.460182 0.484682 0.104407 0.030000
6.445821 -0.070691 0.102305 0.050000
6.386181 -0.611929 0.100138 0.040000
6.221478 -1.150160 0.092707 0.050000
5.986788 -1.689732 0.085089 0.130000
46.414047 24.820898 6.644231 0.030000
8.489460 2.449181 1.402020 0.270000
57.245968 13.009408 7.133604 0.080000
11.112883 0.958317 1.633329 0.190000
35.518517 -0.779226 4.320603 0.230000
12.546515 -1.585171 1.762617 0.040000
39.349720 -10.794528 4.813378 0.020000
13.062758 6.080214 0.662448 0.020000
8.621254 2.464531 0.632414 0.160000
30.007612 6.514995 0.658295 0.030000
11.150826 0.947782 0.613378 0.110000
13.336843 -1.690727 0.584276 0.040000
9.814547 -3.428436 0.553622 0.190000
6.027752 2.171662 0.119550 0.080000
6.288928 1.591580 0.113075 0.050000
6.504633 1.035631 0.106572 0.120000
6.615249 0.482651 0.104805 0.030000
6.606283 -0.092604 0.097643 0.050000
6.572118 -0.658358 0.095450 0.040000
6.327499 -1.203157 0.097787 0.060000
6.093193 -1.762725 0.090095 0.200000
46.310509 24.458208 6.817615 0.030000
8.480163 2.408905 1.426847 0.170000
57.255981 12.713649 7.377532 0.080000
11.113640 0.913177 1.673163 0.190000
36.401752 -0.973225 4.562190 0.190000
12.597621 -1.649387 1.812512 0.100000
38.493603 -10.756229 4.896287 0.020000
13.059149 5.999929 0.717141 0.020000
8.641747 2.434809 0.662357 0.150000
13.235504 2.542806 0.674749 0.010000
11.166498 0.907947 0.648271 0.090000
13.265061 -0.302076 0.649251 0.020000
12.630407 -1.629428 0.632660 0.040000
13.433012 -3.319246 0.598473 0.010000
6.186573 2.234715 0.120199 0.090000
6.483029 1.640306 0.113763 0.050000
6.634500 1.043101 0.111938 0.120000
6.795420 0.476119 0.100251 0.040000
6.766828 -0.119534 0.097962 0.060000
6.702956 -0.700860 0.095634 0.050000
6.504013 -1.279772 0.092963 0.050000
6.103726 -1.792584 0.105012 0.180000
42.031631 21.807297 6.386587 0.030000
8.470866 2.368628 1.451673 0.500000
57.230816 12.432365 7.581423 0.070000
11.159307 0.873917 1.708137 0.200000
35.784298 -1.120296 4.620032 0.220000
12.578478 -1.699909 1.852275 0.040000
38.321049 -10.905073 5.035285 0.030000
9.783671 -3.527840 1.588182 0.110000
13.060551 5.919758 0.766847 0.050000
8.622630 2.384324 0.692120 0.400000
11.202262 0.863496 0.683200 0.090000
14.837224 -0.407168 0.702965 0.010000
12.666447 -1.688895 0.672533 0.050000
15.446098 -3.991012 0.656231 0.010000
10.623590 -3.903301 0.628969 0.080000
6.360391 2.298055 0.120888 0.090000
6.652327 1.678555 0.114347 0.060000
6.844186 1.062138 0.107556 0.130000
6.970566 0.469454 0.105683 0.040000
6.932359 -0.146386 0.103294 0.070000
6.879073 -0.757497 0.095883 0.040000
6.645328 -1.347077 0.093081 0.050000
6.134448 -1.832057 0.119945 0.100000
42.130501 21.578417 6.585996 0.080000
8.466568 2.328447 1.476513 0.530000
57.245605 12.151793 7.800421 0.070000
11.189963 0.834350 1.748070 0.150000
35.772095 -1.286072 4.759385 0.380000
38.279392 -11.101475 5.189447 0.030000
9.759351 -3.568441 1.622968 0.100000
13.061940 5.839569 0.821553 0.030000
8.643123 2.354601 0.722063 0.270000
13.157858 2.405946 0.769039 0.010000
11.247916 0.824216 0.723173 0.090000
12.746469 -0.392335 0.732563 0.030000
11.659039 -1.578316 0.710315 0.170000
13.440241 -3.449497 0.698009 0.010000
10.619540 -3.958535 0.668753 0.120000
6.549109 2.366681 0.121636 0.120000
6.856522 1.722473 0.115043 0.060000
6.999048 1.070087 0.112990 0.120000
7.160735 0.463113 0.101156 0.040000
7.102998 -0.178124 0.103621 0.050000
7.075186 -0.813751 0.096186 0.050000
6.816925 -1.428805 0.093225 0.050000
6.538776 -2.049224 0.085193 0.130000
49.028236 24.981609 7.846665 0.030000
8.472159 2.293437 1.506397 0.290000
57.200901 11.839965 8.049148 0.090000
11.250684 0.790322 1.798066 0.140000
35.679813 -1.448382 4.898542 0.140000
11.657278 -1.642449 1.825084 0.030000
38.132393 -11.279853 5.333402 0.030000
9.699762 -3.594697 1.652715 0.100000
13.053440 5.754208 0.871214 0.040000
8.628922 2.309229 0.746857 0.150000
15.026467 2.746518 0.850183 0.030000
12.592257 -0.440444 0.771982 0.050000
11.614722 -1.619300 0.745048 0.230000
15.393395 -4.127468 0.770588 0.040000
6.737924 2.430308 0.122365 0.110000
7.050815 1.761201 0.115694 0.060000
7.223636 1.094411 0.108667 0.110000
7.355973 0.451832 0.106624 0.040000
7.293729 -0.214478 0.103984 0.060000
7.226199 -0.865886 0.101386 0.040000
6.968321 -1.500937 0.098353 0.060000
6.705853 -2.156043 0.085232 0.130000
43.332703 21.659456 7.134441 0.030000
8.467861 2.253257 1.531237 0.190000
57.150932 11.548204 8.252935 0.160000
11.628151 -1.693145 1.859820 0.050000
38.121166 -11.500731 5.502553 0.020000
9.685632 -3.645105 1.687491 0.090000
13.069635 5.684304 0.925997 0.020000
8.629515 2.274124 0.776729 0.200000
14.992876 2.665677 0.899796 0.040000
12.673274 -0.499068 0.816976 0.170000
11.560408 -1.660476 0.779753 0.310000
15.374706 -4.203022 0.820258 0.080000
6.956446 2.509507 0.123230 0.120000
7.270008 1.805407 0.116431 0.060000
7.433392 1.108413 0.114266 0.110000
7.556223 0.440665 0.107105 0.040000
7.489350 -0.245755 0.109379 0.060000
7.437405 -0.926852 0.101711 0.030000
7.190196 -1.596705 0.098576 0.050000
6.868013 -2.267975 0.090239 0.130000
41.887791 20.601707 7.096737 0.030000
8.463564 2.213075 1.556077 0.520000
41.266384 8.000660 6.208263 0.060000
51.654308 -2.651457 7.335793 0.090000
11.603913 -1.738763 1.899587 0.040000
37.973980 -11.669110 5.646545 0.010000
9.726849 -3.714493 1.732341 0.290000
13.080844 5.614323 0.975767 0.020000
8.660006 2.244593 0.806699 0.450000
11.591352 -1.715040 0.819631 0.280000
13.438696 -3.650094 0.842261 0.040000
7.165052 2.583497 0.129050 0.110000
7.479189 1.849402 0.122141 0.060000
7.653160 1.122624 0.114893 0.110000
7.766458 0.429671 0.112613 0.030000
7.725182 -0.286227 0.104844 0.040000
7.613617 -0.988488 0.101942 0.030000
7.361888 -1.683432 0.098701 0.050000
7.055470 -2.394408 0.090259 0.100000
42.075478 20.434521 7.301608 0.040000
8.464156 2.177971 1.585948 0.580000
41.204922 7.793878 6.362336 0.060000
49.591625 -2.780690 7.249928 0.080000
39.919537 -12.523596 6.083451 0.020000
9.687449 -3.750364 1.762105 0.280000
8.660707 2.204508 0.831552 0.120000
12.719959 -0.598503 0.901729 0.090000
11.702568 -1.783069 0.859669 0.330000
13.444822 -3.715153 0.887035 0.070000
9.704773 -3.736491 0.797192 0.030000
7.408474 2.668174 0.130000 0.130000
7.718378 1.893991 0.122931 0.050000
7.858012 1.131530 0.120461 0.100000
7.996798 0.414080 0.113156 0.040000
7.925993 -0.327407 0.110215 0.050000
7.749620 -1.040929 0.112102 0.040000
7.594049 -1.794005 0.098896 0.040000
7.202538 -2.501628 0.095244 0.090000
41.208813 19.727724 7.316718 0.060000
40.784924 7.515437 6.455206 0.080000
49.500378 -3.003155 7.433865 0.120000
40.079350 -12.801318 6.282838 0.020000
9.653048 -3.786139 1.791883 0.260000
13.137968 5.490028 1.075455 0.040000
15.060991 2.481363 1.059290 0.000000
31.269526 1.865041 1.544313 0.010000
12.675835 -0.649485 0.936424 0.080000
11.718419 -1.832920 0.899526 0.370000
13.445855 -3.775309 0.931815 0.030000
9.665181 -3.762364 0.826993 0.130000
7.686505 2.773518 0.131117 0.120000
7.922656 1.932892 0.128609 0.050000
8.117580 1.156506 0.121231 0.120000
8.242026 0.403756 0.118758 0.030000
8.181808 -0.367515 0.110733 0.040000
7.961005 -1.111912 0.117390 0.030000
7.760633 -1.875848 0.104027 0.040000
7.410182 -2.637676 0.095280 0.090000
41.277657 19.503361 7.491066 0.080000
41.321552 7.404888 6.676198 0.050000
49.449364 -3.234778 7.597872 0.100000
8.487829 3.126103 0.904527 0.030000
31.281919 1.724851 1.653825 0.040000
11.709274 -1.883251 0.939315 0.290000
9.600485 -3.783735 0.861745 0.260000
7.939912 2.858367 0.137094 0.120000
8.226449 1.998721 0.129646 0.050000
8.372328 1.171369 0.126952 0.090000
8.552256 0.394696 0.119534 0.030000
8.447812 -0.417429 0.111242 0.040000
8.212491 -1.187109 0.117767 0.030000
7.932409 -1.967592 0.109134 0.040000
7.587531 -2.759319 0.100291 0.080000
41.073635 19.173992 7.599310 0.090000
41.419193 7.246161 6.830864 0.080000
42.009068 -2.898821 6.654690 0.040000
8.557737 3.127332 0.934715 0.100000
13.309111 2.037641 1.078068 0.000000
31.304035 1.599867 1.758419 0.020000
9.586176 -3.824126 0.891558 0.240000
8.223038 2.958807 0.138206 0.110000
8.480526 2.048578 0.135495 0.050000
8.681887 1.197302 0.127856 0.090000
8.827588 0.379966 0.120198 0.030000
8.748810 -0.466673 0.111845 0.030000
8.469168 -1.272208 0.118121 0.030000
8.189661 -2.082686 0.109378 0.030000
7.780082 -2.890654 0.100305 0.070000
41.251087 19.021685 7.784209 0.090000
42.082100 -3.078022 6.809216 0.090000
8.494026 3.056008 0.959284 0.170000
16.178072 4.437222 1.309479 0.100000
15.158743 2.317656 1.208938 0.000000
31.311035 1.479558 1.872992 0.040000
11.972060 -0.733327 1.029277 0.040000
13.464128 -3.965506 1.071157 0.020000
8.491345 3.048944 0.144242 0.130000
8.789318 2.114503 0.136546 0.050000
8.966546 1.217757 0.128675 0.080000
9.147911 0.366099 0.120982 0.030000
9.019800 -0.516511 0.117367 0.030000
8.735747 -1.352117 0.118519 0.030000
8.416809 -2.193374 0.114560 0.030000
7.932232 -3.002797 0.110286 0.070000
41.234833 18.805805 7.928365 0.090000
11.144410 1.597347 2.095791 0.000000
40.262974 1.828299 6.742705 0.030000
42.135078 -3.252552 6.948707 0.080000
11.418288 -3.308512 2.143270 0.000000
8.519448 3.031417 0.979259 0.520000
13.255938 1.931329 1.152535 0.000000
31.348118 1.359954 1.952645 0.030000
11.892694 -0.769927 1.048934 0.050000
8.819080 3.170242 0.145548 0.130000
9.073197 2.174932 0.142512 0.040000
9.301004 1.249168 0.129665 0.090000
9.503132 0.357900 0.121879 0.030000
9.320798 -0.565755 0.117970 0.030000
9.022501 -1.441659 0.123935 0.030000
8.654052 -2.308869 0.119750 0.030000
8.145149 -3.153764 0.115280 0.080000
40.995640 18.485783 8.031552 0.100000
11.164986 1.562607 2.130716 0.010000
40.155758 1.665795 6.856822 0.020000
42.703575 -3.462563 7.184412 0.060000
11.348619 -3.329942 2.168009 0.010000
8.475363 2.980490 0.998955 0.700000
16.389004 4.375866 1.414803 0.160000
15.604166 2.285814 1.309984 0.010000
31.359894 1.254831 2.042285 0.040000
11.853293 -0.805798 1.078698 0.080000
13.369065 -2.407308 1.146702 0.030000
13.481133 -4.080475 1.145775 0.010000
9.466604 2.262501 0.138864 0.040000
9.605647 1.269988 0.135537 0.090000
9.768466 0.342979 0.122516 0.030000
9.586802 -0.615669 0.118479 0.030000
9.289176 -1.526567 0.124316 0.030000
8.906400 -2.429057 0.119962 0.030000
8.327497 -3.275312 0.120305 0.070000
41.776653 18.664818 8.294259 0.040000
11.345000 1.555852 2.186162 0.100000
39.763397 1.518090 6.900249 0.010000
42.010033 -3.545878 7.187293 0.120000
11.299042 -3.355988 2.192783 0.020000
44.810566 -23.305649 8.461163 0.070000
8.485883 2.950613 1.018871 0.560000
16.360247 4.305156 1.454465 0.080000
31.376667 1.149804 2.131940 0.050000
11.823795 -0.836478 1.108507 0.080000
9.434915 3.392038 0.157980 0.110000
9.740568 2.317721 0.149785 0.040000
9.930107 1.301208 0.136500 0.070000
10.018776 0.327734 0.133113 0.030000
9.852794 -0.665602 0.123987 0.030000
9.540745 -1.606781 0.129674 0.030000
9.204123 -2.568380 0.120221 0.030000
8.626287 -3.469605 0.115362 0.060000
41.665916 18.427288 8.393088 0.090000
11.205971 1.503161 2.190603 0.180000
41.309170 1.441342 7.269003 0.010000
42.959023 -3.783754 7.463888 0.070000
44.114166 -9.563771 7.750420 0.010000
11.274556 -3.386554 2.217605 0.040000
44.784084 -23.511778 8.620329 0.070000
8.466505 2.915163 1.038689 0.440000
13.129544 3.288653 1.292252 0.080000
11.254195 1.482950 1.135643 0.000000
13.234889 0.410400 1.216827 0.010000
11.814306 -0.866757 1.133370 0.090000
13.375524 -2.492437 1.211403 0.010000
13.497863 -4.180429 1.215447 0.010000
13.556282 -6.189794 1.243131 0.020000
9.723136 3.487575 0.159088 0.100000
10.184951 1.311072 0.142202 0.080000
10.294204 0.308005 0.133759 0.030000
10.063700 -0.711590 0.129367 0.030000
9.772235 -1.682361 0.129997 0.030000
9.446378 -2.683761 0.120424 0.030000
8.834124 -3.615651 0.115362 0.060000
41.108990 18.001566 8.385052 0.070000
50.434204 14.525346 9.541483 0.010000
11.141724 1.461887 2.200282 0.090000
39.937557 1.270538 7.129786 0.020000
42.916153 -3.909982 7.568308 0.230000
44.046394 -9.695477 7.854755 0.020000
11.330591 -3.445638 2.257532 0.020000
44.696541 -23.658958 8.749555 0.030000
8.481833 2.895379 1.058656 0.630000
11.244611 1.457670 1.160524 0.030000
13.245384 0.380486 1.246743 0.030000
11.799819 -0.897131 1.158220 0.130000
13.381210 -2.532446 1.241269 0.030000
13.557244 -6.244914 1.277929 0.040000
10.021151 3.593283 0.165259 0.110000
10.278730 2.418027 0.156562 0.040000
10.464598 1.331413 0.148008 0.080000
10.574522 0.293353 0.139436 0.030000
10.309586 -0.756925 0.139840 0.030000
9.973608 -1.753554 0.140259 0.030000
9.628234 -2.780332 0.130540 0.030000
9.046946 -3.761619 0.120375 0.070000
41.245144 17.923664 8.520119 0.080000
50.396954 14.364145 9.665788 0.120000
39.719563 1.156141 7.183793 0.040000
42.868225 -4.031252 7.657733 0.260000
43.958572 -9.822512 7.944054 0.020000
11.376558 -3.499877 2.287451 0.010000
8.467467 2.860043 1.073487 0.770000
11.195348 1.416664 1.175243 1.000000
11.825419 -0.931739 1.183158 0.150000
13.544792 -4.289788 1.280164 0.020000
10.764338 1.347138 0.153849 0.080000
10.894928 0.274467 0.145202 0.020000
10.555580 -0.807241 0.145295 0.040000
10.185089 -1.829536 0.145528 0.030000
9.885677 -2.905423 0.130747 0.030000
9.285063 -3.922087 0.120400 0.060000
41.882233 18.050062 8.747254 0.080000
50.434700 14.204400 9.785294 0.090000
11.227413 1.418301 2.260344 0.030000
39.391819 1.029695 7.222467 0.010000
42.664997 -4.135419 7.726816 0.230000
43.930771 -9.953488 8.058496 0.010000
11.367057 -3.530174 2.317314 0.020000
11.318018 -5.161805 2.421122 0.010000
8.482700 2.845258 1.093472 0.650000
11.160877 1.385925 1.195039 1.000000
11.815944 -0.961999 1.203021 0.130000
10.667075 3.810655 0.177753 0.100000
10.936281 2.550606 0.168772 0.040000
10.969273 1.351026 0.164398 0.110000
11.170342 0.254720 0.150848 0.030000
10.826679 -0.862059 0.145799 0.030000
10.416661 -1.910133 0.150833 0.020000
10.082640 -3.006687 0.135885 0.030000
9.487874 -4.068265 0.130386 0.060000
41.508438 17.717718 8.780044 0.070000
11.262808 1.393864 2.290346 0.140000
38.789272 0.898187 7.205406 0.050000
42.501942 -4.248837 7.800970 0.120000
43.878021 -10.084870 8.152871 0.010000
11.337489 -3.555819 2.337142 0.040000
11.273357 -5.182738 2.440928 0.000000
11.136500 1.350379 1.214843 0.100000
31.389444 0.693648 2.490281 0.010000
11.385265 -3.540721 1.197311 0.030000
34.461239 -18.207127 2.773042 0.010000
10.935575 3.890793 0.183752 0.080000
11.260249 2.606803 0.174826 0.030000
11.139311 1.349246 0.174836 0.320000
11.455755 0.235165 0.156520 0.030000
11.072661 -0.912393 0.156254 0.030000
10.668422 -2.000346 0.156155 0.020000
10.294873 -3.122680 0.146008 0.030000
9.690711 -4.214407 0.130372 0.050000
44.475002 18.872206 9.482086 0.050000
11.208463 1.357780 2.300070 0.260000
38.826439 0.773565 7.290040 0.050000
42.299149 -4.372926 7.849980 0.200000
43.770340 -10.217231 8.227098 0.010000
11.338203 -3.595885 2.356995 0.040000
8.483676 2.790158 1.123270 0.200000
30.345379 7.914213 2.709399 0.020000
11.077143 1.314181 1.229554 0.220000
31.496172 0.595436 2.555195 0.000000
11.887155 -1.030812 1.247952 0.050000
11.305324 -3.547327 1.217078 0.050000
34.464069 -18.367432 2.862454 0.010000
11.524516 2.646852 0.180665 0.030000
11.020130 1.301863 0.199349 0.450000
11.701271 0.209844 0.162067 0.020000
11.328859 -0.972497 0.156700 0.030000
10.854907 -2.076806 0.161358 0.020000
10.481947 -3.229116 0.146100 0.020000
9.888631 -4.365661 0.135327 0.050000
41.574131 17.398314 8.944029 0.070000
11.049585 1.299782 2.284440 0.380000
38.653980 0.635128 7.319076 0.030000
42.427040 -4.535854 7.944709 0.180000
11.293665 -3.621780 2.366782 0.050000
8.464433 2.749763 1.128070 0.280000
30.377485 7.799679 2.744058 0.080000
11.057887 1.273768 1.239354 0.340000
31.553274 0.481381 2.589921 0.000000
12.945102 -1.185871 1.330137 0.070000
17.147659 -3.666832 1.606888 0.000000
11.306172 -3.592336 1.221913 0.160000
20.195490 -10.350724 1.885000 0.000000
11.324039 3.973211 0.195072 0.090000
11.634687 2.638961 0.180923 0.030000
10.961003 1.255723 0.199023 0.460000
11.752041 0.170828 0.157054 0.030000
11.304535 -1.007969 0.156504 0.030000
10.870684 -2.116493 0.156251 0.020000
10.467647 -3.264359 0.135932 0.020000
9.752998 -4.333235 0.130093 0.050000
44.943745 18.670872 9.557562 0.030000
11.045226 1.269785 2.259316 0.370000
39.935577 0.544143 7.462084 0.050000
42.509666 -4.658945 7.849466 0.120000
11.258954 -3.632318 2.331652 0.040000
8.439981 2.724382 1.102911 0.280000
30.324194 7.724012 2.643636 0.240000
11.078249 1.259266 1.209353 0.380000
31.494421 0.435631 2.484596 0.010000
12.975571 -1.205163 1.295145 0.060000
17.032551 -3.653815 1.546635 0.000000
11.286364 -3.597589 1.186841 0.160000
10.768659 3.727549 0.187709 0.080000
10.998160 2.451737 0.178566 0.030000
10.936182 1.250357 0.168938 0.270000
11.152153 0.159337 0.155446 0.020000
10.768307 -0.948210 0.150327 0.020000
10.368299 -1.996075 0.150387 0.020000
9.994011 -3.078379 0.130387 0.020000
9.343489 -4.101018 0.124887 0.050000
43.824234 18.170866 9.137776 0.030000
11.045318 1.269915 2.224317 0.350000
40.345806 0.547294 7.383166 0.070000
42.204315 -4.614015 7.638834 0.220000
11.274043 -3.631901 2.296693 0.040000
8.459839 2.734838 1.083002 0.280000
30.299389 7.728941 2.533589 0.060000
11.013448 1.253152 1.174160 0.730000
13.239126 0.180203 1.280983 0.000000
12.995576 -1.199632 1.255217 0.100000
13.420328 -2.751863 1.275556 0.010000
11.235916 -3.568384 1.141818 0.200000
13.653830 -6.593272 1.316886 0.010000
10.232905 3.502286 0.175473 0.090000
10.406075 2.295407 0.166439 0.030000
10.617170 0.154108 0.149030 0.030000
10.302148 -0.892128 0.149318 0.030000
9.956185 -1.888930 0.144710 0.020000
9.535264 -2.887131 0.129900 0.020000
8.928584 -3.848920 0.124741 0.060000
43.640392 18.138109 8.927173 0.070000
11.055202 1.280216 2.194381 0.360000
40.400177 0.598821 7.253498 0.060000
42.278980 -4.577083 7.504165 0.220000
11.289036 -3.626484 2.261752 0.050000
11.310915 -5.306802 2.375564 0.000000
8.464725 2.745043 1.053052 0.230000
13.114369 3.033226 1.316263 0.030000
11.013348 1.263280 1.139197 0.650000
13.278936 0.196114 1.241145 0.000000
13.005583 -1.194293 1.215263 0.100000
13.395067 -2.732179 1.230563 0.000000
11.225626 -3.548450 1.106864 0.220000
13.628102 -6.548573 1.266985 0.020000
9.806065 3.334100 0.168734 0.090000
10.012792 2.202877 0.160068 0.030000
10.147915 1.155317 0.146527 0.080000
10.156982 0.160314 0.142852 0.030000
9.926094 -0.839284 0.138533 0.030000
9.584160 -1.786018 0.139121 0.020000
9.192466 -2.743652 0.124539 0.020000
8.609823 -3.654972 0.119630 0.060000
41.349648 17.196289 8.312686 0.050000
11.064991 1.295516 2.164463 0.430000
39.744884 0.642177 7.006947 0.050000
42.157890 -4.498802 7.344138 0.230000
11.303933 -3.616069 2.226829 0.050000
11.346000 -5.306002 2.340658 0.010000
8.484403 2.765515 1.028179 0.310000
13.099189 3.048084 1.276278 0.030000
11.008140 1.278293 1.109239 0.590000
13.248772 0.210704 1.196120 0.000000
13.005303 -1.174148 1.175337 0.090000
11.215336 -3.528515 1.071911 0.290000
13.617660 -6.518585 1.217068 0.020000
9.369417 3.155724 0.161931 0.090000
9.649501 2.110922 0.153778 0.030000
9.838465 1.124403 0.140604 0.070000
9.856873 0.164604 0.132084 0.030000
9.570024 -0.786076 0.132801 0.030000
9.302610 -1.706360 0.128682 0.030000
8.905042 -2.619117 0.119251 0.020000
8.270863 -3.451428 0.119502 0.050000
41.309006 17.251089 8.157782 0.090000
11.054893 1.305453 2.129473 0.410000
39.704205 0.696921 6.867042 0.030000
42.998619 -4.527669 7.336225 0.100000
11.348907 -3.610096 2.196968 0.050000
8.494165 2.780778 1.008261 0.550000
11.037829 1.298975 1.079393 0.350000
16.417496 0.290983 1.319691 0.000000
13.369431 -2.687350 1.145662 0.010000
11.230137 -3.513100 1.037007 0.260000
11.236117 -5.133364 1.056000 0.010000
9.002073 3.013664 0.160444 0.090000
9.291018 2.029060 0.147538 0.030000
9.434320 1.076673 0.134372 0.080000
9.531659 0.173396 0.126268 0.030000
9.279134 -0.741620 0.127207 0.030000
8.960662 -1.607891 0.128156 0.020000
8.562122 -2.470676 0.123908 0.030000
8.012652 -3.286344 0.119442 0.050000
41.570602 17.446537 8.049191 0.070000
11.149423 1.332305 2.119819 0.460000
43.006199 0.828716 7.276155 0.030000
43.022640 -4.456683 7.196550 0.060000
11.348615 -3.589970 2.162042 0.060000
8.503846 2.801059 0.983362 0.590000
13.138433 3.099138 1.196570 0.010000
31.482153 0.627355 1.960271 0.000000
13.424321 -2.676169 1.110846 0.010000
11.244938 -3.497686 1.002102 0.210000
11.205365 -5.088798 1.016085 0.010000
8.709167 2.903071 0.149268 0.100000
8.952519 1.947563 0.146352 0.030000
9.099862 1.045262 0.133382 0.080000
9.176534 0.176595 0.125353 0.030000
8.978245 -0.697357 0.121586 0.030000
8.669087 -1.528461 0.127690 0.020000
8.269589 -2.341256 0.123626 0.030000
7.800118 -3.155372 0.114374 0.060000
41.113327 17.333639 7.807574 0.110000
11.223982 1.358811 2.100112 0.410000
43.095074 0.905890 7.151673 0.030000
42.134895 -4.282627 6.914877 0.050000
11.373401 -3.574383 2.132164 0.030000
8.503624 2.816149 0.958417 0.730000
13.172942 3.129933 1.161774 0.030000
11.147103 1.346296 1.019854 0.100000
31.451366 0.682142 1.860394 0.030000
11.842010 -0.990808 1.012980 0.040000
13.383762 -2.641793 1.070868 0.020000
13.595825 -6.403469 1.077438 0.010000
8.445954 2.808032 0.143228 0.100000
8.638837 1.876561 0.140269 0.040000
8.800397 1.014521 0.132486 0.080000
8.866304 0.185655 0.124577 0.030000
8.667332 -0.653322 0.125939 0.030000
8.362324 -1.439320 0.127221 0.020000
8.042633 -2.240566 0.118408 0.030000
7.612771 -3.033921 0.109336 0.070000
42.207081 17.924526 7.857626 0.030000
50.322956 13.926245 8.683957 0.110000
39.940979 0.917814 6.508478 0.040000
43.706390 -4.357856 7.003700 0.110000
44.261410 -10.118886 7.158735 0.000000
11.393106 -3.553873 2.097292 0.020000
8.503402 2.831239 0.933472 0.560000
17.528942 4.403050 1.322878 0.040000
11.131801 1.366117 0.989887 0.090000
31.435385 0.747214 1.760593 0.010000
11.836611 -0.965797 0.983059 0.060000
13.590191 -6.363387 1.027572 0.020000
8.133216 2.687021 0.141962 0.100000
8.360039 1.811210 0.139298 0.030000
8.471034 0.978207 0.131491 0.080000
8.596067 0.195482 0.123908 0.030000
8.361347 -0.604155 0.120323 0.030000
8.115946 -1.369008 0.121839 0.030000
7.840863 -2.149396 0.113220 0.030000
7.415233 -2.902662 0.104308 0.070000
8.366787 2.805777 1.708029 0.000000
50.251877 14.010650 8.479083 0.110000
40.684193 1.022177 6.480805 0.060000
48.252918 -4.727736 7.529199 0.130000
44.340088 -10.026776 6.999281 0.020000
11.307116 -3.495308 2.042284 0.030000
8.517889 2.861614 0.908623 0.480000
17.259859 4.363165 1.247027 0.060000
11.116512 1.385956 0.954921 0.070000
13.252159 0.321485 1.006539 0.000000
11.826333 -0.945844 0.943105 0.090000
13.387929 -2.586391 0.986084 0.010000
13.569366 -6.313593 0.977702 0.040000
7.850282 2.576583 0.140813 0.100000
8.101154 1.751260 0.133399 0.040000
8.201468 0.953040 0.130694 0.080000
8.300944 0.199849 0.118154 0.030000
8.120626 -0.568759 0.119826 0.030000
7.894646 -1.303235 0.121506 0.030000
7.628903 -2.048419 0.108042 0.030000
7.248074 -2.790826 0.099288 0.070000
8.376371 2.831056 1.683148 0.030000
11.078473 1.401490 1.974890 0.160000
40.647675 1.122045 6.331080 0.030000
40.597744 -3.829511 6.237542 0.130000
44.418468 -9.919687 6.844882 0.020000
11.336804 -3.474626 2.012438 0.030000
47.976627 -25.618828 8.025824 0.020000
8.527473 2.886894 0.883741 0.700000
17.045261 4.349291 1.181414 0.050000
11.076227 1.405316 0.919887 0.060000
31.493181 0.894172 1.536288 0.000000
11.835944 -0.920527 0.908224 0.080000
13.412563 -2.560750 0.941243 0.040000
11.318852 -3.420743 0.862580 0.060000
15.746944 -7.472112 0.984080 0.110000
7.621775 2.497211 0.134921 0.100000
7.842161 1.696290 0.132519 0.040000
7.946815 0.933178 0.124955 0.080000
8.040706 0.209866 0.117512 0.030000
7.899914 -0.532961 0.114383 0.030000
7.728540 -1.246388 0.116283 0.030000
7.437214 -1.962075 0.107862 0.030000
7.070820 -2.674181 0.094259 0.070000
8.420553 2.876984 1.663434 1.000000
45.540081 12.909250 7.362678 0.010000
11.152758 1.443012 1.950238 0.280000
40.520618 -3.695341 6.067838 0.220000
44.496475 -9.792584 6.685557 0.010000
11.331143 -3.434580 1.972572 0.050000
44.855614 -23.670689 7.324911 0.060000
8.522169 2.906905 0.853802 0.780000
16.805777 4.329958 1.110717 0.060000
11.095836 1.430824 0.885033 0.070000
13.256230 0.381886 0.921773 0.000000
11.845459 -0.890211 0.873361 0.080000
11.368647 -3.404659 0.827769 0.120000
7.368547 2.402344 0.133907 0.110000
7.613080 1.646912 0.126737 0.040000
7.732156 0.914082 0.119324 0.090000
7.810461 0.220459 0.116950 0.030000
7.714195 -0.496493 0.109033 0.030000
7.517251 -1.180404 0.110977 0.030000
7.230350 -1.866002 0.102679 0.040000
6.888555 -2.557652 0.094216 0.080000
8.350862 2.865794 1.623210 0.120000
45.294361 12.975363 7.142280 0.100000
11.177269 1.473615 1.915415 0.280000
11.872634 -0.893651 1.953431 0.020000
44.549595 -9.670940 6.521146 0.010000
11.320497 -3.394612 1.927692 0.030000
44.791615 -23.431047 7.100633 0.050000
8.526659 2.937088 0.828925 0.780000
16.611065 4.321447 1.050176 0.080000
11.110254 1.466235 0.850202 0.070000
13.265676 0.417238 0.876929 0.010000
11.915167 -0.868725 0.833623 0.060000
