# This PCD file was generated using the MATLAB® pcwrite function
# from Computer Vision Toolbox®.
# .PCD v.7 - Point Cloud Data file format
VERSION .7
FIELDS x y z intensity
SIZE 4 4 4 4
TYPE F F F F
COUNT 1 1 1 1
WIDTH 1284
HEIGHT 1
VIEWPOINT 0 0 0 1 0 0 0
POINTS 1284
DATA ascii
5.028537 0.817304 0.106907 0.030000
5.170532 0.454996 0.095931 0.010000
5.163104 0.059784 0.094442 0.030000
5.150389 -0.320527 0.092995 0.020000
5.103007 -0.716449 0.076400 0.050000
4.965615 -1.114132 0.069562 0.120000
29.006527 16.465412 2.647691 0.030000
8.138026 2.573866 1.021563 0.160000
11.023089 1.273377 1.164261 0.680000
13.016377 -1.239186 1.240124 0.120000
13.410547 -2.762016 1.265493 0.020000
11.236765 -3.613394 1.146652 0.440000
9.497907 4.538374 0.182406 0.050000
10.307809 3.508740 0.170693 0.050000
10.689503 2.380869 0.162496 0.020000
10.905748 1.274833 0.153949 0.010000
10.997304 0.151406 0.145012 0.020000
10.668051 -0.935110 0.145114 0.050000
10.157420 -1.950050 0.135008 0.040000
4.777416 1.657680 0.099375 0.020000
4.935519 1.235615 0.103219 0.020000
5.068160 0.838085 0.102088 0.040000
5.205238 0.470664 0.096079 0.010000
5.207903 0.070644 0.094599 0.030000
5.195380 -0.319665 0.093116 0.030000
5.142999 -0.715683 0.076507 0.060000
5.000705 -1.118461 0.069638 0.120000
28.984022 16.584709 2.728077 0.060000
8.092899 2.577948 1.036460 0.110000
11.032460 1.303488 1.184397 0.500000
13.005630 -1.204496 1.270226 0.060000
11.246123 -3.583302 1.171789 0.470000
9.719677 4.707614 0.193615 0.060000
10.579966 3.658960 0.176962 0.050000
11.012321 2.497053 0.168771 0.020000
11.124722 1.329000 0.164722 0.040000
11.341747 0.182990 0.151029 0.020000
10.973269 -0.944284 0.150876 0.050000
10.468403 -1.999121 0.140637 0.040000
9.948541 -3.054245 0.130358 0.070000
4.782115 1.672754 0.104444 0.020000
4.979936 1.266471 0.103450 0.010000
5.107769 0.858847 0.102268 0.030000
5.245039 0.481428 0.096223 0.010000
5.237693 0.081198 0.099716 0.030000
5.265380 -0.318306 0.088303 0.020000
5.177979 -0.715031 0.081601 0.050000
5.025687 -1.118001 0.074705 0.130000
28.976583 16.699257 2.818484 0.090000
8.097367 2.602964 1.056565 0.090000
11.146581 1.345553 1.219852 0.410000
31.517052 0.555994 2.510103 0.080000
12.989898 -1.169882 1.295313 0.040000
11.300842 -3.572362 1.201973 0.570000
10.941436 3.845897 0.183600 0.050000
11.419644 2.639861 0.175365 0.010000
11.134081 1.359093 0.189859 0.050000
11.791171 0.216585 0.157327 0.020000
11.383753 -0.966445 0.156866 0.050000
10.859754 -2.066657 0.146408 0.040000
10.270576 -3.158115 0.135812 0.050000
4.801715 1.693115 0.109571 0.030000
5.019449 1.292232 0.103649 0.020000
5.152364 0.879687 0.107462 0.060000
5.284731 0.497172 0.101386 0.010000
5.297586 0.087346 0.099896 0.030000
5.335380 -0.316946 0.083491 0.080000
5.243159 -0.723784 0.081738 0.060000
5.090962 -1.131753 0.074824 0.130000
28.944521 16.793312 2.913751 0.100000
8.116736 2.633267 1.076728 0.090000
18.527672 4.670410 1.821484 0.010000
11.166033 1.370838 1.244997 0.300000
31.500397 0.630376 2.595337 0.060000
11.867050 -1.026215 1.252916 0.030000
11.325459 -3.557016 1.237095 0.260000
10.360894 5.169921 0.212007 0.040000
11.881862 2.788721 0.182125 0.010000
10.944217 1.345326 0.224312 0.080000
12.255675 0.245449 0.168647 0.020000
11.904409 -0.996497 0.163113 0.080000
4.855938 1.734161 0.109865 0.030000
5.054046 1.312880 0.108816 0.020000
5.226789 0.911136 0.102773 0.070000
5.354444 0.513529 0.096628 0.010000
5.372394 0.098799 0.095133 0.040000
5.320152 -0.307291 0.098488 0.100000
5.318350 -0.732328 0.076903 0.050000
5.141145 -1.140793 0.074922 0.110000
28.927799 16.867601 3.023985 0.080000
8.121383 2.648267 1.101797 0.150000
30.286993 8.077794 2.799856 0.040000
11.160560 1.390609 1.280056 0.270000
31.444092 0.683941 2.695390 0.070000
11.836485 -1.001924 1.287927 0.040000
17.898203 -3.702850 1.713714 0.000000
11.240024 5.746897 0.206447 0.070000
11.947284 4.330173 0.208026 0.050000
10.943755 1.365210 0.254386 0.090000
12.810175 0.276056 0.175208 0.020000
11.959129 -0.985557 0.193297 0.060000
11.788374 -2.248959 0.163154 0.030000
11.287450 -3.508739 0.147164 0.110000
4.900259 1.770016 0.110114 0.030000
5.123363 1.349214 0.109132 0.020000
5.276479 0.927072 0.107962 0.070000
5.409133 0.529561 0.101831 0.020000
5.442285 0.105139 0.095339 0.040000
5.410231 -0.310567 0.098710 0.060000
5.373518 -0.741291 0.082013 0.040000
5.186410 -1.154947 0.079987 0.110000
28.916174 16.936987 3.134214 0.040000
8.096240 2.652713 1.121748 0.170000
30.270967 8.117127 2.899961 0.040000
11.145292 1.400208 1.310053 0.290000
31.388088 0.722527 2.790388 0.280000
11.846200 -0.991865 1.322990 0.050000
18.028284 -3.715617 1.784007 0.000000
11.308661 5.813076 0.246872 0.110000
13.119570 3.177402 0.211801 0.010000
10.943472 1.375078 0.289422 0.100000
11.973844 -0.975402 0.228373 0.130000
11.231603 -3.469930 0.182162 0.160000
4.979190 1.826537 0.110530 0.030000
5.182776 1.380358 0.109403 0.020000
5.340988 0.953312 0.108228 0.080000
5.478928 0.540899 0.102055 0.020000
5.517162 0.111556 0.100559 0.050000
5.505418 -0.318727 0.093929 0.050000
5.473896 -0.759353 0.077208 0.040000
5.261876 -1.178506 0.080097 0.100000
28.880470 16.955849 3.259192 0.020000
8.096079 2.657619 1.146766 0.190000
30.274996 8.151789 3.015102 0.020000
11.125109 1.404694 1.345017 0.320000
31.387226 0.752112 2.900497 0.180000
11.845917 -0.981997 1.358027 0.080000
18.228613 -3.742079 1.864432 0.000000
11.308365 5.822926 0.286908 0.140000
13.330173 4.971680 0.239021 0.040000
10.968198 1.385444 0.319525 0.070000
14.634042 0.350963 0.190247 0.020000
13.099030 -2.533963 0.180516 0.030000
11.211214 -3.455464 0.222163 1.000000
5.043412 1.867775 0.110851 0.040000
5.257092 1.416787 0.109732 0.030000
5.420494 0.979840 0.108534 0.090000
5.563625 0.557524 0.102338 0.020000
5.602146 0.113184 0.100787 0.050000
5.580500 -0.322290 0.094111 0.040000
5.539158 -0.773124 0.082327 0.040000
5.332342 -1.202161 0.080193 0.100000
8.105724 2.672715 1.171847 0.150000
30.269135 8.181278 3.125197 0.020000
11.129838 1.414676 1.375067 0.390000
31.396540 0.771872 3.015596 0.100000
11.860714 -0.976859 1.398085 0.090000
18.474316 -3.787674 1.944905 0.000000
11.369485 -3.526717 1.387324 0.050000
11.293262 5.822490 0.326868 0.160000
15.242743 3.813140 0.229707 0.010000
10.982924 1.395617 0.349602 0.070000
15.813507 0.388521 0.203466 0.020000
11.210918 -3.445615 0.262200 0.300000
5.112536 1.914107 0.111203 0.040000
5.326491 1.448104 0.115030 0.030000
5.490084 1.001158 0.113795 0.090000
5.663319 0.574437 0.102661 0.020000
5.652028 0.119122 0.105939 0.050000
5.685672 -0.330277 0.094356 0.040000
5.624525 -0.791493 0.082482 0.040000
5.397795 -1.225930 0.085275 0.100000
53.061188 32.416576 6.134812 0.030000
8.105659 2.672622 1.196847 0.120000
57.266659 16.040491 5.739911 0.050000
11.109751 1.414163 1.410013 0.450000
34.794216 0.870531 3.414836 0.300000
11.835531 -0.972469 1.433036 0.140000
45.272732 -10.039017 4.301642 0.000000
11.374379 -3.526770 1.427337 0.120000
11.288134 5.822208 0.376854 0.170000
17.048923 6.638212 0.249923 0.010000
11.022730 1.401252 0.384727 0.070000
18.857536 0.471944 0.181721 0.010000
17.109390 -1.471989 0.199932 0.030000
11.220921 -3.450552 0.297208 0.440000
5.196466 1.970724 0.111633 0.040000
5.420706 1.489915 0.115431 0.030000
5.579684 1.022878 0.114110 0.090000
5.758014 0.591253 0.102971 0.030000
5.747010 0.120941 0.106194 0.060000
5.775846 -0.338551 0.094561 0.030000
5.709892 -0.809861 0.082636 0.030000
5.493544 -1.264103 0.085383 0.120000
52.951771 32.353645 6.359295 0.020000
8.085693 2.667147 1.221775 0.120000
57.265938 16.044598 5.979927 0.070000
11.139544 1.419588 1.450111 0.250000
34.823872 0.870622 3.544915 0.330000
11.800364 -0.968252 1.462960 0.140000
45.207119 -10.030876 4.466503 0.000000
11.364194 -3.522093 1.462328 0.220000
11.302835 5.832345 0.416930 0.160000
13.081636 4.871334 0.393001 0.020000
13.188334 3.218085 0.387134 0.010000
11.012628 1.400912 0.424700 0.080000
13.308902 0.319900 0.371675 0.030000
13.280969 -1.090829 0.351357 0.030000
13.384788 -2.588977 0.311059 0.000000
11.235896 -3.455431 0.342229 0.480000
5.280479 2.022324 0.117044 0.040000
5.519921 1.531823 0.115846 0.030000
5.664176 1.049482 0.119429 0.100000
5.862693 0.608243 0.108307 0.030000
5.856989 0.123048 0.106489 0.050000
5.866008 -0.346844 0.099765 0.040000
5.825446 -0.837653 0.082835 0.040000
5.594196 -1.297181 0.085523 0.110000
55.296822 33.861809 6.921029 0.020000
8.105419 2.677417 1.251865 0.120000
57.230427 16.038055 6.214812 0.080000
11.159353 1.424840 1.485183 0.240000
34.878494 0.871155 3.685061 0.330000
11.765170 -0.964072 1.502884 0.160000
145.910736 -33.561123 14.111998 0.030000
11.318824 -3.508088 1.497262 0.400000
11.371938 5.873510 0.462264 0.140000
13.066604 4.865861 0.442942 0.040000
11.022630 1.395975 0.459708 0.090000
13.280851 -1.090996 0.396357 0.030000
13.389861 -2.599047 0.356035 0.000000
11.240995 -3.465464 0.377205 0.460000
5.379407 2.079229 0.117514 0.040000
5.614137 1.573635 0.116247 0.040000
5.778593 1.081697 0.114848 0.120000
5.967482 0.620252 0.108625 0.030000
5.966969 0.125154 0.106784 0.050000
5.986273 -0.359543 0.100032 0.040000
5.900802 -0.856231 0.087962 0.030000
5.700134 -1.345161 0.085621 0.090000
43.937119 26.587000 5.764322 0.010000
8.110435 2.672402 1.281860 0.200000
57.235416 16.002192 6.474694 0.070000
11.144444 1.414406 1.525105 0.230000
35.548302 0.858211 3.896763 0.120000
11.765244 -0.974237 1.547847 0.150000
145.846420 -33.694923 14.806339 0.020000
11.339072 -3.527887 1.547242 0.670000
11.436329 5.899583 0.507530 0.140000
14.698298 5.572144 0.474827 0.070000
13.118673 3.186397 0.481835 0.010000
11.037632 1.391133 0.494729 0.100000
13.228970 0.303036 0.461404 0.010000
13.210830 -1.097522 0.446150 0.050000
13.420012 -2.613655 0.406060 0.000000
11.215787 -3.461111 0.422156 0.360000
5.478239 2.141132 0.118002 0.050000
5.723350 1.615734 0.116689 0.040000
5.918005 1.114391 0.110333 0.110000
6.082173 0.637451 0.108989 0.030000
6.092041 0.122549 0.107100 0.040000
6.101635 -0.377337 0.100267 0.040000
6.021450 -0.888926 0.088156 0.030000
5.800882 -1.383238 0.085743 0.100000
43.843792 26.469421 5.973643 0.020000
8.115465 2.667406 1.306854 0.250000
48.301521 13.353301 5.711520 0.040000
11.139544 1.404182 1.560055 0.140000
35.463551 0.826105 4.026424 0.100000
11.745239 -0.979768 1.587774 0.080000
11.298976 -3.528801 1.587134 0.700000
11.446401 5.889609 0.552519 0.190000
14.683622 5.546638 0.534694 0.070000
13.123830 3.171310 0.531793 0.010000
11.042718 1.381082 0.534706 0.080000
13.205905 -1.107783 0.491100 0.050000
13.410184 -2.629011 0.450978 0.010000
11.175594 -3.457027 0.462067 0.330000
5.577249 2.193019 0.123453 0.050000
5.862270 1.673404 0.117266 0.040000
6.037395 1.146665 0.115765 0.100000
6.226968 0.650245 0.104414 0.020000
6.217114 0.119944 0.107417 0.050000
6.221996 -0.395035 0.100515 0.040000
6.137099 -0.921717 0.088336 0.030000
5.901808 -1.431332 0.090827 0.080000
43.745808 26.336824 6.162897 0.030000
8.130480 2.662582 1.336876 0.270000
49.972851 13.769009 6.092432 0.050000
11.164627 1.394514 1.600085 0.130000
35.459171 0.775536 4.156226 0.140000
13.088090 -1.139702 1.760687 0.070000
11.505985 5.905589 0.597735 0.200000
8.112977 2.634937 0.601720 0.060000
13.119109 3.151069 0.571706 0.010000
11.032929 1.365782 0.564624 0.080000
29.500372 0.649886 0.460167 0.010000
13.440527 -2.653618 0.500966 0.020000
11.150686 -3.467652 0.501963 0.390000
5.710800 2.270609 0.119090 0.050000
5.996383 1.720981 0.117793 0.050000
6.201706 1.184837 0.111335 0.120000
6.396565 0.673515 0.099943 0.030000
6.387191 0.118219 0.102855 0.050000
6.397551 -0.421659 0.095875 0.030000
6.272827 -0.959143 0.093551 0.030000
6.027839 -1.483927 0.090961 0.080000
43.776989 26.246655 6.367645 0.030000
8.120705 2.647301 1.361794 0.270000
50.028606 13.699257 6.312320 0.070000
11.154812 1.379176 1.640003 0.220000
36.119568 0.732424 4.362792 0.170000
13.103436 -1.164595 1.810635 0.080000
11.531150 5.890903 0.642746 0.200000
8.103297 2.614657 0.626620 0.210000
13.159176 3.141670 0.616776 0.000000
11.008212 1.345158 0.604483 0.070000
30.910698 0.631508 0.568781 0.030000
15.020435 -1.338366 0.574980 0.010000
13.440888 -2.678780 0.545874 0.040000
11.150965 -3.487797 0.541889 0.380000
5.839517 2.338068 0.124677 0.060000
6.175021 1.794434 0.113532 0.050000
6.366004 1.222991 0.111906 0.120000
6.551345 0.686482 0.100395 0.030000
6.572265 0.116782 0.098332 0.050000
6.537991 -0.443992 0.101158 0.030000
6.433769 -1.006051 0.088797 0.030000
6.174166 -1.551119 0.086093 0.090000
43.986202 26.254745 6.618224 0.030000
8.145621 2.647668 1.391861 0.180000
50.059753 13.609031 6.532068 0.060000
11.150105 1.358954 1.674916 0.230000
36.150440 0.667490 4.502632 0.280000
13.098702 -1.184855 1.855548 0.050000
39.731319 -9.067429 4.960796 0.020000
11.370348 -3.617927 1.716990 0.170000
11.605731 5.907169 0.688002 0.170000
8.093617 2.594376 0.651519 1.000000
17.780458 4.415198 0.688573 0.010000
11.013408 1.330126 0.639441 0.070000
19.098757 0.344818 0.651883 0.000000
13.201812 -1.173349 0.620847 0.050000
13.385960 -2.690017 0.595689 0.020000
11.131139 -3.503345 0.586780 0.430000
6.002870 2.426230 0.120431 0.060000
6.319131 1.842202 0.114086 0.060000
6.535398 1.256241 0.112472 0.130000
6.721108 0.699717 0.105888 0.030000
6.717416 0.109542 0.103684 0.060000
6.693550 -0.470999 0.096464 0.040000
6.574700 -1.053360 0.088989 0.030000
6.310482 -1.618520 0.086198 0.090000
44.200684 26.253046 6.838779 0.030000
8.131038 2.622293 1.416728 0.230000
50.151157 13.510067 6.721941 0.040000
11.045743 1.321876 1.694506 0.310000
36.116615 0.586315 4.642243 0.240000
39.933975 -9.229236 5.140726 0.020000
11.360724 -3.643262 1.756871 0.330000
8.064119 2.563696 0.681328 0.330000
17.955147 4.423288 0.759060 0.010000
11.073580 1.316130 0.679546 0.070000
13.285288 0.203272 0.686183 0.010000
13.131982 -1.189873 0.670604 0.070000
13.356218 -2.710774 0.645535 0.020000
11.161795 -3.542911 0.626713 0.420000
6.161307 2.509279 0.121154 0.070000
6.507850 1.910829 0.114833 0.060000
6.694697 1.294298 0.113029 0.150000
6.885886 0.712875 0.106367 0.040000
6.892589 0.102914 0.099117 0.060000
6.833990 -0.493332 0.101748 0.040000
6.750721 -1.104998 0.089256 0.040000
6.471889 -1.690441 0.086352 0.090000
44.306610 26.174236 7.063766 0.030000
8.156051 2.617661 1.446777 0.240000
46.975563 12.494785 6.514875 0.040000
11.026121 1.296349 1.734360 0.350000
36.117878 0.500811 4.781930 0.150000
39.026413 -9.111798 5.193794 0.030000
11.336090 -3.668904 1.801712 0.400000
8.084242 2.553988 0.706345 0.270000
18.060341 4.405061 0.824268 0.010000
11.024073 1.285048 0.714302 0.160000
13.250656 0.177440 0.730997 0.000000
13.127440 -1.220130 0.715480 0.210000
6.329647 2.597519 0.121921 0.070000
6.671861 1.963979 0.115459 0.060000
6.859188 1.322453 0.113563 0.150000
7.055663 0.726129 0.106859 0.040000
7.062831 0.091154 0.104518 0.060000
7.034719 -0.529494 0.102137 0.040000
6.881642 -1.152517 0.094421 0.040000
6.633488 -1.772361 0.086469 0.090000
44.467636 26.091499 7.283880 0.040000
8.156465 2.592573 1.471685 0.300000
57.162010 15.169698 8.091425 0.070000
11.031508 1.271319 1.769281 0.360000
40.557644 0.458302 5.483369 0.410000
39.530689 -9.363047 5.429178 0.030000
11.321564 -3.699334 1.841562 0.370000
8.074753 2.523709 0.731208 0.190000
18.285021 4.414109 0.894889 0.010000
11.054454 1.260497 0.749290 0.320000
12.947465 -1.228725 0.754978 0.140000
16.598410 -3.594277 0.770715 0.030000
11.036897 -3.560600 0.706322 0.100000
6.503164 2.675837 0.127665 0.080000
6.845762 2.022301 0.121130 0.060000
7.083379 1.366755 0.114313 0.140000
7.245532 0.734767 0.107387 0.040000
7.263177 0.074988 0.104980 0.050000
7.190456 -0.566518 0.102406 0.040000
7.062854 -1.214058 0.094666 0.040000
6.815275 -1.863896 0.086604 0.100000
44.559738 25.952450 7.498606 0.030000
8.181573 2.582942 1.501715 0.150000
57.115280 14.967960 8.310555 0.120000
11.026993 1.241099 1.804157 0.390000
40.574715 0.328019 5.642931 0.190000
45.761330 -5.281096 6.305625 0.030000
38.633629 -9.270375 5.472182 0.020000
13.031954 6.608801 0.914335 0.030000
8.104861 2.514174 0.761252 0.250000
18.395391 4.385962 0.965073 0.010000
11.024943 1.229798 0.784100 1.080000
16.031605 0.135197 0.873100 0.000000
12.877840 -1.255229 0.799699 0.260000
13.403239 -2.835409 0.785196 0.020000
10.926538 -3.547839 0.741082 0.100000
6.686405 2.769363 0.128491 0.090000
7.049587 2.086235 0.116900 0.060000
7.257867 1.395102 0.114874 0.120000
7.465299 0.748978 0.108014 0.030000
7.448430 0.063534 0.105421 0.060000
7.396184 -0.602584 0.102809 0.040000
7.264158 -1.280214 0.094945 0.040000
6.976873 -1.945815 0.086721 0.100000
49.287083 28.609917 8.485835 0.030000
8.191972 2.558027 1.531650 0.100000
57.058849 14.751053 8.524604 0.100000
11.097245 1.222276 1.849271 0.230000
40.601780 0.197928 5.802519 0.100000
45.458237 -5.402418 6.439384 0.020000
38.776691 -9.453309 5.646877 0.020000
11.186802 -3.722157 1.906126 0.290000
8.125079 2.499467 0.786250 0.550000
13.152362 2.935458 0.900994 0.010000
11.025414 1.199655 0.823989 1.230000
13.292308 0.072724 0.865718 0.010000
12.908579 -1.299813 0.844614 0.290000
16.539818 -3.685874 0.895223 0.070000
10.856639 -3.559327 0.780857 0.100000
6.909351 2.878652 0.129479 0.080000
7.248482 2.145036 0.122637 0.060000
7.497056 1.439690 0.115664 0.130000
7.655250 0.752599 0.113523 0.040000
7.678866 0.042944 0.105946 0.060000
7.647191 -0.652786 0.103277 0.040000
7.500743 -1.360697 0.095264 0.040000
7.158743 -2.042367 0.091837 0.090000
45.268429 25.954098 8.025468 0.040000
8.197276 2.538015 1.561590 0.110000
11.172580 1.198532 1.899380 0.270000
44.973099 0.063835 6.573439 0.200000
39.772797 -4.829057 5.841669 0.020000
40.914440 -10.164217 6.119819 0.020000
11.192629 -3.772238 1.955955 0.220000
13.029063 6.483320 1.023862 0.020000
8.115686 2.464189 0.811094 0.640000
13.153107 2.890299 0.945829 0.000000
12.884150 -1.335434 0.884418 0.310000
16.530731 -3.741259 0.949994 0.070000
10.746472 -3.556564 0.815581 0.090000
7.102768 2.962353 0.135295 0.090000
7.496999 2.224810 0.123583 0.070000
7.716427 1.473879 0.121364 0.100000
7.900108 0.762290 0.114198 0.030000
7.884294 0.021856 0.111404 0.040000
7.807997 -0.694750 0.113541 0.040000
7.697239 -1.436947 0.095493 0.040000
7.320520 -2.134304 0.096917 0.090000
45.213226 25.677313 8.209296 0.040000
8.202689 2.513022 1.586511 0.150000
11.193059 1.168790 1.934323 0.300000
44.935757 -0.097495 6.732744 0.390000
39.710136 -4.970777 5.975980 0.010000
40.872299 -10.335623 6.274074 0.010000
11.183402 -3.817551 1.990763 0.150000
13.025192 6.418069 1.068610 0.010000
8.116197 2.434102 0.835984 0.600000
15.314043 -0.019105 1.015655 0.000000
10.681681 -3.572936 0.850351 0.160000
7.345711 3.072025 0.136337 0.090000
7.710892 2.283898 0.129361 0.060000
7.940797 1.508164 0.127077 0.100000
8.134955 0.771771 0.119846 0.030000
8.149818 -0.003063 0.112005 0.040000
8.044116 -0.750220 0.108951 0.040000
7.853525 -1.504003 0.105652 0.030000
7.527781 -2.250355 0.097027 0.090000
45.197945 25.406330 8.383251 0.020000
8.213114 2.488144 1.606446 0.210000
11.223620 1.134223 1.974275 0.210000
44.923599 -0.268345 6.892078 0.390000
39.291801 -5.074137 6.064505 0.020000
39.598866 -10.164889 6.246384 0.010000
13.021403 6.347801 1.118340 0.020000
8.136511 2.414396 0.860964 0.590000
13.149802 2.789906 1.030448 0.000000
11.121943 1.106102 0.928894 0.040000
13.289474 -0.057812 0.990226 0.010000
15.462532 -1.771736 1.054528 0.480000
10.647171 -3.603731 0.885147 0.200000
7.583641 3.181583 0.142366 0.100000
7.969584 2.353847 0.135296 0.060000
8.205173 1.543234 0.127898 0.100000
8.399906 0.776846 0.120557 0.030000
8.425342 -0.027791 0.112632 0.040000
8.265212 -0.806013 0.114321 0.030000
8.100300 -1.594293 0.105960 0.030000
7.684546 -2.342406 0.107094 0.080000
46.739536 26.054228 8.864689 0.030000
8.228512 2.463325 1.636394 0.110000
44.946697 -0.453559 7.061452 0.190000
40.507610 -5.412122 6.396425 0.030000
39.471317 -10.312853 6.380503 0.030000
13.042323 6.293008 1.168191 0.020000
8.152018 2.384596 0.885894 0.300000
30.464775 7.029662 1.801413 0.030000
11.097718 1.060502 0.963662 0.110000
13.437532 -3.090622 1.009339 0.020000
10.597568 -3.629814 0.919921 0.280000
7.856386 3.301828 0.143525 0.100000
8.238097 2.434003 0.136295 0.060000
8.484449 1.583589 0.128777 0.090000
8.689852 0.782400 0.121334 0.030000
8.690963 -0.057709 0.113214 0.040000
8.561498 -0.870350 0.114855 0.050000
8.306973 -1.680368 0.111180 0.030000
7.876810 -2.458744 0.107164 0.080000
46.867943 25.850954 9.054270 0.030000
8.214229 2.422971 1.656207 0.100000
40.700939 -5.609114 6.576200 0.010000
39.484550 -10.503201 6.534831 0.030000
11.468367 -4.097766 2.160467 0.150000
7.934226 3.305441 0.928749 0.020000
30.506807 6.910079 1.901080 0.010000
11.103322 1.025511 0.988547 0.070000
13.281087 -0.153283 1.069850 0.000000
15.756038 -3.791820 1.142786 0.040000
10.593352 -3.675013 0.949742 0.420000
8.114408 3.406770 0.149588 0.110000
8.566406 2.525307 0.137491 0.060000
8.763726 1.623945 0.129656 0.100000
8.979785 0.787935 0.127112 0.030000
8.996673 -0.091860 0.113885 0.040000
8.562020 -0.900419 0.134745 0.040000
8.569032 -1.785368 0.111474 0.030000
8.099343 -2.589524 0.112258 0.060000
47.120510 25.689993 9.264333 0.010000
8.259429 2.408724 1.686273 0.100000
39.816872 -5.666056 6.573680 0.030000
39.769558 -10.788490 6.724516 0.030000
11.398781 -4.124214 2.190187 0.160000
7.920026 3.260069 0.953544 0.050000
13.147460 2.634394 1.149865 0.010000
11.158987 0.986442 1.023547 0.090000
13.006840 -0.198635 1.093966 0.010000
32.204426 -4.439634 1.923321 0.180000
13.404246 -3.191571 1.088878 0.030000
10.569045 -3.715595 0.979528 0.330000
8.431857 3.542873 0.150923 0.110000
8.830207 2.590371 0.138422 0.060000
9.112799 1.675639 0.130759 0.090000
9.309832 0.789275 0.122978 0.030000
9.272388 -0.126586 0.114476 0.040000
8.983884 -0.992319 0.125505 0.040000
8.815998 -1.885656 0.111745 0.030000
6.162562 -1.757129 0.290299 0.080000
47.041279 25.367887 9.407930 0.060000
8.250050 2.373465 1.706117 0.270000
46.886711 -1.064299 7.824254 0.060000
39.819992 -5.846486 6.698019 0.030000
40.728191 -11.271297 7.020227 0.020000
11.334207 -4.150547 2.214921 0.350000
7.980058 3.256145 0.973686 0.170000
30.536575 6.634903 2.090136 0.010000
11.159676 0.946338 1.053400 0.080000
12.837560 -0.241994 1.123363 0.010000
13.330409 -1.692867 1.134257 0.040000
10.580115 -3.775504 1.009334 0.230000
8.744403 3.673882 0.152226 0.120000
9.153696 2.671562 0.144568 0.050000
9.427165 1.711666 0.131713 0.090000
9.639866 0.790595 0.123845 0.030000
9.608283 -0.170161 0.115191 0.030000
9.310548 -1.076078 0.126046 0.040000
9.038052 -1.991440 0.116932 0.030000
6.173109 -1.786969 0.300216 0.150000
47.294117 25.197039 9.587957 0.040000
8.275472 2.348874 1.726092 0.340000
46.745594 -1.282407 7.923075 0.090000
40.289680 -6.113235 6.888255 0.030000
40.832680 -11.524873 7.164558 0.030000
11.279918 -4.191685 2.239627 0.460000
7.921454 3.179936 0.993250 0.250000
13.169298 2.529555 1.214533 0.010000
12.688397 -0.289933 1.142796 0.010000
12.614105 -1.631574 1.132615 0.110000
13.436523 -3.321269 1.168481 0.020000
9.076837 3.810254 0.158600 0.120000
9.462188 2.752466 0.150674 0.050000
9.721618 1.742293 0.137596 0.090000
9.945084 0.781421 0.129607 0.030000
9.874083 -0.210096 0.120736 0.030000
9.572115 -1.156101 0.131431 0.030000
9.295303 -2.106534 0.117176 0.030000
53.191040 28.100702 10.919157 0.080000
8.291087 2.314093 1.746004 0.150000
11.153090 0.877221 2.138137 0.010000
41.917660 -1.342442 7.245243 0.090000
40.152824 -6.291217 6.977237 0.040000
40.871742 -11.754642 7.293808 0.020000
7.927181 3.139983 1.008117 0.200000
13.100259 4.033206 1.299943 0.090000
30.566601 6.349823 2.254157 0.020000
12.649189 -0.335802 1.172523 0.070000
11.626946 -1.525388 1.110432 0.150000
9.369865 3.915885 0.159758 0.120000
9.775980 2.818487 0.151739 0.050000
10.006264 1.762729 0.143415 0.080000
10.190408 0.766098 0.135191 0.030000
10.089974 -0.256006 0.131129 0.030000
9.823588 -1.231317 0.136808 0.030000
9.557637 -2.226549 0.122414 0.030000
9.015466 -3.162098 0.117521 0.070000
8.043620 3.214275 1.813705 0.000000
53.364685 11.365086 9.762387 0.020000
11.183772 0.837692 2.168071 0.020000
41.865845 -1.523851 7.349434 0.110000
40.191254 -6.485937 7.091615 0.040000
41.031700 -12.032160 7.438195 0.010000
7.942700 3.110202 1.028047 0.210000
13.196244 2.419832 1.274196 0.020000
13.208631 0.994927 1.238931 0.020000
12.580108 -0.387207 1.192152 0.080000
11.602761 -1.570933 1.130200 0.280000
13.453963 -3.456161 1.223025 0.030000
9.662990 4.016517 0.160897 0.130000
10.099769 2.884700 0.152830 0.050000
10.261121 1.772612 0.144117 0.080000
10.475738 0.751560 0.135882 0.030000
10.310987 -0.306782 0.131517 0.030000
10.035177 -1.312279 0.137060 0.030000
9.784785 -2.337237 0.127596 0.020000
9.228288 -3.308066 0.122534 0.080000
8.074041 3.189780 1.833694 0.010000
48.147758 9.962859 8.943548 0.030000
11.164586 0.792243 2.187852 0.040000
41.629292 -1.713616 7.403112 0.100000
40.054508 -6.668900 7.175579 0.030000
7.958233 3.080439 1.042977 0.580000
12.556019 -0.437751 1.211902 0.130000
11.568482 -1.611670 1.149959 0.250000
13.399854 -3.507316 1.252694 0.010000
13.506046 -5.400763 1.285933 0.050000
9.956088 4.117111 0.172036 0.130000
10.353847 2.934556 0.158678 0.050000
10.565667 1.798431 0.150008 0.070000
10.726156 0.731334 0.141460 0.030000
10.566980 -0.356907 0.136999 0.030000
10.216568 -1.383836 0.142267 0.030000
9.961656 -2.433885 0.132698 0.030000
9.441218 -3.459015 0.122529 0.070000
40.415779 8.089252 7.606387 0.030000
11.190392 0.747656 2.207754 0.140000
46.951458 -2.175382 8.400298 0.070000
45.918106 -21.410954 8.976102 0.090000
7.954071 3.035315 1.052798 0.650000
30.629513 5.910235 2.447689 0.040000
31.203924 2.300800 2.380770 0.050000
12.571909 -0.487547 1.236758 0.140000
11.534216 -1.652388 1.164719 0.270000
13.431220 -3.581820 1.277499 0.050000
10.209700 4.191981 0.172977 0.130000
10.633027 2.979911 0.159576 0.050000
10.800706 1.797914 0.155620 0.070000
10.966674 0.705918 0.146993 0.030000
10.762984 -0.408180 0.142320 0.030000
10.397862 -1.450394 0.147493 0.030000
10.168820 -2.544937 0.132826 0.030000
9.578288 -3.566427 0.127487 0.070000
8.115188 3.125428 1.868562 0.050000
42.321056 8.294218 8.037127 0.070000
11.196200 0.702686 2.227602 0.150000
41.946693 -2.128436 7.627401 0.060000
46.509132 -22.015659 9.225399 0.060000
7.979601 3.005744 1.067755 0.640000
30.676947 5.775918 2.502314 0.040000
31.236444 2.161178 2.440336 0.040000
12.567911 -0.542707 1.256543 0.140000
11.560200 -1.706992 1.189584 0.210000
10.468201 4.271928 0.178949 0.120000
10.867492 3.009388 0.165297 0.040000
11.065560 1.807988 0.156348 0.070000
11.137300 0.674161 0.152321 0.030000
10.959098 -0.464434 0.142623 0.030000
10.569350 -1.527141 0.152655 0.020000
10.290606 -2.637639 0.137800 0.030000
9.730833 -3.698547 0.132395 0.060000
8.086247 3.069864 1.868280 0.090000
42.416992 13.925437 8.498315 0.050000
42.320091 8.073904 8.106306 0.100000
11.217007 0.658004 2.247490 0.150000
41.820160 -2.316039 7.666374 0.050000
46.303146 -22.234844 9.279047 0.040000
7.985341 2.965810 1.077622 0.720000
19.131989 5.752083 1.852083 0.000000
31.259020 2.021440 2.479877 0.050000
12.618917 -0.596794 1.271475 0.110000
11.546039 -1.752308 1.199379 0.180000
10.692284 4.321210 0.184717 0.140000
11.097052 3.033771 0.170987 0.040000
11.240815 1.796342 0.156763 0.080000
11.402729 0.654241 0.152940 0.030000
11.135010 -0.511092 0.147909 0.030000
10.781035 -1.613102 0.152888 0.020000
10.467585 -2.739268 0.137884 0.020000
9.878215 -3.820728 0.127325 0.060000
8.121680 3.045483 1.883282 0.340000
43.846699 14.171725 8.812965 0.040000
42.408871 7.870385 8.155782 0.070000
53.534870 -3.269607 9.808430 0.080000
45.011932 -21.898890 9.106924 0.050000
8.000887 2.936065 1.087552 0.550000
19.133852 5.652028 1.871716 0.000000
31.281593 1.881700 2.519416 0.050000
12.644831 -0.646362 1.286359 0.060000
11.582047 -1.806683 1.214271 0.150000
11.252010 3.036721 0.176403 0.040000
11.216739 1.745817 0.171512 0.250000
11.533458 0.616720 0.158141 0.030000
11.256028 -0.563802 0.153029 0.030000
10.922351 -1.680408 0.153007 0.020000
10.548994 -2.812740 0.142823 0.020000
9.995288 -3.928523 0.132230 0.060000
8.092645 2.994918 1.883018 0.320000
45.673580 14.555278 9.229164 0.020000
42.517021 7.697169 8.225421 0.020000
41.511806 -2.672173 7.709245 0.100000
43.982002 -21.633091 8.975223 0.050000
8.011447 2.906244 1.092469 0.690000
19.140427 5.567065 1.891418 0.000000
31.274117 1.746442 2.543894 0.050000
11.602975 -1.856327 1.224141 0.180000
11.036261 4.377808 0.185825 0.110000
11.397079 3.034499 0.176773 0.040000
11.167681 1.694832 0.181195 0.330000
11.669199 0.579313 0.158357 0.030000
11.412053 -0.615823 0.153243 0.030000
10.968287 -1.729555 0.157944 0.020000
10.645413 -2.885906 0.142803 0.020000
10.066999 -4.017165 0.132088 0.070000
8.108203 2.965193 1.887948 0.160000
45.737621 14.341374 9.253537 0.060000
48.970394 8.716487 9.461068 0.040000
41.540257 -2.856789 7.743634 0.170000
42.967232 -21.371912 8.818542 0.060000
8.012200 2.866233 1.097322 0.740000
16.468658 4.616407 1.695908 0.010000
31.326439 1.622330 2.568570 0.040000
11.694165 -1.919647 1.239144 0.140000
11.171031 4.390372 0.191224 0.090000
11.487445 3.016226 0.176941 0.040000
11.178432 1.655013 0.186075 0.490000
11.789847 0.546618 0.158550 0.030000
11.452909 -0.660048 0.153185 0.020000
11.034329 -1.783300 0.157917 0.020000
10.686543 -2.945147 0.147690 0.020000
10.072943 -4.067079 0.136918 0.060000
45.557869 14.067939 9.237051 0.060000
39.844055 6.847514 7.755280 0.070000
41.583523 -3.031101 7.773099 0.170000
11.406840 -3.264549 2.368406 0.000000
42.885918 -21.568594 8.842600 0.060000
8.042564 2.846793 1.102329 0.630000
16.519676 4.562338 1.705840 0.020000
31.328615 1.507315 2.578148 0.050000
11.971351 -0.729201 1.264293 0.050000
17.168306 -5.266738 1.605994 0.000000
11.206695 4.356050 0.191189 0.100000
11.159285 1.609619 0.190856 0.900000
11.805611 0.506913 0.158444 0.020000
11.493667 -0.699274 0.153146 0.030000
11.045177 -1.828118 0.162779 0.020000
10.687405 -2.990139 0.147525 0.020000
10.099088 -4.126588 0.136765 0.070000
45.542130 13.847653 9.221190 0.070000
11.158641 1.606815 2.315866 0.010000
43.051716 1.986639 8.140588 0.030000
41.781830 -3.207481 7.812961 0.110000
11.342358 -3.290752 2.358140 0.010000
45.062401 -22.993832 9.297988 0.040000
8.048043 2.821893 1.102251 0.310000
31.331106 1.377339 2.577671 0.050000
11.902047 -0.765517 1.258977 0.070000
32.485493 -6.417168 2.616710 0.170000
17.104290 -5.317955 1.600637 0.000000
11.187835 4.295659 0.195915 0.110000
11.528862 2.941988 0.181773 0.040000
11.105145 1.563556 0.195544 0.480000
11.791380 0.466633 0.158257 0.030000
11.474424 -0.739668 0.157945 0.020000
11.015757 -1.858687 0.162588 0.020000
10.647891 -3.015900 0.147326 0.020000
10.069669 -4.157157 0.136574 0.050000
11.254064 1.583583 2.331029 0.060000
40.583477 -3.274655 7.594581 0.100000
11.277779 -3.311956 2.347893 0.020000
45.107773 -23.278124 9.327049 0.050000
8.053713 2.786996 1.102136 0.270000
18.354465 2.756975 1.753919 0.000000
31.343307 1.262553 2.577276 0.050000
11.892816 -0.805701 1.258803 0.100000
32.487984 -6.547143 2.616234 0.090000
33.303188 -11.257638 2.675852 0.010000
11.504920 2.886520 0.181505 0.030000
11.080915 1.523085 0.195330 0.390000
11.742143 0.425665 0.162976 0.020000
11.384907 -0.766406 0.162612 0.030000
10.966245 -1.884640 0.162363 0.020000
10.568085 -3.027449 0.152075 0.030000
9.984684 -4.158785 0.136346 0.050000
39.806637 1.521590 7.535382 0.020000
40.516502 -3.430910 7.578825 0.110000
43.969524 -9.398492 8.290663 0.000000
11.313910 -3.371293 2.352766 0.050000
8.044398 2.751830 1.096981 0.270000
18.435505 2.703517 1.753932 0.000000
31.395433 1.153569 2.567007 0.040000
11.838427 -0.836711 1.248546 0.090000
33.280998 -11.403051 2.665253 0.040000
11.145143 4.174820 0.195355 0.090000
11.401281 2.814522 0.180967 0.030000
11.096597 1.488397 0.190242 0.410000
11.652830 0.388948 0.162606 0.020000
11.265422 -0.793681 0.157199 0.020000
10.856553 -1.901744 0.162013 0.020000
10.453023 -3.024634 0.146785 0.020000
9.854134 -4.131280 0.136108 0.060000
11.150886 1.491701 2.300417 0.150000
39.315216 1.347606 7.408452 0.040000
42.372284 -3.756508 7.877462 0.100000
43.902737 -9.559616 8.239889 0.020000
11.304704 -3.411439 2.342593 0.020000
8.059997 2.722160 1.086911 0.650000
11.268931 1.482865 1.235682 0.000000
31.407738 1.038931 2.526613 0.040000
11.804143 -0.872319 1.233324 0.100000
109.867821 -24.225882 7.542550 0.690000
33.354252 -11.566531 2.624836 0.030000
8.275337 2.814123 0.317807 0.100000
11.287657 2.742352 0.175402 0.030000
11.057396 1.447676 0.179988 0.400000
11.463646 0.345335 0.156950 0.030000
11.100739 -0.811838 0.156702 0.030000
10.641211 -1.885865 0.161510 0.020000
10.292670 -3.007702 0.146429 0.020000
9.693301 -4.089354 0.135844 0.060000
8.146890 2.775973 1.867346 0.010000
50.408764 14.483146 10.006265 0.070000
38.953392 1.196108 7.281942 0.030000
42.480446 -3.914299 7.832158 0.130000
43.901054 -9.724458 8.179271 0.020000
11.355857 -3.470452 2.337507 0.020000
11.336990 -5.111525 2.446358 0.000000
8.050599 2.692011 1.076774 0.740000
11.199846 1.436589 1.220329 0.010000
31.425056 0.924407 2.481232 0.010000
11.794855 -0.907448 1.218169 0.120000
33.367268 -11.716106 2.569314 0.070000
8.261037 2.778880 0.307638 0.180000
10.980110 2.611438 0.174112 0.030000
11.179465 0.299885 0.156040 0.020000
10.845897 -0.821702 0.151000 0.030000
10.435974 -1.874775 0.156015 0.020000
10.076765 -2.961810 0.141036 0.020000
9.486820 -4.013276 0.130588 0.050000
8.211878 2.777218 1.867520 0.030000
50.397900 14.283324 9.890492 0.140000
39.450558 1.085555 7.297829 0.040000
42.954262 -4.110296 7.842666 0.090000
43.909218 -9.879053 8.103717 0.020000
11.376838 -3.520022 2.327377 0.020000
11.332797 -5.151557 2.431199 0.000000
8.056116 2.667167 1.061696 0.740000
11.155673 1.395809 1.200062 0.020000
11.810562 -0.942098 1.203081 0.130000
13.524839 -4.295245 1.300092 0.020000
8.271458 2.759131 0.292592 0.180000
10.687286 2.495828 0.167918 0.030000
10.935017 0.270234 0.145291 0.030000
10.560771 -0.817143 0.145272 0.030000
10.175269 -1.839744 0.150465 0.020000
9.845576 -2.901209 0.135658 0.020000
9.234772 -3.908066 0.125321 0.050000
8.192617 2.741935 1.842338 1.000000
50.491249 14.125506 9.775148 0.030000
11.207730 1.402957 2.250236 0.060000
38.798431 0.958813 7.085654 0.020000
42.771564 -4.213318 7.706805 0.240000
43.927090 -10.013331 7.993263 0.010000
11.362397 -3.545193 2.297246 0.030000
11.313358 -5.176824 2.401054 0.010000
8.066537 2.647418 1.046650 0.600000
13.176666 3.169296 1.356932 0.000000
11.181117 1.376385 1.175056 0.050000
13.251946 0.295505 1.271445 0.000000
11.841196 -0.971425 1.178052 0.120000
17.044474 -3.483299 1.477299 0.010000
13.650599 -6.423267 1.307510 0.010000
10.369550 2.374722 0.166638 0.030000
10.535639 1.277764 0.147994 0.070000
10.560661 0.233058 0.144176 0.020000
10.285644 -0.812393 0.139572 0.030000
9.924562 -1.804521 0.144941 0.020000
9.523623 -2.802357 0.135185 0.030000
8.926955 -3.763936 0.125053 0.060000
8.203037 2.722186 1.827292 0.340000
11.228162 1.383419 2.230216 0.180000
38.900467 0.866081 6.995574 0.020000
42.137653 -4.244639 7.480031 0.170000
43.949783 -10.137497 7.877860 0.010000
11.368036 -3.574999 2.272150 0.040000
11.314107 -5.211706 2.370926 0.010000
8.066972 2.627496 1.026577 0.480000
13.197232 3.144814 1.321894 0.010000
11.106880 1.340067 1.144727 0.090000
13.262515 0.270832 1.236380 0.010000
11.851751 -0.996117 1.147987 0.070000
13.393547 -2.652175 1.225856 0.030000
11.325019 -3.516559 1.112242 0.030000
13.605915 -6.433960 1.262353 0.010000
9.859548 3.415175 0.159175 0.100000
9.996932 2.247581 0.160193 0.040000
10.186963 1.206092 0.141817 0.070000
10.211123 0.206378 0.138164 0.030000
9.960335 -0.798603 0.133774 0.030000
9.648682 -1.759760 0.134387 0.020000
9.257071 -2.722411 0.124786 0.030000
8.659431 -3.634018 0.119838 0.050000
8.183599 2.696919 1.797147 0.450000
11.173852 1.352520 2.189959 0.370000
39.062206 0.789495 6.905711 0.020000
42.179695 -4.333392 7.354810 0.230000
11.343325 -3.585346 2.237046 0.050000
11.329853 -5.246300 2.340838 0.000000
8.067312 2.612574 1.006522 0.730000
13.123309 3.093536 1.281510 0.040000
11.072348 1.319512 1.114560 0.120000
13.379025 -2.672329 1.190743 0.010000
11.270121 -3.517482 1.077095 0.040000
13.611703 -6.468690 1.217238 0.010000
9.388743 3.191100 0.162113 0.100000
9.678921 2.141490 0.153969 0.030000
9.853092 1.144705 0.135718 0.080000
9.871474 0.184869 0.137198 0.030000
9.629930 -0.779909 0.127981 0.030000
9.357504 -1.700307 0.128848 0.030000
8.919834 -2.608850 0.124328 0.030000
8.326139 -3.465371 0.119595 0.060000
8.149259 2.666366 1.766944 0.410000
11.069673 1.315701 2.139550 0.370000
39.698467 0.731726 6.892157 0.040000
42.216644 -4.417241 7.229593 0.130000
11.338799 -3.605307 2.201960 0.050000
8.082553 2.602937 0.986526 0.710000
11.047814 1.299148 1.084420 0.280000
13.283556 0.226483 1.166269 0.010000
13.020104 -1.158734 1.140432 0.020000
11.265596 -3.537444 1.042009 0.160000
11.231215 -5.138459 1.055968 0.010000
9.036888 3.024350 0.155575 0.100000
9.331011 2.029826 0.147645 0.040000
9.474313 1.077439 0.134479 0.070000
9.546848 0.163685 0.126271 0.030000
9.309415 -0.756043 0.127233 0.030000
8.981041 -1.627504 0.128136 0.020000
8.587501 -2.490194 0.123902 0.030000
8.028129 -3.311052 0.119390 0.050000
11.050068 1.300470 2.099442 0.480000
40.494427 0.692036 6.874087 0.030000
42.814083 -4.530599 7.170731 0.080000
11.334084 -3.615271 2.166910 0.050000
42.188641 -23.143579 7.839914 0.020000
8.082809 2.593032 0.961489 0.580000
13.109300 3.053572 1.196324 0.010000
11.043194 1.284185 1.049352 0.310000
12.995405 -1.169062 1.100329 0.050000
11.210520 -3.528350 1.001899 0.160000
13.617908 -6.518232 1.122069 0.020000
9.037708 1.939211 0.141543 0.030000
9.125432 1.015746 0.133339 0.070000
9.217006 0.152366 0.125368 0.030000
8.998912 -0.731967 0.121512 0.030000
8.659664 -1.558647 0.127553 0.020000
8.275272 -2.376135 0.118511 0.020000
7.790695 -3.185558 0.114237 0.060000
8.164769 2.646843 1.716911 0.140000
11.050338 1.290583 2.069405 0.510000
40.505474 0.657773 6.728987 0.060000
48.516155 -5.209191 7.913100 0.070000
11.324190 -3.615314 2.126884 0.060000
42.250496 -23.216803 7.674802 0.030000
8.082971 2.588126 0.936471 0.630000
13.124594 3.044010 1.156328 0.030000
11.048368 1.279394 1.019347 0.390000
12.980691 -1.179217 1.065252 0.090000
13.455569 -2.735434 1.070707 0.000000
11.175522 -3.523891 0.966823 0.190000
13.653785 -6.557386 1.077017 0.040000
8.337960 2.700908 0.152548 0.100000
8.664790 1.827049 0.140152 0.040000
8.746461 0.958478 0.132137 0.080000
8.877274 0.135875 0.119420 0.030000
8.638212 -0.698869 0.120693 0.030000
8.338191 -1.484791 0.126989 0.020000
8.008406 -2.281229 0.118167 0.030000
7.543167 -3.055258 0.109075 0.070000
8.165039 2.636956 1.686875 0.160000
11.055620 1.280811 2.034382 0.540000
40.486511 0.622917 6.588806 0.070000
51.292828 -5.567012 8.174020 0.110000
11.314392 -3.620356 2.086839 0.050000
42.287094 -23.275471 7.499678 0.020000
8.083228 2.578221 0.911435 0.570000
13.114904 3.033988 1.111265 0.020000
11.043652 1.269430 0.984298 0.540000
31.420383 0.486899 1.754586 0.000000
12.965907 -1.184336 1.020194 0.090000
13.430692 -2.735745 1.025640 0.010000
11.160616 -3.524049 0.931784 0.150000
13.654107 -6.567199 1.026981 0.030000
8.169456 2.622704 0.141817 0.080000
8.376294 1.746528 0.134100 0.030000
8.502191 0.918812 0.126352 0.070000
8.572331 0.130034 0.118602 0.030000
8.337598 -0.669621 0.120017 0.030000
8.071995 -1.424878 0.126516 0.020000
7.791830 -2.200344 0.112902 0.030000
7.391593 -2.973109 0.098985 0.060000
8.150299 2.626764 1.661798 0.160000
11.065805 1.276134 1.999391 0.510000
40.472401 0.598211 6.433676 0.080000
43.393215 -4.688160 6.796653 0.110000
40.954456 -9.694724 6.491673 0.010000
11.309593 -3.625302 2.046808 0.050000
8.078390 2.573219 0.886403 0.350000
13.130101 3.029425 1.071287 0.020000
11.058740 1.269847 0.949338 0.360000
12.951111 -1.189474 0.980136 0.100000
13.415908 -2.740865 0.980582 0.010000
11.165911 -3.533802 0.891761 0.150000
13.659429 -6.576915 0.976958 0.010000
7.876810 2.497077 0.140586 0.090000
8.097784 1.666180 0.133074 0.040000
8.198014 0.872978 0.125387 0.080000
8.272374 0.124270 0.122798 0.030000
8.086974 -0.639416 0.119475 0.030000
7.861006 -1.373873 0.116155 0.030000
7.570147 -2.114575 0.112643 0.030000
7.189426 -2.861961 0.098870 0.060000
8.155459 2.621953 1.636793 0.250000
11.055899 1.276072 1.964365 0.510000
40.497856 0.594211 6.293726 0.070000
43.684238 -4.722153 6.677285 0.060000
40.949863 -9.694243 6.336661 0.030000
11.299603 -3.620346 2.006799 0.050000
8.058663 2.562949 0.856313 0.350000
18.358187 4.464309 1.225270 0.040000
11.058927 1.264978 0.914320 0.550000
16.794132 0.244105 1.070498 0.000000
12.946229 -1.189402 0.935123 0.100000
13.401028 -2.740984 0.935543 0.010000
11.145827 -3.524039 0.851744 0.160000
13.654573 -6.576807 0.921945 0.020000
7.628881 2.387327 0.134531 0.090000
7.859087 1.596615 0.127193 0.030000
7.943637 0.838100 0.124594 0.100000
8.017530 0.114406 0.117096 0.030000
7.891640 -0.623136 0.114026 0.030000
7.670180 -1.332521 0.115811 0.030000
7.388865 -2.047998 0.102417 0.040000
6.992259 -2.750718 0.098769 0.070000
8.145635 2.616874 1.606748 0.460000
11.046101 1.271030 1.924320 0.630000
40.498451 0.584789 6.138691 0.070000
45.473473 -4.938236 6.766153 0.090000
40.945366 -9.698762 6.181631 0.030000
11.324882 -3.629735 1.971830 0.050000
8.073630 2.568329 0.831372 0.390000
18.358465 4.459570 1.155252 0.040000
11.034119 1.259631 0.879235 0.600000
16.754393 0.238563 1.010373 0.000000
12.931336 -1.189541 0.895083 0.100000
13.406144 -2.740721 0.890557 0.010000
11.156013 -3.528716 0.816753 0.130000
13.634516 -6.567006 0.871929 0.020000
7.410660 2.293150 0.128611 0.090000
7.625281 1.532126 0.126343 0.040000
7.724266 0.803911 0.118894 0.090000
7.807570 0.110384 0.116533 0.030000
7.661108 -0.597546 0.113519 0.030000
7.474175 -1.281247 0.110490 0.030000
7.167086 -1.957229 0.102175 0.030000
6.790010 -2.634552 0.093673 0.080000
8.145809 2.611987 1.576730 0.480000
11.071187 1.271639 1.889387 0.680000
40.523865 0.585862 5.978760 0.070000
45.634258 -4.954554 6.601511 0.170000
38.846035 -9.167188 5.718122 0.030000
11.314905 -3.624760 1.926822 0.050000
8.058889 2.558136 0.806295 0.410000
18.328844 4.449258 1.085136 0.040000
11.029211 1.259665 0.844222 0.740000
16.719555 0.238115 0.950279 0.000000
12.931454 -1.189373 0.850084 0.100000
16.571611 -3.520290 0.910922 0.020000
11.136024 -3.523951 0.776718 0.110000
15.722955 -7.767129 0.847919 0.080000
7.167622 2.188477 0.127588 0.100000
7.416291 1.478132 0.120596 0.040000
7.494788 0.774511 0.118186 0.090000
7.577530 0.110997 0.110935 0.040000
7.460584 -0.571364 0.108093 0.040000
7.227976 -1.220951 0.110071 0.030000
7.015978 -1.900095 0.096993 0.040000
6.597938 -2.528212 0.093567 0.080000
8.140875 2.611984 1.551717 0.470000
56.994286 15.239647 8.596252 0.110000
11.026396 1.265927 1.849249 0.820000
40.534241 0.586593 5.833788 0.070000
45.925213 -4.983510 6.472161 0.090000
38.806171 -9.152362 5.558072 0.030000
11.335089 -3.629246 1.891858 0.070000
8.063871 2.563343 0.776327 0.500000
13.135679 3.025209 0.886284 0.020000
11.014318 1.259526 0.804183 0.770000
13.350198 0.189000 0.826301 0.000000
12.926572 -1.189302 0.805071 0.080000
16.616951 -3.529204 0.851006 0.020000
11.151127 -3.523515 0.736759 0.130000
15.672450 -7.732870 0.787914 0.500000
6.994009 2.115157 0.121862 0.110000
7.202385 1.419025 0.119818 0.040000
7.300303 0.745781 0.117571 0.100000
7.362570 0.106879 0.110359 0.040000
7.210043 -0.546176 0.112533 0.040000
7.032054 -1.174695 0.109732 0.040000
6.809387 -1.819037 0.096755 0.040000
6.446146 -2.436103 0.093513 0.080000
8.136050 2.607001 1.521686 0.440000
57.054382 15.266627 8.371507 0.080000
11.056386 1.271631 1.814348 0.780000
40.544369 0.602376 5.673872 0.060000
45.955307 -4.962252 6.287316 0.180000
39.584728 -9.322261 5.499472 0.020000
11.314922 -3.614465 1.846860 0.100000
8.053938 2.563244 0.751301 0.640000
13.130715 3.030298 0.836290 0.030000
11.034310 1.265038 0.769255 0.670000
13.320225 0.193591 0.781239 0.000000
12.991664 -1.187908 0.765246 0.080000
16.637104 -3.528598 0.791060 0.020000
11.156230 -3.523271 0.696773 0.150000
15.712804 -7.741860 0.722985 2.254000
6.805482 2.036533 0.121078 0.110000
6.998382 1.365108 0.119085 0.040000
7.100737 0.721973 0.111962 0.100000
7.167511 0.108144 0.109854 0.040000
7.049607 -0.524226 0.107196 0.040000
6.841036 -1.123345 0.109424 0.040000
6.658170 -1.756922 0.096591 0.040000
6.294449 -2.348993 0.093441 0.070000
8.140923 2.617188 1.496736 0.240000
57.108906 15.323506 8.146858 0.070000
11.016498 1.271013 1.774241 0.730000
40.534325 0.627793 5.508938 0.070000
45.965103 -4.926398 6.107473 0.090000
38.911156 -9.109262 5.263503 0.040000
11.350008 -3.613664 1.811954 0.060000
8.058825 2.573449 0.721351 0.650000
13.105742 3.034986 0.791242 0.030000
11.014309 1.269785 0.734220 0.680000
13.325150 0.203853 0.736289 0.000000
13.041772 -1.186784 0.720380 0.090000
16.697250 -3.527225 0.731222 0.020000
11.140954 -3.503413 0.656806 0.190000
15.697497 -7.716911 0.658037 8.685000
6.641675 1.973403 0.115415 0.120000
6.814183 1.321573 0.118443 0.040000
6.926057 0.703625 0.111437 0.100000
6.992461 0.109810 0.104403 0.040000
6.844070 -0.498158 0.106756 0.040000
6.725399 -1.090535 0.104244 0.030000
6.466577 -1.675577 0.096394 0.040000
6.152764 -2.261672 0.088396 0.070000
8.135906 2.622203 1.466741 0.200000
57.113560 15.374466 7.912057 0.060000
11.036298 1.286524 1.739350 0.870000
36.081108 0.590049 4.802166 0.030000
52.322433 -5.591908 6.706600 0.210000
38.971249 -9.092558 5.113720 0.030000
11.344934 -3.603595 1.766978 0.060000
8.048891 2.573351 0.696325 0.700000
18.025303 4.409464 0.804192 0.060000
11.039217 1.280410 0.694324 0.530000
13.315078 0.213826 0.691300 0.000000
13.061694 -1.176235 0.675471 0.050000
11.135868 -3.493362 0.616830 0.280000
6.477856 1.910254 0.114753 0.120000
6.654897 1.283534 0.112885 0.040000
6.756376 0.685372 0.110927 0.100000
6.812399 0.111362 0.103939 0.040000
6.713629 -0.475634 0.101499 0.040000
6.519275 -1.034491 0.108914 0.030000
6.320358 -1.613366 0.096243 0.040000
6.016160 -2.179274 0.088345 0.070000
8.130890 2.627217 1.436747 0.150000
47.073624 12.617216 6.370585 0.040000
11.031307 1.291576 1.699355 0.800000
36.120686 0.631309 4.667422 0.050000
13.153767 -1.193967 1.900658 0.010000
39.733997 -9.217679 5.035245 0.030000
11.364843 -3.593065 1.727068 0.060000
8.048765 2.583442 0.671362 0.740000
17.925396 4.412790 0.738943 0.060000
13.046418 -1.156378 0.635504 0.040000
13.406000 -2.694708 0.615724 0.020000
11.135672 -3.478235 0.581885 0.240000
6.304134 1.841915 0.114045 0.110000
6.475684 1.240076 0.117256 0.040000
6.586696 0.667119 0.110416 0.090000
6.667330 0.113584 0.103569 0.040000
6.548167 -0.453817 0.106148 0.040000
6.378535 -0.997180 0.108686 0.030000
6.174140 -1.551156 0.096093 0.040000
5.869354 -2.087088 0.093305 0.080000
8.135762 2.637404 1.411797 0.190000
50.075916 13.544219 6.561870 0.110000
11.105880 1.318100 1.674648 0.540000
36.144981 0.687279 4.532692 0.060000
13.168593 -1.178515 1.855754 0.040000
39.642818 -9.133805 4.870317 0.020000
11.344473 -3.568304 1.687107 0.040000
84.566353 -47.041924 10.786725 0.040000
8.053555 2.598646 0.641430 0.710000
17.751091 4.384704 0.668383 0.060000
19.013519 0.363372 0.601729 0.000000
13.380560 -2.665006 0.565768 0.050000
11.150581 -3.467801 0.541963 0.200000
6.155216 1.784053 0.113442 0.110000
6.306386 1.201827 0.116672 0.040000
6.432012 0.649153 0.109945 0.080000
6.482256 0.115021 0.108091 0.030000
6.397717 -0.431695 0.105838 0.040000
6.257804 -0.959467 0.103511 0.030000
6.022814 -1.484060 0.100947 0.040000
5.763046 -2.019093 0.088280 0.080000
8.105846 2.636941 1.381717 0.460000
50.010124 13.613723 6.356954 0.150000
11.185464 1.344739 1.644955 0.520000
36.064320 0.741276 4.387681 0.040000
13.143332 -1.158830 1.810760 0.210000
11.298832 -3.529006 1.642133 0.060000
8.023625 2.598165 0.616350 0.680000
13.144684 3.116424 0.606644 0.040000
10.988734 1.319835 0.589338 0.100000
29.495800 0.624721 0.480061 0.000000
13.365311 -2.645112 0.515801 0.020000
11.220864 -3.476310 0.502114 0.230000
5.986384 1.720790 0.117766 0.100000
