# This PCD file was generated using the MATLAB® pcwrite function
# from Computer Vision Toolbox®.
# .PCD v.7 - Point Cloud Data file format
VERSION .7
FIELDS x y z intensity
SIZE 4 4 4 4
TYPE F F F F
COUNT 1 1 1 1
WIDTH 1288
HEIGHT 1
VIEWPOINT 0 0 0 1 0 0 0
POINTS 1288
DATA ascii
43.471676 0.894916 6.657610 0.050000
45.943562 -4.699777 6.928268 0.110000
41.632957 -9.591216 6.358827 0.010000
11.353662 -3.569265 1.997130 0.040000
42.928310 -23.281853 7.136324 0.030000
17.729488 4.397440 1.173379 0.050000
11.137706 1.331554 0.899773 0.070000
31.463219 0.638754 1.480259 0.000000
13.025295 -1.137824 0.920521 0.070000
11.260557 -3.506783 0.837108 0.220000
13.632534 -6.467117 0.897295 0.050000
7.499193 2.369841 0.134128 0.100000
7.758914 1.604698 0.126961 0.040000
7.848271 0.856277 0.124412 0.080000
7.911880 0.147388 0.116943 0.040000
7.795796 -0.579964 0.113936 0.040000
7.614245 -1.283565 0.110847 0.030000
7.302527 -1.979658 0.107445 0.040000
6.930846 -2.676862 0.093883 0.070000
11.075163 1.321633 1.914584 0.400000
43.488270 0.835846 6.487432 0.070000
46.130669 -4.785623 6.768436 0.180000
41.695007 -9.674438 6.193678 0.020000
11.354066 -3.584095 1.952076 0.050000
42.935463 -23.365997 6.936028 0.020000
17.839638 4.399789 1.108675 0.050000
11.053305 1.305079 0.859454 0.180000
13.264073 0.237102 0.896255 0.000000
13.050682 -1.152194 0.880534 0.100000
11.210563 -3.502612 0.801992 0.240000
13.617955 -6.482216 0.847201 0.020000
7.305967 2.276142 0.128275 0.100000
7.535215 1.535420 0.121120 0.040000
7.609096 0.811707 0.118622 0.090000
7.722120 0.133770 0.111397 0.030000
7.585465 -0.563971 0.108447 0.040000
7.378331 -1.238075 0.110400 0.030000
7.121328 -1.918099 0.102201 0.030000
6.723777 -2.570810 0.093737 0.070000
11.035671 1.301038 1.869404 0.680000
43.524651 0.787139 6.322344 0.040000
46.031853 -4.821825 6.578041 0.070000
41.726353 -9.723296 6.043577 0.020000
11.349363 -3.594040 1.912026 0.050000
13.077008 4.774193 0.947633 0.120000
17.899893 4.396180 1.043818 0.050000
11.063586 1.295403 0.824445 0.320000
13.299471 0.222943 0.851295 0.010000
13.061085 -1.166832 0.835506 0.100000
16.751547 -3.511751 0.886423 0.010000
11.165497 -3.493308 0.756909 0.250000
15.706586 -7.692338 0.823154 0.150000
7.082925 2.171852 0.127305 0.120000
7.321405 1.471313 0.120323 0.040000
7.444619 0.783570 0.113088 0.090000
7.482260 0.124174 0.110735 0.040000
7.355124 -0.548379 0.107903 0.040000
7.152319 -1.187394 0.109998 0.030000
6.930036 -1.851732 0.096949 0.030000
6.567190 -2.488775 0.088633 0.070000
57.011234 15.410295 8.516930 0.160000
11.030955 1.291074 1.834354 0.740000
40.562599 0.682410 5.764218 0.070000
46.018341 -4.876488 6.412801 0.090000
39.547653 -9.228321 5.599725 0.030000
11.344647 -3.604003 1.876976 0.060000
13.082413 4.759459 0.902592 0.080000
13.130145 3.055163 0.871381 0.020000
11.038860 1.285038 0.794341 0.450000
13.046397 -1.176950 0.790430 0.090000
16.651531 -3.503445 0.826192 0.020000
11.170970 -3.513078 0.721849 0.190000
15.686951 -7.702477 0.758064 0.690000
6.899506 2.088342 0.121516 0.110000
7.132507 1.412704 0.114612 0.040000
7.210320 0.744058 0.117330 0.100000
7.297391 0.115632 0.110221 0.040000
7.129674 -0.527712 0.112392 0.040000
6.946399 -1.141330 0.109632 0.040000
6.758822 -1.790000 0.096731 0.040000
6.365107 -2.382645 0.093500 0.080000
57.077808 15.362441 8.276923 0.060000
11.031251 1.281224 1.794318 0.780000
40.538597 0.652531 5.604042 0.080000
45.944450 -4.907175 6.212492 0.160000
39.543770 -9.262778 5.429585 0.020000
11.329767 -3.604123 1.831937 0.070000
14.689624 5.445452 0.884337 0.080000
13.120469 3.045160 0.821318 0.030000
11.029159 1.274997 0.754278 0.740000
12.991525 -1.177836 0.745283 0.080000
16.661985 -3.518009 0.761164 0.020000
11.135902 -3.503583 0.676793 0.180000
15.707500 -7.721848 0.693045 2.919000
6.725976 2.010005 0.120771 0.110000
6.913685 1.348483 0.118802 0.040000
7.040844 0.715825 0.111782 0.100000
7.082527 0.106516 0.109626 0.040000
6.969334 -0.510761 0.107036 0.040000
6.795770 -1.109191 0.104358 0.040000
6.577514 -1.723461 0.096505 0.040000
6.238802 -2.315034 0.088422 0.080000
57.084007 15.333435 8.036829 0.060000
11.041436 1.276547 1.759326 0.810000
40.514511 0.627671 5.438885 0.070000
45.930237 -4.921753 6.022399 0.110000
38.861305 -9.104885 5.173388 0.040000
11.345157 -3.618685 1.791922 0.060000
14.655170 5.425009 0.824171 0.250000
13.140692 3.040730 0.771354 0.020000
11.009459 1.264764 0.714188 0.680000
12.951745 -1.183434 0.700157 0.050000
16.652336 -3.527976 0.701102 0.020000
11.166385 -3.522856 0.636800 0.190000
15.647298 -7.702760 0.627958 4.119000
6.567360 1.936973 0.115086 0.120000
6.754591 1.300446 0.113208 0.040000
6.851359 0.687191 0.111181 0.090000
6.907573 0.103183 0.104157 0.040000
6.783986 -0.494308 0.106613 0.040000
6.640128 -1.077166 0.104071 0.030000
6.401206 -1.656826 0.096293 0.040000
6.097295 -2.237731 0.088340 0.080000
57.115284 15.299890 7.801784 0.070000
11.026640 1.271409 1.719268 0.900000
40.365200 0.615469 5.258448 0.040000
52.268974 -5.657540 6.596215 0.180000
38.856972 -9.119439 5.028321 0.030000
11.345261 -3.618536 1.751923 0.060000
14.650507 5.415119 0.769121 0.180000
13.135905 3.035802 0.726323 0.020000
11.014548 1.264990 0.679202 0.710000
12.956862 -1.183171 0.655171 0.060000
16.652493 -3.527753 0.641102 0.020000
11.211864 -3.541842 0.596848 0.230000
6.438451 1.879512 0.109536 0.100000
6.580485 1.252103 0.112574 0.040000
6.676775 0.663843 0.110639 0.090000
6.757601 0.100310 0.103755 0.040000
6.633726 -0.482183 0.106266 0.040000
6.469298 -1.035430 0.103780 0.030000
6.244989 -1.594807 0.096115 0.040000
5.955789 -2.160427 0.088258 0.080000
7.744582 2.440024 1.370042 0.000000
57.101501 15.270518 7.556636 0.080000
11.046714 1.271904 1.689322 0.780000
36.197624 0.537950 4.617275 0.020000
57.410221 -6.250611 6.997435 0.260000
39.374805 -9.249197 4.934190 0.030000
11.340380 -3.618464 1.706910 0.070000
84.324211 -47.482372 10.984457 0.060000
18.299734 4.455077 0.710077 0.050000
11.024638 1.265312 0.644229 0.590000
17.050137 0.255623 0.631204 0.000000
13.017147 -1.191871 0.615296 0.040000
16.652746 -3.532529 0.581084 0.020000
11.212051 -3.546711 0.561830 0.150000
6.259909 1.801061 0.113778 0.100000
6.436279 1.209334 0.112039 0.030000
6.522187 0.640879 0.110150 0.090000
6.577634 0.096863 0.103272 0.030000
6.498382 -0.464754 0.100978 0.040000
6.313560 -0.998406 0.103512 0.030000
6.103961 -1.542498 0.095942 0.040000
5.804079 -2.073335 0.093186 0.080000
7.729854 2.429850 1.339965 0.000000
57.147148 15.272310 7.306759 0.070000
11.016933 1.266498 1.644224 0.990000
36.257965 0.539600 4.482437 0.030000
40.611206 -4.344431 4.895649 0.200000
39.335064 -9.239332 4.764121 0.020000
11.350482 -3.618124 1.666937 0.070000
13.136250 3.031156 0.631305 0.020000
11.009841 1.260174 0.604171 0.730000
13.047355 -1.196128 0.570358 0.040000
16.763456 -3.560193 0.521270 0.030000
11.262543 -3.565582 0.516891 0.240000
6.086283 1.727723 0.113052 0.100000
6.257162 1.160877 0.116391 0.040000
6.352602 0.617627 0.109621 0.090000
6.412652 0.093684 0.107830 0.030000
6.312924 -0.443320 0.105573 0.040000
6.193008 -0.970710 0.103300 0.030000
5.947732 -1.480498 0.100765 0.050000
5.682760 -2.005647 0.093121 0.080000
7.794402 2.456146 1.325231 0.010000
57.142952 15.263089 7.071712 0.070000
11.032022 1.266915 1.609264 0.930000
36.218338 0.539355 4.342331 0.050000
39.774826 -4.244496 4.638835 0.180000
39.260033 -9.215160 4.599013 0.010000
11.325413 -3.608438 1.621907 0.060000
14.690669 5.431533 0.594285 0.020000
13.121383 3.031055 0.581266 0.020000
11.029833 1.265686 0.569243 0.790000
13.330850 0.194675 0.541268 0.000000
13.152740 -1.208947 0.525585 0.050000
5.927545 1.659652 0.117385 0.100000
6.117859 1.123202 0.115888 0.030000
6.203000 0.594739 0.114145 0.080000
6.247683 0.090524 0.107388 0.040000
6.162569 -0.426197 0.105245 0.040000
6.072360 -0.938015 0.103106 0.030000
5.836890 -1.437613 0.100635 0.050000
5.571548 -1.942747 0.088064 0.080000
7.734984 2.430132 1.289979 0.030000
57.163589 15.264383 6.826768 0.070000
11.037125 1.267159 1.569278 1.020000
35.204193 0.520864 4.084613 0.040000
39.810307 -4.248268 4.488912 0.110000
11.315423 -3.603481 1.581899 0.060000
14.690908 5.426739 0.539268 0.090000
13.121500 3.031222 0.536266 0.030000
11.019926 1.265625 0.534217 0.780000
13.315983 0.194574 0.491229 0.000000
13.182961 -1.213186 0.475648 0.060000
25.642525 -5.739558 0.271343 0.040000
11.217363 -3.546169 0.441844 0.110000
5.788625 1.601981 0.116808 0.090000
5.968653 1.080337 0.115339 0.030000
6.048316 0.576774 0.113675 0.080000
6.112708 0.087939 0.107026 0.030000
6.052302 -0.413307 0.105005 0.040000
5.936714 -0.905607 0.102873 0.030000
5.741155 -1.399421 0.095527 0.040000
5.475417 -1.884578 0.088029 0.080000
7.809434 2.461618 1.275290 0.090000
57.193596 15.295789 6.601961 0.060000
11.017220 1.266906 1.534225 0.920000
35.134190 0.540040 3.944500 0.040000
41.113029 -4.373212 4.456848 0.190000
40.209778 -9.421145 4.365724 0.010000
11.335524 -3.602950 1.541953 0.050000
14.700680 5.447149 0.479368 0.070000
13.126438 3.041502 0.486317 0.020000
11.019935 1.270773 0.494236 0.680000
18.460468 0.288610 0.370005 0.000000
13.197870 -1.202752 0.435725 0.040000
13.402137 -2.723999 0.400603 0.030000
11.106530 -3.498137 0.401733 0.150000
11.349936 -5.233635 0.355917 0.100000
5.704325 1.565379 0.111452 0.090000
5.834240 1.047739 0.119867 0.040000
5.953539 0.564975 0.108383 0.080000
6.007632 0.090927 0.106762 0.040000
5.932037 -0.400608 0.104738 0.050000
5.841266 -0.882413 0.097710 0.030000
5.630217 -1.351538 0.095415 0.050000
5.379284 -1.826409 0.087995 0.080000
7.749920 2.440603 1.240057 0.310000
50.032131 13.351811 5.616031 0.070000
11.027118 1.277226 1.499289 1.050000
35.153839 0.575881 3.819683 0.060000
13.174689 -1.207670 1.655659 0.050000
40.304745 -9.398809 4.226054 0.020000
11.320248 -3.583092 1.501987 0.080000
48.219563 -26.434381 5.313398 0.020000
13.063795 4.750769 0.447507 0.040000
13.106463 3.046285 0.441282 0.030000
11.034832 1.281188 0.459313 0.520000
13.315835 0.214904 0.401303 0.000000
13.172705 -1.188066 0.390714 0.040000
19.481981 -4.197105 0.215995 0.010000
11.106443 -3.487990 0.361770 0.270000
11.309377 -5.199259 0.315938 0.130000
5.570295 1.512784 0.115906 0.100000
5.729656 1.025750 0.114512 0.030000
5.843751 0.552870 0.108052 0.090000
5.897653 0.088820 0.106468 0.030000
5.841671 -0.382335 0.104570 0.050000
5.725604 -0.849640 0.102530 0.030000
5.539467 -1.313269 0.095320 0.060000
5.313543 -1.787643 0.082967 0.090000
7.700295 2.424760 1.209868 0.520000
49.986977 13.386668 5.421040 0.140000
11.027018 1.287354 1.464326 0.980000
35.198692 0.602221 3.689897 0.050000
13.154619 -1.197888 1.610643 0.300000
40.254185 -9.349219 4.076104 0.000000
11.320160 -3.572945 1.462024 0.110000
48.390629 -26.460377 5.113746 0.030000
13.088442 4.776429 0.397666 0.040000
13.116292 3.061641 0.396364 0.050000
11.024734 1.291125 0.424323 0.320000
13.255772 0.223921 0.356179 0.000000
13.127543 -1.173764 0.345649 0.050000
16.461983 -3.444865 0.225909 0.020000
11.081060 -3.463343 0.326795 0.260000
11.278913 -5.169691 0.275968 0.260000
5.505703 1.491562 0.110659 0.090000
5.630058 1.003839 0.114171 0.040000
5.728951 0.540651 0.112707 0.090000
5.817585 0.092306 0.101271 0.030000
5.731404 -0.369444 0.104330 0.050000
5.675256 -0.830565 0.092469 0.040000
5.463824 -1.279693 0.090248 0.050000
5.227505 -1.734281 0.082941 0.090000
7.715057 2.440119 1.189963 0.500000
49.941723 13.431652 5.191087 0.160000
11.061815 1.303152 1.429475 0.580000
35.213287 0.643021 3.550085 0.040000
13.084297 -1.174029 1.555547 0.260000
17.864748 -3.819446 1.968196 0.000000
11.294804 -3.548261 1.417049 0.120000
48.490597 -26.427668 4.899126 0.020000
17.095627 6.549073 0.254714 0.020000
10.984723 1.295469 0.394235 0.200000
13.132360 -1.158522 0.305717 0.030000
13.396724 -2.683600 0.265738 0.040000
11.080864 -3.448216 0.291851 0.210000
11.298821 -5.159161 0.236059 0.170000
5.391491 1.449367 0.110204 0.090000
5.555373 0.987424 0.108914 0.030000
5.649075 0.534138 0.107474 0.070000
5.717508 0.095390 0.101022 0.030000
5.651145 -0.355961 0.099171 0.050000
5.584794 -0.807293 0.092320 0.040000
5.388167 -1.246136 0.090175 0.050000
5.146466 -1.680824 0.082928 0.080000
7.705028 2.445019 1.164955 0.510000
49.965546 13.517766 5.016468 0.080000
11.146385 1.329868 1.404795 0.640000
35.042702 0.690239 3.419814 0.050000
11.836542 -1.022385 1.412852 0.390000
17.834145 -3.779805 1.908263 0.000000
11.329683 -3.537482 1.387180 0.100000
51.056320 -27.748837 4.920912 0.020000
14.694639 5.532874 0.254669 0.040000
15.209997 3.692419 0.249173 0.030000
10.989527 1.310692 0.359303 0.140000
15.579975 0.309016 0.207561 0.010000
13.371271 -2.653917 0.220781 0.030000
11.125960 -3.447206 0.251972 0.190000
5.306986 1.422744 0.109884 0.090000
5.475675 0.970895 0.108645 0.030000
5.569186 0.527607 0.107241 0.080000
5.632332 0.103760 0.100830 0.030000
5.580870 -0.342304 0.099038 0.050000
5.514328 -0.783638 0.092224 0.040000
5.312415 -1.207580 0.090121 0.050000
5.095709 -1.641789 0.082941 0.110000
7.699794 2.459995 1.144997 0.670000
30.307247 8.022054 3.104705 0.020000
11.156175 1.345168 1.374877 0.530000
31.518530 0.669191 3.015532 0.010000
11.901417 -1.011031 1.383064 0.320000
17.873909 -3.758820 1.848444 0.000000
11.329405 -3.517337 1.347253 0.050000
51.114899 -27.641853 4.691461 0.040000
13.429663 4.998571 0.244381 0.050000
14.359055 3.476175 0.221147 0.040000
10.969334 1.325436 0.324305 0.110000
14.439940 0.302237 0.189559 0.010000
13.109769 -2.573802 0.190396 0.050000
11.236619 -3.474944 0.212157 0.150000
11.045410 -4.973724 0.166086 0.060000
5.237479 1.396408 0.109605 0.100000
5.405879 0.959556 0.108421 0.030000
5.474299 0.520789 0.106968 0.070000
5.572260 0.107629 0.095688 0.030000
5.505597 -0.328744 0.098892 0.050000
5.428769 -0.755272 0.092106 0.030000
5.246757 -1.173832 0.090075 0.070000
5.029859 -1.598042 0.082931 0.110000
7.699667 2.470086 1.120034 0.700000
30.316313 8.087679 2.984971 0.020000
11.145898 1.365122 1.334924 0.570000
31.422819 0.722825 2.890481 0.020000
11.841053 -0.987036 1.342995 0.410000
18.029106 -3.760664 1.798842 0.000000
51.128105 -27.520864 4.496943 0.060000
12.734910 4.720272 0.226533 0.060000
13.368744 3.222164 0.217618 0.050000
10.954032 1.345257 0.294339 0.160000
13.639624 0.311929 0.182506 0.010000
12.059114 -0.988771 0.228546 0.020000
12.370800 -2.372900 0.184214 0.040000
10.549479 -4.668150 0.160927 0.050000
5.172791 1.380185 0.104376 0.100000
5.321183 0.942931 0.108138 0.030000
5.414324 0.519658 0.101807 0.070000
5.497179 0.111191 0.095505 0.030000
5.415230 -0.310471 0.098724 0.050000
5.363302 -0.731521 0.092023 0.030000
5.191192 -1.144891 0.090037 0.080000
4.979115 -1.558989 0.077944 0.130000
7.714238 2.495443 1.100166 0.730000
18.346857 4.696567 1.926111 0.010000
11.140580 1.385115 1.309984 0.540000
31.396622 0.797667 2.800690 0.060000
11.860648 -0.961546 1.313141 0.670000
18.083735 -3.734449 1.754081 0.000000
51.170498 -27.359364 4.317652 0.030000
12.104558 4.473192 0.213969 0.070000
12.666872 3.053729 0.205160 0.050000
10.938826 1.360078 0.264354 0.180000
12.804397 0.315934 0.180341 0.010000
11.822766 -2.218332 0.173358 0.040000
10.993920 -3.329383 0.162064 0.050000
10.240647 -4.468975 0.145862 0.060000
5.108187 1.358944 0.104128 0.100000
5.256400 0.931707 0.102927 0.030000
5.354335 0.518509 0.101647 0.040000
5.436998 0.120040 0.095381 0.030000
5.375059 -0.301220 0.093653 0.190000
5.297835 -0.707771 0.091940 0.040000
5.135640 -1.115931 0.085000 0.090000
4.938548 -1.529761 0.077947 0.100000
7.699101 2.505228 1.080162 0.520000
18.157171 4.688189 1.855584 0.010000
11.185062 1.416064 1.285215 0.490000
31.460587 0.864215 2.716103 0.010000
11.830267 -0.936995 1.278152 0.710000
18.218636 -3.721698 1.709480 0.000000
33.347408 -11.752245 2.774129 0.030000
11.518910 4.241972 0.201580 0.070000
12.094400 2.917778 0.193160 0.060000
10.978309 1.390932 0.239571 0.110000
12.274138 0.325817 0.168994 0.010000
11.963126 -0.930398 0.173512 0.050000
11.360183 -2.087149 0.167638 0.050000
10.595462 -3.151965 0.156684 0.040000
9.941788 -4.269645 0.140822 0.050000
5.063291 1.353083 0.103989 0.090000
5.191494 0.925444 0.107734 0.030000
5.299345 0.517456 0.101499 0.040000
5.371915 0.123795 0.095225 0.020000
5.334779 -0.286989 0.093601 0.490000
5.237463 -0.688924 0.091853 0.050000
5.090170 -1.091798 0.084971 0.100000
4.908087 -1.505321 0.072958 0.110000
7.683869 2.520012 1.060177 0.490000
31.429173 0.948922 2.636335 0.020000
11.809761 -0.907291 1.253209 0.740000
18.358305 -3.698909 1.679929 0.000000
33.380707 -11.651278 2.689591 0.020000
11.081880 4.083592 0.194851 0.060000
11.656220 2.819387 0.186650 0.050000
11.012696 1.426688 0.214794 0.130000
11.823757 0.342213 0.162879 0.010000
10.972873 -1.969528 0.162064 0.050000
10.272578 -3.003086 0.146394 0.040000
9.612741 -4.060891 0.135739 0.050000
4.998686 1.331842 0.103742 0.090000
5.146516 0.924601 0.102614 0.030000
5.254258 0.521593 0.101397 0.040000
5.306735 0.132548 0.095087 0.020000
5.289500 -0.272854 0.093535 0.200000
5.171887 -0.660193 0.096789 0.050000
5.059696 -1.067377 0.084982 0.110000
4.877518 -1.475902 0.072988 0.110000
7.663733 2.529702 1.040161 0.660000
31.452652 1.039681 2.556733 0.070000
11.824248 -0.876916 1.228359 0.770000
18.668804 -3.717856 1.650669 0.000000
33.328293 -11.511890 2.589971 0.010000
10.669653 3.935690 0.188225 0.080000
11.242857 2.731492 0.175244 0.060000
11.116906 1.473821 0.180240 0.070000
11.483355 0.360715 0.157059 0.010000
11.185533 -0.800212 0.156966 0.020000
10.676025 -1.875178 0.156640 0.050000
10.045334 -2.887399 0.141231 0.040000
9.394730 -3.905020 0.130750 0.060000
4.978607 1.336476 0.098706 0.080000
5.106619 0.918836 0.102488 0.030000
5.199172 0.525539 0.101268 0.030000
5.286561 0.142181 0.090071 0.010000
5.219130 -0.254198 0.093421 0.080000
5.151617 -0.645560 0.091790 0.050000
5.019225 -1.043148 0.084966 0.110000
4.846949 -1.446482 0.073017 0.140000
7.673182 2.559925 1.030298 0.660000
31.391012 1.133755 2.491921 0.080000
11.838723 -0.846560 1.208510 0.660000
13.380013 -2.477660 1.296470 0.000000
13.446213 -4.106717 1.300588 0.010000
13.585383 -6.154542 1.328339 0.010000
10.366556 3.834904 0.177059 0.080000
10.904070 2.664992 0.174113 0.050000
11.143047 0.374219 0.151221 0.010000
10.894450 -0.745759 0.151409 0.020000
10.419361 -1.790060 0.151286 0.050000
9.833279 -2.781423 0.136071 0.050000
9.176812 -3.754149 0.125742 0.060000
4.933712 1.330616 0.098567 0.070000
5.071530 0.923165 0.102413 0.020000
5.174094 0.530078 0.096219 0.040000
5.236365 0.151203 0.094973 0.010000
5.173838 -0.240082 0.098355 0.050000
5.121335 -0.631138 0.091765 0.060000
4.988751 -1.018727 0.084978 0.120000
4.826474 -1.421870 0.073055 0.140000
7.657842 2.579689 1.015331 0.700000
31.354273 1.233308 2.427195 0.130000
11.868195 -0.815917 1.188700 0.730000
13.424495 -2.446712 1.271701 0.010000
13.445416 -4.061633 1.275753 0.010000
13.523653 -6.060597 1.298526 0.030000
10.122956 3.760244 0.171145 0.050000
10.600099 2.609179 0.168112 0.070000
10.846530 1.493719 0.159608 0.030000
10.887521 0.399329 0.150647 0.010000
10.648346 -0.690462 0.150972 0.020000
10.242970 -1.718407 0.146092 0.060000
9.666407 -2.684584 0.130996 0.050000
9.009353 -3.627334 0.125776 0.060000
4.923535 1.340441 0.093577 0.070000
5.031538 0.922399 0.102305 0.020000
5.133897 0.539291 0.101148 0.040000
5.196181 0.160435 0.094903 0.010000
5.153567 -0.225449 0.093357 0.040000
5.095956 -0.611620 0.091771 0.060000
4.968372 -0.999114 0.084997 0.150000
4.806012 -1.397239 0.068093 0.130000
7.667195 2.614911 1.005486 0.260000
13.191349 3.449700 1.338012 0.000000
31.332216 1.348107 2.372563 0.080000
11.902556 -0.780198 1.173923 0.680000
13.333236 -2.378356 1.246717 0.020000
13.469602 -4.016088 1.255985 0.010000
13.542661 -6.005132 1.273782 0.040000
7.971060 2.778418 0.281880 0.140000
10.385631 2.580084 0.162444 0.060000
10.651484 1.495002 0.154104 0.020000
10.691996 0.425608 0.145234 0.010000
10.502428 -0.643230 0.145766 0.020000
10.081672 -1.651466 0.140920 0.050000
9.534815 -2.602071 0.125959 0.050000
8.887472 -3.529632 0.120821 0.070000
4.858821 1.324180 0.098348 0.070000
5.011458 0.927033 0.097270 0.020000
5.103806 0.543716 0.101086 0.040000
5.185991 0.170242 0.094912 0.010000
5.118273 -0.211141 0.098318 0.040000
5.060580 -0.592295 0.091750 0.080000
4.973096 -0.984003 0.080066 0.140000
4.785523 -1.372645 0.073131 0.130000
7.636940 2.629371 0.995461 0.180000
13.220329 3.505320 1.323295 0.010000
13.210006 1.959941 1.292523 0.040000
13.241799 0.565395 1.262421 0.050000
11.941905 -0.744401 1.164158 0.580000
13.438318 -3.946602 1.236161 0.000000
13.536372 -5.935167 1.254025 0.030000
7.925903 2.787591 0.271796 0.210000
10.215854 2.566830 0.161951 0.060000
10.451521 1.491172 0.153568 0.020000
10.551556 0.447940 0.139951 0.010000
10.356593 -0.601016 0.145543 0.020000
9.965544 -1.593680 0.140832 0.060000
9.438492 -2.533904 0.125961 0.050000
8.765373 -3.421970 0.125903 0.070000
4.838729 1.328796 0.098313 0.070000
4.996270 0.936744 0.097267 0.020000
5.083632 0.553349 0.096069 0.030000
5.160721 0.184779 0.089900 0.010000
5.102989 -0.196431 0.098333 0.040000
5.055294 -0.577393 0.091792 0.080000
4.962824 -0.969178 0.075094 0.140000
4.780154 -1.352726 0.068191 0.130000
7.641281 2.664479 0.990603 0.150000
13.144725 3.538951 1.303222 0.040000
13.214086 2.010083 1.277719 0.100000
13.230966 0.610232 1.252560 0.070000
11.725021 -1.948658 1.129115 0.020000
13.519978 -5.860413 1.239260 0.020000
10.056075 2.553768 0.161486 0.070000
10.331161 1.508870 0.153319 0.020000
10.415910 0.480348 0.139717 0.010000
10.255762 -0.557921 0.140440 0.020000
9.899611 -1.544916 0.135841 0.060000
9.332074 -2.460929 0.125954 0.060000
8.714150 -3.357921 0.121007 0.070000
4.833456 1.343716 0.093354 0.060000
4.961167 0.941054 0.102191 0.020000
5.063444 0.562964 0.096052 0.030000
5.102810 -0.186414 0.093369 0.030000
5.050020 -0.562473 0.086834 0.080000
4.942431 -0.949584 0.080114 0.160000
4.784865 -1.337633 0.068260 0.130000
7.615928 2.684033 0.980609 0.170000
13.178269 2.054460 1.262791 0.080000
13.215050 0.659991 1.237703 0.040000
11.623834 -1.885530 1.114086 0.030000
13.451273 -3.836242 1.211605 0.000000
13.523661 -5.790293 1.229531 0.020000
7.959307 2.873302 0.257201 0.100000
9.950904 2.561755 0.161241 0.070000
10.205800 1.526472 0.153058 0.020000
10.330351 0.508715 0.139599 0.010000
10.195007 -0.519077 0.140425 0.020000
9.823571 -1.491363 0.135842 0.060000
9.291040 -2.406687 0.121049 0.050000
8.647630 -3.279181 0.121126 0.070000
4.818267 1.353427 0.093351 0.060000
4.950895 0.955878 0.097219 0.020000
5.063157 0.577962 0.096107 0.030000
5.145245 0.209487 0.089952 0.010000
5.077528 -0.171896 0.093357 0.030000
5.049829 -0.552475 0.086870 0.070000
4.952155 -0.934376 0.075196 0.150000
4.774484 -1.317829 0.068306 0.130000
7.610367 2.713950 0.975706 0.420000
13.182215 2.109545 1.263006 0.060000
31.243059 1.841927 2.254165 0.060000
12.645406 -0.660950 1.176305 0.440000
11.617986 -1.840615 1.109237 0.110000
13.440138 -3.776427 1.206798 0.000000
13.532440 -5.725077 1.219796 0.020000
7.918945 2.892550 0.252168 0.190000
9.885546 2.580525 0.156140 0.070000
10.170341 1.550816 0.148056 0.020000
10.249696 0.542176 0.139513 0.010000
10.159261 -0.479737 0.135478 0.020000
9.797809 -1.451849 0.135921 0.060000
9.239983 -2.352673 0.126116 0.050000
8.656957 -3.243997 0.121281 0.070000
4.798079 1.363042 0.093334 0.050000
4.940705 0.965685 0.097229 0.020000
5.057870 0.592863 0.096149 0.030000
5.114950 0.223891 0.094926 0.010000
5.097332 -0.161515 0.093448 0.030000
5.039447 -0.532670 0.086917 0.060000
4.961962 -0.924187 0.075259 0.110000
4.784291 -1.307639 0.068370 0.130000
25.502842 11.729106 2.175935 13.746000
13.161273 2.159171 1.258136 0.040000
13.238046 0.765469 1.233155 0.020000
12.644556 -0.615940 1.171470 0.580000
11.536781 -1.777123 1.099261 0.110000
13.443917 -3.711306 1.197050 0.000000
13.505746 -5.635535 1.210059 0.020000
7.883568 2.911876 0.252147 0.170000
9.859879 2.615040 0.156201 0.070000
10.109777 1.579661 0.148005 0.020000
10.239039 0.576996 0.134615 0.010000
10.138497 -0.440127 0.135571 0.020000
9.777060 -1.412221 0.131014 0.060000
9.244325 -2.317566 0.121258 0.050000
7.833043 -2.794917 0.180800 0.040000
4.792793 1.377943 0.093375 0.060000
4.930515 0.975492 0.097239 0.020000
5.037682 0.602478 0.096132 0.030000
5.129769 0.234195 0.090003 0.010000
5.066955 -0.142093 0.093441 0.040000
5.039160 -0.517673 0.086972 0.070000
4.956580 -0.904286 0.075319 0.080000
4.783907 -1.287643 0.068443 0.130000
7.604027 2.783841 0.975949 0.630000
13.130384 3.768809 1.279039 0.000000
13.175134 2.219466 1.253396 0.050000
31.242937 2.112046 2.235169 0.100000
12.578432 -0.557178 1.166516 0.670000
11.525825 -1.727324 1.099418 0.190000
13.457669 -3.646031 1.197329 0.000000
16.805349 -7.173238 1.382957 0.010000
7.902619 2.962268 0.247384 0.090000
9.824216 2.649363 0.156236 0.070000
10.133827 1.630149 0.143255 0.020000
10.233178 0.621892 0.134766 0.010000
10.157824 -0.404751 0.135753 0.020000
9.796385 -1.376845 0.131196 0.050000
9.263650 -2.282189 0.121440 0.050000
8.695621 -3.173225 0.116645 0.070000
4.777604 1.387654 0.093372 0.050000
4.935132 0.995583 0.097326 0.020000
5.037395 0.617475 0.096187 0.030000
5.114484 0.248905 0.090018 0.010000
5.091771 -0.131597 0.088544 0.030000
5.043871 -0.502580 0.087040 0.070000
4.976397 -0.893887 0.070409 0.100000
4.803725 -1.277243 0.063534 0.140000
7.583456 2.813453 0.976005 0.630000
13.148931 3.844159 1.284367 0.010000
13.149180 2.268977 1.253512 0.060000
31.245350 2.247116 2.235677 0.060000
12.582568 -0.512091 1.166694 0.800000
11.514869 -1.677525 1.099574 0.210000
13.426430 -3.581618 1.197487 0.000000
13.523060 -5.495179 1.210626 0.020000
9.293521 3.724389 0.158847 0.100000
9.858168 2.705041 0.151531 0.070000
10.142963 1.675332 0.143447 0.020000
10.272405 0.662650 0.135020 0.010000
10.187051 -0.364184 0.135980 0.020000
9.845800 -1.345893 0.131440 0.050000
9.328159 -2.255949 0.121706 0.050000
8.755336 -3.157061 0.111861 0.070000
4.782219 1.407746 0.093459 0.040000
4.924846 1.010389 0.097354 0.020000
5.047105 0.632664 0.096269 0.030000
5.124195 0.264093 0.090100 0.010000
5.086472 -0.116715 0.093586 0.030000
5.058677 -0.492295 0.087117 0.080000
4.981205 -0.883793 0.070459 0.100000
4.813532 -1.267053 0.063597 0.160000
7.582786 2.848446 0.976134 0.510000
13.122964 3.893652 1.289484 0.070000
13.148113 2.323948 1.258714 0.090000
13.210080 0.919960 1.233656 0.020000
12.576503 -0.457215 1.171882 0.780000
11.528991 -1.632264 1.104779 0.250000
13.501326 -5.405598 1.215902 0.020000
9.342074 3.800332 0.159256 0.090000
9.902010 2.765892 0.151872 0.070000
10.191983 1.726261 0.148764 0.020000
10.336626 0.703888 0.135341 0.010000
10.261462 -0.332753 0.136291 0.020000
9.935305 -1.319174 0.131773 0.060000
9.402858 -2.239516 0.121962 0.050000
8.850510 -3.165239 0.112079 0.070000
4.771934 1.422552 0.093487 0.040000
4.934461 1.030577 0.097454 0.020000
5.071731 0.653157 0.091409 0.030000
5.123908 0.279091 0.090155 0.020000
5.101182 -0.101430 0.093681 0.030000
5.063388 -0.477202 0.087186 0.070000
4.995902 -0.868527 0.075555 0.070000
4.843431 -1.261480 0.063696 0.140000
7.552299 2.872848 0.981145 0.610000
13.106695 3.958316 1.299682 0.040000
13.156840 2.389090 1.268979 0.080000
13.213903 0.980008 1.243890 0.040000
12.585421 -0.402071 1.182111 0.810000
11.553098 -1.586831 1.115011 0.240000
13.438896 -3.451411 1.213004 0.000000
13.530048 -5.340073 1.226221 0.030000
9.380617 3.876065 0.164638 0.090000
10.005362 2.852886 0.152465 0.070000
10.275817 1.787878 0.149212 0.020000
10.435649 0.755793 0.135793 0.010000
10.380782 -0.295443 0.131742 0.020000
10.004813 -1.292838 0.132053 0.060000
9.542940 -2.241815 0.117319 0.050000
8.955490 -3.163228 0.112360 0.070000
4.786452 1.447834 0.093619 0.040000
4.954074 1.050956 0.097581 0.020000
5.061432 0.667944 0.096437 0.030000
5.168529 0.299967 0.085349 0.010000
5.105893 -0.086337 0.093750 0.040000
5.083193 -0.466821 0.087276 0.070000
5.030812 -0.862839 0.070667 0.060000
4.843034 -1.241502 0.068769 0.150000
7.556506 2.912899 0.991305 0.620000
13.110423 4.023362 1.309933 0.020000
13.150761 2.443947 1.279167 0.040000
13.197923 1.029674 1.254032 0.050000
12.574534 -0.357309 1.192249 0.770000
11.592393 -1.551109 1.125247 0.240000
16.148617 -4.215201 1.367239 0.010000
13.493304 -5.250797 1.236457 0.040000
9.513292 3.998628 0.165440 0.100000
10.113795 2.934959 0.158053 0.060000
10.424448 1.860737 0.149871 0.030000
10.579664 0.808561 0.136365 0.010000
10.500172 -0.263169 0.137173 0.020000
10.149581 -1.280082 0.137478 0.060000
9.652906 -2.239727 0.122614 0.050000
9.121225 -3.200061 0.112656 0.080000
4.800971 1.473117 0.093751 0.030000
4.933777 1.065552 0.102582 0.020000
5.081045 0.688324 0.096564 0.030000
5.163229 0.314850 0.090391 0.010000
5.140695 -0.075669 0.093880 0.040000
5.117995 -0.456153 0.087406 0.070000
5.050604 -0.852477 0.075757 0.050000
4.888134 -1.245621 0.063871 0.160000
7.531018 2.937397 0.996329 0.520000
12.623624 -0.311415 1.207548 0.780000
13.436519 -3.331546 1.243443 0.010000
13.506908 -5.180598 1.256754 0.050000
9.611249 4.105505 0.171093 0.090000
10.286654 3.048290 0.158926 0.070000
10.577982 1.938691 0.150562 0.020000
10.733568 0.866500 0.141982 0.010000
10.694465 -0.224442 0.137824 0.020000
10.289159 -1.257423 0.142927 0.060000
9.848145 -2.251008 0.128082 0.050000
9.291851 -3.231817 0.117984 0.070000
4.820392 1.503494 0.093914 0.030000
4.988109 1.101617 0.097858 0.020000
5.085744 0.703398 0.101633 0.030000
5.192936 0.330422 0.090526 0.010000
5.175401 -0.060001 0.094029 0.030000
5.142798 -0.445676 0.087510 0.070000
5.085501 -0.846807 0.075869 0.050000
4.892833 -1.230547 0.068940 0.150000
30.546701 6.578786 2.444958 0.040000
12.647500 -0.256040 1.232816 0.750000
12.568426 -1.607738 1.212585 0.110000
13.415033 -3.257017 1.263664 0.020000
13.485314 -5.101089 1.281993 0.060000
9.778522 4.248715 0.177062 0.090000
10.454502 3.161506 0.164785 0.070000
10.796204 2.032869 0.156481 0.020000
10.977360 0.931162 0.147859 0.010000
10.908824 -0.190367 0.148511 0.020000
10.519115 -1.253018 0.143543 0.050000
10.043491 -2.267270 0.128531 0.050000
9.477583 -3.268266 0.118333 0.070000
4.839813 1.533871 0.094078 0.030000
4.982905 1.111501 0.102881 0.020000
5.130270 0.729274 0.096845 0.030000
5.222548 0.350992 0.090680 0.010000
5.230212 -0.048931 0.089213 0.030000
5.177600 -0.435007 0.087641 0.060000
5.115400 -0.841234 0.075968 0.040000
4.948028 -1.239473 0.064051 0.140000
7.519613 3.007099 1.021559 0.120000
30.484200 6.702446 2.490255 0.070000
11.188755 0.976424 1.183589 0.020000
12.646694 -0.216103 1.247963 0.450000
12.597506 -1.562247 1.232830 0.050000
11.345674 -4.081501 1.175197 0.130000
9.965598 4.402307 0.183121 0.080000
10.701951 3.296251 0.170932 0.060000
11.064223 2.138002 0.162572 0.020000
11.166257 0.989772 0.153570 0.020000
11.203290 -0.159722 0.149393 0.020000
10.794243 -1.257768 0.149244 0.050000
10.279009 -2.292782 0.134051 0.050000
9.688584 -3.319253 0.123694 0.080000
4.844416 1.553945 0.099165 0.040000
5.022323 1.142261 0.103099 0.020000
5.139967 0.744444 0.101927 0.040000
5.247242 0.366450 0.095802 0.010000
5.234911 -0.033857 0.094281 0.030000
5.207390 -0.424453 0.092758 0.070000
5.160391 -0.840372 0.076089 0.040000
4.967806 -1.229129 0.074141 0.140000
7.509001 3.036846 1.036642 0.120000
30.486525 6.832257 2.560744 0.060000
11.237819 1.022280 1.208888 0.060000
12.605691 -0.166953 1.268039 0.460000
13.133124 -1.597197 1.289099 0.120000
11.334474 -4.021779 1.195390 0.180000
10.241618 4.612630 0.184624 0.080000
11.357048 2.253613 0.168766 0.020000
11.190434 1.030169 0.173783 0.070000
11.257474 -0.118732 0.164687 0.030000
11.139465 -1.266158 0.150114 0.050000
10.554711 -2.327526 0.139642 0.050000
9.995335 -3.408412 0.129163 0.070000
4.888641 1.594799 0.099432 0.030000
5.041841 1.167639 0.103244 0.020000
5.189478 0.770397 0.102153 0.040000
5.301849 0.387499 0.096022 0.010000
5.279711 -0.022997 0.094439 0.030000
5.272391 -0.423190 0.087932 0.070000
5.210287 -0.834415 0.076241 0.030000
5.012893 -1.233266 0.074243 0.150000
7.503293 3.071688 1.051757 0.280000
30.483454 6.981949 2.636293 0.220000
11.197104 1.056433 1.228909 1.000000
13.192160 -1.551186 1.324424 0.090000
11.318179 -3.957153 1.215588 0.200000
10.562041 4.853791 0.191357 0.080000
11.345289 3.648597 0.183921 0.070000
11.724570 2.385656 0.175216 0.020000
11.109713 1.063537 0.198697 0.100000
10.901478 -0.075689 0.203918 0.010000
11.489675 -1.274471 0.155997 0.050000
10.342379 -3.511784 0.129685 0.070000
4.888245 1.614777 0.104505 0.040000
5.096064 1.208685 0.103538 0.020000
5.233991 0.796254 0.102365 0.050000
5.321545 0.402861 0.101131 0.010000
5.334413 -0.006947 0.094641 0.030000
5.307180 -0.412540 0.093062 0.060000
5.275383 -0.838151 0.071397 0.040000
5.057885 -1.232404 0.074364 0.160000
7.487777 3.096340 1.066808 0.190000
30.436064 7.095787 2.711594 0.280000
11.156388 1.090586 1.248930 0.180000
19.728638 -4.763275 1.794551 0.000000
11.206231 -3.859353 1.235659 0.150000
11.786073 3.872060 0.190902 0.050000
12.161710 2.539055 0.176927 0.010000
11.103978 1.098342 0.223811 0.100000
10.920738 -0.040406 0.229100 0.020000
11.975242 -1.300194 0.162169 0.050000
11.297133 -2.448366 0.151131 0.040000
10.644020 -3.596058 0.140159 0.100000
4.947289 1.665935 0.099849 0.040000
5.115664 1.229046 0.108665 0.020000
5.328329 0.833103 0.092748 0.240000
5.406159 0.424504 0.096432 0.010000
5.369202 0.003703 0.099772 0.040000
5.382083 -0.406086 0.088282 0.050000
5.330373 -0.837097 0.071544 0.040000
5.107971 -1.236446 0.074479 0.150000
7.496956 3.136450 1.086981 0.130000
16.649050 5.889757 1.791113 0.010000
30.438242 7.230522 2.802101 0.290000
11.165542 1.130658 1.279103 0.230000
13.019774 -1.434632 1.369408 0.040000
19.616241 -4.645571 1.839695 0.000000
11.180008 -3.799954 1.265812 0.260000
11.479866 5.496446 0.206142 0.070000
12.281355 4.121553 0.203123 0.050000
12.703216 2.724404 0.194030 0.010000
10.908526 1.114455 0.263362 0.050000
12.540985 -1.334384 0.168519 0.040000
11.788944 -2.538981 0.157078 0.030000
10.748936 -3.594141 0.165441 0.100000
4.976695 1.696485 0.105040 0.040000
5.174982 1.265188 0.108954 0.020000
5.298104 0.842471 0.107704 0.070000
5.445768 0.445266 0.096613 0.020000
5.464005 0.015539 0.095063 0.050000
5.426966 -0.400244 0.093421 0.050000
5.405550 -0.845659 0.071709 0.040000
5.178341 -1.255101 0.074594 0.140000
7.466622 3.150798 1.106956 0.100000
16.751657 6.006504 1.856815 0.010000
30.400892 7.339478 2.897410 0.170000
11.159793 1.165444 1.309218 0.330000
13.008810 -1.389981 1.409546 0.100000
19.504107 -4.542902 1.894785 0.000000
11.174068 -3.755170 1.295963 0.280000
10.857882 1.143380 0.293337 0.070000
13.759967 0.034185 0.181788 0.020000
13.116605 -1.363420 0.184913 0.050000
10.823651 -3.582818 0.195678 0.080000
5.035630 1.752624 0.105402 0.040000
5.234204 1.306329 0.109262 0.020000
5.372515 0.873902 0.108015 0.110000
5.520371 0.466698 0.096887 0.020000
5.508697 0.031379 0.100239 0.050000
5.501952 -0.398807 0.093622 0.040000
5.450433 -0.839817 0.076848 0.030000
5.243521 -1.263855 0.074731 0.130000
7.460997 3.180622 1.127052 0.130000
29.770975 11.482577 3.066168 0.020000
30.348558 7.448165 2.987678 0.040000
11.139157 1.194962 1.334274 0.300000
31.594931 0.090973 2.898582 0.060000
13.017950 -1.349927 1.444719 0.130000
17.316771 -3.904277 1.781448 0.000000
11.213490 -3.729539 1.331162 0.230000
12.619830 6.288326 0.237061 0.050000
13.564467 4.751164 0.228813 0.050000
14.253987 3.219154 0.209917 0.010000
10.967044 1.185405 0.313779 0.160000
13.160943 -1.332675 0.215144 0.030000
13.114216 -2.803702 0.174553 0.030000
10.888370 -3.571686 0.225889 0.040000
5.079938 1.788460 0.110651 0.040000
5.288523 1.342376 0.109537 0.020000
5.446926 0.905333 0.108326 0.090000
5.579963 0.487825 0.102121 0.020000
5.598501 0.043120 0.095517 0.050000
5.591948 -0.397065 0.088863 0.050000
5.530610 -0.848283 0.077026 0.030000
5.318890 -1.282414 0.074859 0.110000
7.450454 3.205333 1.152117 0.260000
29.698799 11.580828 3.171346 0.010000
30.400949 7.568768 3.103264 0.020000
11.023730 1.212663 1.359039 0.440000
31.522766 0.189242 2.998759 0.070000
13.012189 -1.315160 1.479834 0.160000
17.421103 -3.877513 1.846821 0.000000
11.318449 -3.732694 1.376425 0.300000
11.061181 1.227105 0.344180 0.310000
15.773511 0.127728 0.197392 0.020000
13.109973 -1.288809 0.260174 0.060000
11.038838 -3.598919 0.256180 0.070000
5.138873 1.844599 0.111014 0.040000
5.362742 1.383805 0.109885 0.030000
5.506423 0.931458 0.113579 0.120000
5.669563 0.509545 0.102436 0.020000
5.663284 0.054344 0.100728 0.050000
5.656827 -0.390840 0.094056 0.060000
5.630878 -0.861365 0.077239 0.040000
5.379057 -1.291282 0.079983 0.120000
7.449923 3.230254 1.172208 0.330000
7.785902 2.401597 1.155005 0.000000
50.080357 13.004819 5.029860 0.040000
11.038061 1.242815 1.394189 0.510000
35.894859 0.316274 3.480649 0.220000
13.036492 -1.284854 1.525010 0.160000
17.640949 -3.878596 1.927391 0.000000
11.312675 -3.697946 1.416539 0.550000
14.728594 7.673866 0.272717 0.020000
17.306921 4.137767 0.226301 0.000000
11.015619 1.251108 0.379150 0.390000
13.134193 -1.253485 0.300369 0.030000
15.207996 -3.243717 0.188383 0.030000
11.108542 -3.587711 0.291404 0.270000
5.197891 1.895720 0.116358 0.040000
5.426951 1.425024 0.115206 0.030000
5.595748 0.968194 0.108948 0.120000
5.739167 0.530882 0.102697 0.020000
5.748077 0.065970 0.100992 0.050000
5.751905 -0.394020 0.094292 0.050000
5.680856 -0.860426 0.082373 0.040000
5.479614 -1.319361 0.080141 0.120000
7.439476 3.249966 1.197254 0.340000
7.775551 2.416310 1.180032 0.010000
50.052044 13.153680 5.200342 0.100000
11.002510 1.267028 1.424186 0.620000
35.202904 0.402798 3.544165 0.150000
13.055797 -1.254644 1.570173 0.140000
11.347180 -3.677428 1.456706 0.400000
14.860839 7.811221 0.328573 0.020000
13.090302 4.681503 0.382318 0.010000
13.121904 3.031798 0.381268 0.010000
11.034949 1.281355 0.414313 0.260000
13.321800 0.170157 0.361152 0.010000
13.143498 -1.223467 0.345505 0.110000
11.077568 -3.543461 0.336489 0.320000
5.286724 1.957432 0.116819 0.040000
5.520975 1.476833 0.115644 0.030000
5.665147 0.999510 0.114246 0.110000
5.838765 0.552793 0.103038 0.020000
5.847867 0.077883 0.101297 0.050000
5.836876 -0.392410 0.099520 0.050000
5.796218 -0.878220 0.082608 0.030000
5.544876 -1.333132 0.085261 0.110000
7.439014 3.269850 1.227327 0.310000
7.755202 2.430831 1.205034 0.030000
50.018707 13.297278 5.415791 0.110000
11.036921 1.292545 1.464371 0.590000
35.140823 0.491112 3.684333 0.290000
13.105273 -1.233876 1.620380 0.110000
11.316328 -3.638140 1.491772 0.330000
11.637118 5.868643 0.447938 0.030000
13.084610 4.711234 0.427414 0.030000
13.131237 3.061854 0.416404 0.000000
11.144179 1.318344 0.444736 0.130000
13.142916 -1.198620 0.385597 0.100000
13.407484 -2.733678 0.340581 0.030000
11.076915 -3.513578 0.366598 0.390000
5.380378 2.029257 0.112331 0.050000
5.590183 1.518148 0.120978 0.040000
5.779455 1.036706 0.114683 0.090000
5.938254 0.579685 0.108398 0.030000
5.932646 0.089491 0.106561 0.050000
5.946951 -0.395303 0.099796 0.050000
5.861371 -0.887010 0.092745 0.030000
5.655526 -1.366019 0.085427 0.110000
7.448373 3.299943 1.252464 0.170000
7.794446 2.466479 1.235269 0.090000
50.010754 13.421359 5.631233 0.090000
11.046335 1.317583 1.504489 0.480000
35.149048 0.565806 3.814633 0.290000
13.149764 -1.213185 1.665574 0.090000
11.295557 -3.603678 1.531846 0.360000
11.611623 5.887993 0.492944 0.090000
14.705744 5.447338 0.454382 0.050000
18.318827 4.546614 0.395464 0.000000
18.714859 0.323507 0.365799 0.010000
13.117228 -1.169272 0.430639 0.130000
13.381605 -2.694332 0.385660 0.030000
11.096411 -3.493366 0.411725 0.340000
5.459200 2.090759 0.117765 0.040000
5.704120 1.575358 0.116488 0.040000
5.873767 1.073519 0.115066 0.110000
6.067764 0.607188 0.103838 0.020000
6.047529 0.096692 0.106888 0.050000
6.057026 -0.398195 0.100073 0.040000
5.981745 -0.904690 0.087994 0.030000
5.761177 -1.399001 0.085580 0.100000
7.734596 2.455257 1.255071 0.110000
49.978210 13.525002 5.836536 0.080000
11.150622 1.349421 1.549880 0.320000
35.042519 0.628355 3.929589 0.230000
11.254803 -3.569581 1.566867 0.470000
11.556624 5.881793 0.532778 0.070000
14.695136 5.471956 0.504446 0.120000
13.129934 3.116490 0.511605 0.010000
10.988726 1.330094 0.519375 0.070000
13.161828 -1.153562 0.470814 0.190000
13.365902 -2.664810 0.435729 0.050000
11.106016 -3.478326 0.451806 0.350000
5.572742 2.167947 0.118348 0.050000
5.813033 1.632436 0.121985 0.040000
6.002880 1.121000 0.115579 0.100000
6.182346 0.629368 0.109220 0.030000
6.162302 0.108874 0.112233 0.050000
6.182195 -0.405799 0.100372 0.040000
6.112200 -0.927195 0.088250 0.030000
5.866719 -1.427003 0.090752 0.100000
7.714439 2.459780 1.280036 0.180000
50.000481 13.639716 6.037023 0.060000
11.160147 1.369479 1.584980 0.230000
13.078514 -1.159834 1.745587 0.060000
11.314770 -3.573599 1.612009 0.280000
11.501600 5.875554 0.582611 0.200000
13.169235 3.147083 0.556822 0.010000
11.008247 1.350343 0.554502 0.070000
28.696259 0.599569 0.432880 0.010000
11.145905 -3.477709 0.491913 0.360000
5.661467 2.234640 0.123828 0.050000
5.966676 1.705410 0.117657 0.040000
6.137088 1.163578 0.116088 0.100000
6.326757 0.662158 0.104719 0.030000
6.337200 0.117262 0.102721 0.050000
6.342370 -0.412714 0.095764 0.040000
6.237655 -0.949796 0.088494 0.030000
5.982464 -1.464793 0.090913 0.090000
7.447206 3.349636 1.332646 0.030000
7.723989 2.479875 1.305135 0.180000
49.983223 13.728650 6.242310 0.050000
11.149756 1.384135 1.625008 0.180000
35.664204 0.759019 4.276701 0.230000
13.078096 -1.145022 1.795641 0.070000
11.279001 -3.539424 1.652043 0.180000
11.486280 5.885079 0.632607 0.160000
11.047752 1.370956 0.594682 0.080000
30.864622 0.690728 0.543880 0.030000
13.400156 -2.639517 0.535913 0.020000
11.180698 -3.472188 0.532025 0.320000
5.824437 2.342798 0.119655 0.060000
6.105308 1.778077 0.118289 0.040000
6.301113 1.216747 0.111714 0.120000
6.516160 0.695810 0.100338 0.030000
6.512072 0.125612 0.103208 0.050000
6.512625 -0.424456 0.096165 0.040000
6.378204 -0.977110 0.088759 0.020000
6.128504 -1.516987 0.086101 0.080000
7.437047 3.354351 1.357638 0.030000
7.708830 2.484494 1.330113 0.210000
50.011208 13.803392 6.462663 0.030000
11.119479 1.393429 1.659964 0.140000
36.212826 0.808820 4.473320 0.120000
13.082787 -1.135096 1.840691 0.080000
11.283691 -3.529498 1.697093 0.160000
11.456169 5.884337 0.677526 0.160000
13.081672 4.830300 0.672851 0.010000
13.143513 3.171247 0.651845 0.010000
11.042470 1.380728 0.629705 0.090000
13.258712 0.292981 0.631446 0.000000
13.190595 -1.108516 0.611058 0.120000
13.374660 -2.620167 0.580919 0.050000
11.260962 -3.490801 0.572165 0.400000
5.933062 2.414873 0.125207 0.060000
6.263950 1.851147 0.113975 0.050000
6.470123 1.269993 0.112353 0.110000
6.645740 0.718277 0.105760 0.030000
6.696954 0.134173 0.098722 0.050000
6.642779 -0.431983 0.101476 0.040000
6.558937 -1.013655 0.089095 0.020000
6.299717 -1.578719 0.086318 0.080000
7.397276 3.338495 1.382475 0.040000
7.728474 2.499781 1.355222 0.230000
47.976276 13.264471 6.415348 0.030000
11.124278 1.398375 1.699995 0.250000
36.136913 0.836876 4.608228 0.140000
13.052387 -1.120840 1.885665 0.090000
40.163795 -8.954731 5.127346 0.000000
11.273397 -3.519840 1.737102 0.120000
11.450861 5.894073 0.722549 0.150000
14.732599 5.571829 0.739918 0.060000
13.123290 3.175677 0.701809 0.010000
11.072168 1.391153 0.669821 0.090000
13.238515 0.297448 0.671411 0.010000
13.160291 -1.099260 0.656014 0.050000
11.255571 -3.476048 0.612207 0.500000
6.105935 2.528222 0.121079 0.060000
6.407677 1.918912 0.114602 0.050000
6.634134 1.323143 0.112978 0.120000
6.845140 0.752120 0.101406 0.030000
6.836819 0.141835 0.104116 0.060000
6.813144 -0.448705 0.096859 0.040000
6.709579 -1.045775 0.089369 0.030000
6.430555 -1.621221 0.086502 0.090000
7.421714 3.363857 1.412634 0.030000
7.718410 2.499497 1.380195 0.230000
45.523930 12.597827 6.286467 0.040000
11.109094 1.402957 1.734973 0.110000
36.101170 0.855682 4.748206 0.210000
13.137337 -1.124397 1.935874 0.040000
40.072765 -8.922000 5.272231 0.010000
11.435829 5.888600 0.772490 0.140000
14.677740 5.555556 0.799715 0.120000
13.118065 3.180394 0.751814 0.000000
11.061983 1.395830 0.704813 0.100000
13.243288 0.302357 0.721442 0.010000
11.922447 -0.968090 0.693271 0.140000
11.280544 -3.480736 0.657255 0.520000
6.239267 2.615773 0.126753 0.070000
6.586206 1.997345 0.115360 0.060000
6.808239 1.371486 0.113613 0.130000
6.999619 0.780065 0.106914 0.030000
7.011691 0.150185 0.104604 0.060000
6.973388 -0.460656 0.102233 0.050000
6.870316 -1.082703 0.089651 0.030000
6.606864 -1.687856 0.086714 0.080000
7.411651 3.363573 1.437607 0.030000
7.738137 2.509766 1.410285 0.220000
46.641605 12.943047 6.630671 0.060000
36.010670 0.863492 4.873000 0.120000
39.805943 -8.847573 5.401813 0.030000
11.368802 -3.553367 1.832227 0.090000
11.405909 5.877860 0.817373 0.090000
14.682405 5.565445 0.854764 0.060000
17.250580 4.379402 0.862059 0.010000
11.071890 1.395891 0.739839 0.100000
13.238089 0.307112 0.761446 0.010000
11.892253 -0.963814 0.733209 0.140000
11.260265 -3.471251 0.692238 0.520000
6.417139 2.729218 0.122639 0.070000
6.749726 2.075472 0.121077 0.060000
6.987247 1.424924 0.114278 0.140000
7.199103 0.808891 0.107541 0.030000
7.191657 0.153632 0.105086 0.070000
7.163832 -0.482013 0.102651 0.050000
7.010934 -1.115053 0.099898 0.030000
6.767971 -1.744799 0.091923 0.080000
7.431282 3.378841 1.467715 0.020000
7.718171 2.504291 1.435212 0.210000
46.516430 12.924968 6.815279 0.060000
11.118704 1.412868 1.810035 0.040000
40.662235 0.984940 5.610601 0.240000
39.755272 -8.834092 5.551732 0.020000
11.393871 -3.563053 1.877257 0.050000
13.075671 4.854456 0.872927 0.080000
17.245411 4.379065 0.927045 0.010000
11.066690 1.400646 0.779844 0.100000
13.252955 0.307213 0.811486 0.010000
11.897052 -0.958868 0.773240 0.220000
13.418951 -2.610032 0.776075 0.000000
11.250054 -3.466611 0.737229 0.500000
6.555362 2.821845 0.133344 0.080000
6.943156 2.159191 0.121893 0.050000
7.196154 1.483935 0.115043 0.110000
7.383589 0.837429 0.108129 0.030000
7.391524 0.162462 0.105641 0.070000
7.339170 -0.498676 0.108046 0.040000
7.216867 -1.161099 0.095265 0.030000
6.959468 -1.821145 0.092139 0.080000
7.431216 3.378749 1.492715 0.030000
7.732911 2.514484 1.460289 0.150000
50.154892 13.987327 7.513733 0.040000
11.093726 1.407278 1.839950 0.030000
40.701702 0.990091 5.775724 0.310000
40.526855 -3.974043 5.731814 0.030000
40.116547 -8.927996 5.772328 0.010000
11.408847 -3.567932 1.922279 0.060000
13.016282 6.898387 0.960371 0.040000
13.085443 4.859461 0.922972 0.070000
17.260130 4.384091 0.997103 0.010000
11.081596 1.400803 0.814883 0.100000
13.237841 0.306759 0.856445 0.010000
11.881950 -0.959304 0.813199 0.210000
13.444020 -2.619718 0.821104 0.000000
11.255044 -3.471663 0.777223 0.470000
6.753121 2.940653 0.134302 0.080000
7.136587 2.242910 0.122709 0.060000
7.380148 1.537450 0.120722 0.120000
7.597961 0.871522 0.113815 0.030000
7.601471 0.166465 0.111204 0.050000
7.554608 -0.519554 0.108531 0.040000
7.453069 -1.221586 0.095656 0.030000
7.130764 -1.887894 0.097338 0.090000
7.431138 3.378637 1.522714 0.050000
7.727930 2.509278 1.490257 0.140000
50.199356 13.982297 7.753833 0.050000
40.676727 0.963967 5.950564 0.350000
40.662197 -4.017155 5.922009 0.020000
11.414016 -3.583001 1.967237 0.060000
13.011427 6.883090 1.015302 0.040000
13.070699 4.838992 0.972858 0.080000
17.319962 4.385017 1.057263 0.010000
11.101597 1.396057 0.849918 0.080000
13.247913 0.296785 0.901435 0.010000
11.882037 -0.969451 0.853162 0.190000
13.408909 -2.620556 0.866010 0.010000
11.265225 -3.486617 0.817195 0.480000
6.955784 3.064556 0.135292 0.080000
7.330100 2.321612 0.128507 0.050000
7.628869 1.607244 0.116631 0.110000
7.792528 0.895235 0.119412 0.030000
7.871530 0.166655 0.106909 0.050000
7.795234 -0.549951 0.109046 0.040000
7.653976 -1.267764 0.101009 0.030000
7.347449 -1.973760 0.097585 0.080000
7.421362 3.363355 1.547632 0.080000
7.727960 2.504185 1.515238 0.100000
50.234402 13.952229 7.953815 0.060000
11.153493 1.408111 1.925110 0.040000
40.701920 0.933912 6.095520 0.270000
40.547264 -4.039837 6.051627 0.010000
11.394024 -3.588513 2.002164 0.180000
12.996778 6.857621 1.065170 0.030000
17.384779 4.386020 1.122437 0.010000
