# This PCD file was generated using the MATLAB® pcwrite function
# from Computer Vision Toolbox®.
# .PCD v.7 - Point Cloud Data file format
VERSION .7
FIELDS x y z intensity
SIZE 4 4 4 4
TYPE F F F F
COUNT 1 1 1 1
WIDTH 1283
HEIGHT 1
VIEWPOINT 0 0 0 1 0 0 0
POINTS 1283
DATA ascii
9.980522 -0.808218 0.133791 0.020000
9.578504 -1.751102 0.134236 0.050000
9.000202 -2.627314 0.124469 0.040000
8.320949 -3.455469 0.119618 0.060000
4.845753 1.223930 0.092941 0.080000
4.968287 0.831189 0.096801 0.010000
5.060457 0.457889 0.095654 0.030000
5.117455 0.093934 0.089450 0.010000
5.039629 -0.282659 0.097847 0.050000
4.996850 -0.658508 0.086338 0.080000
4.874074 -1.035908 0.079614 0.070000
4.696415 -1.419342 0.067725 0.120000
13.059896 4.832519 1.317809 0.010000
13.127294 3.148677 1.266725 0.060000
11.141625 1.355790 1.129876 0.580000
11.866705 -0.990757 1.128046 0.370000
13.418813 -2.661583 1.195887 0.010000
13.605445 -6.403817 1.222463 0.010000
9.561424 3.314447 0.158022 0.070000
10.016558 2.267979 0.155320 0.060000
10.296176 1.248191 0.142259 0.020000
10.305735 0.228212 0.133492 0.010000
10.125195 -0.790462 0.139234 0.020000
9.753758 -1.762748 0.134650 0.050000
9.150653 -2.649436 0.124780 0.050000
8.477057 -3.512508 0.124813 0.060000
4.840549 1.233814 0.097964 0.090000
4.977985 0.846359 0.101883 0.010000
5.070263 0.468078 0.095718 0.030000
5.137259 0.104315 0.089540 0.020000
5.079539 -0.276876 0.092972 0.040000
5.011643 -0.648242 0.091415 0.080000
4.878868 -1.025833 0.084664 0.100000
4.726505 -1.423766 0.067787 0.110000
13.106479 3.188212 1.286818 0.030000
11.121028 1.385364 1.139932 0.440000
13.281527 0.321168 1.246617 0.030000
11.825908 -0.951586 1.143085 0.670000
13.583946 -6.329307 1.247684 0.020000
9.769073 3.438428 0.164025 0.080000
10.239791 2.362271 0.156253 0.060000
10.485169 1.301801 0.147952 0.020000
10.540103 0.262688 0.139232 0.010000
10.345154 -0.786249 0.139824 0.020000
9.918919 -1.769586 0.135056 0.050000
9.341480 -2.690789 0.125124 0.050000
8.688755 -3.598450 0.120046 0.060000
4.884979 1.264689 0.093195 0.090000
5.017511 0.872139 0.097082 0.020000
5.089959 0.483440 0.100826 0.030000
5.162050 0.114774 0.094644 0.010000
5.109342 -0.266303 0.093090 0.050000
5.031544 -0.642860 0.091487 0.060000
4.934062 -1.034759 0.079775 0.100000
4.761595 -1.428095 0.067863 0.110000
29.664225 12.432717 2.519416 0.020000
11.160189 1.426029 1.165186 0.480000
11.800106 -0.912128 1.158165 0.750000
13.567735 -6.269699 1.272864 0.030000
10.016248 3.588188 0.165227 0.080000
10.507716 2.472403 0.162362 0.050000
10.703965 1.365985 0.153761 0.020000
10.799479 0.297662 0.140039 0.010000
10.540009 -0.777534 0.145365 0.020000
10.139344 -1.790386 0.140554 0.060000
9.552482 -2.741776 0.130486 0.050000
8.900331 -3.679431 0.125298 0.060000
4.904483 1.290049 0.098340 0.080000
5.037207 0.887501 0.102190 0.020000
5.144579 0.504508 0.096047 0.040000
5.201850 0.125538 0.094788 0.020000
5.144240 -0.260634 0.093202 0.050000
5.081534 -0.641902 0.091621 0.070000
4.974151 -1.038992 0.079864 0.110000
4.796684 -1.432424 0.067938 0.140000
29.597069 12.536230 2.579626 0.040000
31.393534 1.014094 2.406482 0.130000
11.824462 -0.881748 1.183341 0.740000
13.335879 -2.518385 1.261203 0.000000
13.447428 -4.166613 1.275368 0.010000
13.551427 -6.205091 1.298062 0.020000
10.238619 3.727471 0.166325 0.080000
10.785556 2.587745 0.163516 0.060000
10.857856 1.423905 0.164379 0.030000
11.058747 0.337616 0.145865 0.010000
10.819956 -0.772172 0.146116 0.020000
10.364768 -1.811091 0.146066 0.060000
9.798681 -2.802071 0.130904 0.050000
9.162486 -3.789430 0.125573 0.070000
4.933999 1.315618 0.098512 0.080000
5.076817 0.908263 0.102371 0.020000
5.189283 0.520367 0.096223 0.030000
5.251650 0.136494 0.094958 0.010000
5.199230 -0.259580 0.093349 0.040000
5.126622 -0.646039 0.091723 0.060000
5.004132 -1.038436 0.084945 0.110000
4.836951 -1.446673 0.072991 0.120000
29.555143 12.625150 2.659848 0.060000
31.366644 1.103357 2.471745 0.120000
11.833928 -0.856636 1.203460 0.830000
13.365221 -2.487927 1.291394 0.000000
33.135487 -11.355244 2.505049 0.010000
10.515583 3.887786 0.172644 0.080000
11.103184 2.713832 0.169814 0.060000
11.166457 1.499829 0.165466 0.040000
11.358007 0.378336 0.151797 0.010000
11.134980 -0.771157 0.151942 0.020000
10.630471 -1.846027 0.151629 0.060000
10.044868 -2.862385 0.136323 0.050000
9.414451 -3.889622 0.125858 0.070000
4.963514 1.341188 0.098685 0.080000
5.116330 0.934025 0.102570 0.030000
5.228988 0.536130 0.096385 0.040000
5.281357 0.152065 0.095094 0.010000
5.219021 -0.249218 0.098439 0.050000
5.171613 -0.645177 0.091844 0.080000
5.044220 -1.042669 0.085033 0.100000
4.877039 -1.450906 0.073079 0.130000
29.621675 12.796179 2.735658 0.020000
31.359463 1.207999 2.537115 0.130000
11.868186 -0.821065 1.228682 0.620000
19.178917 -3.723197 1.681981 0.000000
33.228329 -11.253759 2.590670 0.010000
10.836951 4.078938 0.184194 0.080000
11.440520 2.855299 0.176221 0.060000
11.100912 1.523468 0.195383 0.090000
11.757166 0.425989 0.153016 0.010000
11.525085 -0.773704 0.157951 0.020000
11.001443 -1.893949 0.157420 0.060000
10.361521 -2.946354 0.141837 0.050000
9.716873 -4.013870 0.131186 0.060000
5.002932 1.371948 0.098902 0.090000
5.155940 0.954787 0.102750 0.030000
5.238686 0.551300 0.101467 0.030000
5.346166 0.163327 0.090305 0.010000
5.283926 -0.242955 0.093632 0.050000
5.226603 -0.644124 0.091991 0.080000
5.104414 -1.051499 0.080158 0.110000
4.907021 -1.450350 0.078160 0.130000
29.579054 12.920054 2.826009 0.120000
31.357147 1.317681 2.617518 0.130000
11.867437 -0.786183 1.258810 0.650000
32.543072 -6.551089 2.616363 0.030000
33.275951 -11.143194 2.691206 0.000000
11.217651 4.306251 0.191033 0.060000
11.867265 3.028484 0.182978 0.060000
11.025381 1.546934 0.220274 0.120000
12.206111 0.484579 0.159406 0.010000
11.965181 -0.775294 0.164094 0.020000
11.422502 -1.945913 0.163326 0.050000
10.682981 -3.020229 0.147402 0.040000
10.074777 -4.162042 0.131569 0.060000
5.047253 1.407804 0.099151 0.090000
5.190454 0.980452 0.102936 0.020000
5.298291 0.572446 0.101701 0.030000
5.395856 0.179263 0.095494 0.020000
5.333725 -0.232000 0.093803 0.030000
5.281592 -0.643071 0.092139 0.080000
5.139394 -1.050848 0.085252 0.110000
4.962407 -1.469275 0.073234 0.140000
29.536650 13.033969 2.906322 0.120000
16.714083 4.590956 1.736454 0.010000
31.319933 1.421693 2.697808 0.130000
11.891697 -0.750804 1.284005 0.710000
32.455124 -6.408004 2.686666 0.060000
11.687554 4.575261 0.203259 0.070000
12.353602 3.222796 0.194970 0.060000
11.164249 1.604530 0.240851 0.170000
12.695035 0.543917 0.170903 0.010000
12.169708 -0.751446 0.184717 0.050000
11.737991 -1.969911 0.174060 0.060000
11.130375 -3.141700 0.153118 0.050000
10.407372 -4.295732 0.141941 0.080000
5.076659 1.438354 0.104341 0.100000
5.264769 1.016882 0.103265 0.030000
5.347898 0.593399 0.101908 0.050000
5.450558 0.195313 0.095696 0.030000
5.403616 -0.225660 0.094009 0.040000
5.326488 -0.637210 0.092278 0.080000
5.214571 -1.059409 0.085416 0.110000
5.012480 -1.473335 0.078350 0.160000
7.279615 2.477262 1.058963 0.020000
16.658018 4.639726 1.781489 0.030000
16.911173 2.654315 1.749770 0.030000
31.312508 1.536260 2.783216 0.120000
11.895960 -0.715808 1.309146 0.680000
11.679804 -1.960112 1.288956 0.010000
17.298117 -5.269619 1.706323 0.000000
17.479467 -7.956859 1.761808 0.000000
12.281215 4.911690 0.206060 0.080000
12.904462 3.443367 0.202228 0.060000
11.158419 1.644334 0.265984 0.210000
12.108779 -0.707716 0.214720 0.060000
11.737242 -1.935030 0.204188 0.060000
11.607751 -3.262616 0.163915 0.050000
10.825607 -4.462807 0.157412 0.070000
5.145784 1.484686 0.104694 0.080000
5.294271 1.042433 0.108437 0.030000
5.427405 0.619927 0.102214 0.070000
5.500248 0.211249 0.100885 0.030000
5.473495 -0.219339 0.099215 0.060000
5.431674 -0.645178 0.087522 0.060000
5.254551 -1.058662 0.090523 0.090000
5.093053 -1.501778 0.073454 0.120000
7.313681 2.522831 1.084222 0.030000
16.780718 4.751857 1.847227 0.020000
11.693930 -1.919981 1.329143 0.020000
17.386972 -5.218147 1.771747 0.000000
17.649143 -7.948883 1.837281 0.000000
12.884451 5.268250 0.223960 0.070000
13.166747 3.583304 0.233433 0.040000
11.172558 1.684484 0.301170 0.170000
14.171954 0.717196 0.185402 0.010000
11.646995 -3.226968 0.194150 0.090000
11.284055 -4.639077 0.162953 0.070000
5.190009 1.525540 0.104961 0.080000
5.368504 1.083881 0.103785 0.030000
5.466905 0.645669 0.107413 0.080000
5.579959 0.227797 0.096155 0.030000
5.553301 -0.207790 0.094466 0.060000
5.496552 -0.638953 0.092715 0.050000
5.365036 -1.081514 0.080726 0.080000
5.133019 -1.501049 0.083561 0.130000
7.317957 2.557846 1.104363 0.140000
30.738148 5.380114 3.021008 0.020000
31.327274 1.780834 2.989166 0.010000
11.592638 -1.857002 1.354113 0.020000
17.410566 -5.152903 1.832052 0.000000
45.310997 -21.945223 4.212482 0.050000
11.181616 1.729555 0.331362 0.160000
15.179932 0.831502 0.193459 0.010000
14.255461 -2.336781 0.184268 0.040000
11.232427 -4.560198 0.203112 0.110000
5.249123 1.571662 0.110287 0.090000
5.422906 1.114910 0.109043 0.030000
5.556326 0.677406 0.102764 0.090000
5.659561 0.249326 0.096443 0.030000
5.623096 -0.196452 0.094690 0.060000
5.581632 -0.642324 0.092925 0.050000
5.430106 -1.085286 0.085882 0.080000
5.223590 -1.529302 0.078693 0.130000
7.237933 2.556258 1.119149 0.070000
30.066389 9.357365 3.194041 0.010000
30.685270 5.513703 3.136367 0.030000
31.224323 1.918483 3.099410 0.010000
11.561499 -1.802717 1.389233 0.090000
17.524595 -5.110969 1.902506 0.000000
45.683846 -21.858837 4.423779 0.030000
14.838322 6.385776 0.258215 0.070000
15.504898 4.483206 0.252882 0.020000
13.267612 -0.645768 0.287976 0.010000
15.248014 -2.462849 0.201390 0.030000
14.136325 -3.949366 0.182962 0.040000
11.251360 -4.509974 0.243348 0.270000
5.323055 1.628088 0.110690 0.080000
5.497030 1.161337 0.109409 0.030000
5.625725 0.708722 0.108062 0.090000
5.729152 0.270644 0.101704 0.030000
5.707876 -0.184844 0.099955 0.060000
5.651524 -0.635985 0.093131 0.050000
5.515282 -1.093657 0.086074 0.080000
5.298864 -1.542862 0.078839 0.130000
7.202600 2.570511 1.139110 0.100000
57.298576 18.785927 5.930202 0.030000
44.309666 8.360332 4.492527 0.040000
53.844868 3.644547 5.199893 0.040000
11.495391 -1.749065 1.414261 0.080000
38.534142 -11.936684 3.806993 0.010000
45.894958 -21.680458 4.614995 0.070000
16.763319 7.447831 0.267187 0.050000
13.143154 3.752406 0.364002 0.060000
19.767143 1.284526 0.182116 0.000000
13.261442 -0.591041 0.333164 0.010000
12.511209 -1.890639 0.326375 0.080000
11.224714 -4.430634 0.288574 0.360000
5.396891 1.689513 0.111111 0.080000
5.566237 1.202652 0.114743 0.030000
5.715038 0.745439 0.108432 0.100000
5.833653 0.297650 0.102077 0.030000
5.782657 -0.173428 0.105192 0.060000
5.751505 -0.634070 0.093399 0.040000
5.590351 -1.097238 0.091256 0.080000
5.379219 -1.561345 0.083980 0.130000
7.211767 2.610602 1.164283 0.230000
45.327236 14.959391 4.954719 0.040000
42.766232 8.260663 4.513128 0.090000
57.444267 4.156610 5.746198 0.040000
12.847216 -0.548532 1.577254 0.090000
11.474250 -1.694589 1.449408 0.160000
39.465473 -12.029706 4.039081 0.020000
51.672729 -24.222967 5.360632 0.060000
13.117084 3.801750 0.409118 0.090000
13.176503 2.267635 0.398570 0.020000
11.320698 0.721692 0.422979 0.000000
12.500135 -1.841007 0.371531 0.050000
16.745146 -4.649618 0.212169 0.030000
11.238649 -4.380506 0.328797 0.320000
5.460825 1.745747 0.111487 0.080000
5.650263 1.254270 0.115154 0.040000
5.814349 0.782348 0.108828 0.100000
5.918254 0.319274 0.102378 0.030000
5.887459 -0.161401 0.100511 0.060000
5.846570 -0.637268 0.098635 0.050000
5.685620 -1.110416 0.091456 0.070000
5.489869 -1.594232 0.084146 0.140000
7.186240 2.635044 1.184307 0.340000
45.073498 15.128957 5.119688 0.050000
42.159237 8.343650 4.621853 0.040000
57.413921 4.405284 5.962046 0.060000
12.726009 -0.490953 1.607152 0.140000
11.453218 -1.645093 1.479538 0.180000
39.541630 -11.848747 4.184954 0.030000
51.837624 -23.985575 5.581948 0.090000
13.100007 5.731636 0.451247 0.060000
11.359750 0.767338 0.453251 0.010000
12.793694 -0.465326 0.427411 0.010000
11.600752 -1.628396 0.424974 0.170000
19.083124 -5.304958 0.215836 0.010000
11.257487 -4.325282 0.369052 0.380000
5.554453 1.817535 0.116998 0.090000
5.759189 1.311366 0.115651 0.040000
5.908647 0.819142 0.114211 0.100000
6.042656 0.351662 0.102823 0.030000
5.992139 -0.144411 0.105847 0.060000
5.956549 -0.635161 0.098930 0.050000
5.810980 -1.128018 0.091718 0.080000
5.570128 -1.607715 0.089306 0.150000
7.210199 2.685402 1.214557 0.110000
44.213825 15.087045 5.237289 0.090000
41.945492 8.513981 4.786930 0.030000
57.402958 4.684280 6.193057 0.050000
12.684872 -0.436860 1.642246 0.260000
11.482327 -1.604693 1.524764 0.190000
39.818851 -11.729151 4.386124 0.020000
53.682667 -24.551897 6.009663 0.050000
17.420530 8.094835 0.461310 0.030000
14.927284 4.581299 0.486741 0.130000
11.233972 0.799752 0.503044 0.050000
12.647441 -0.408300 0.477242 0.030000
11.579680 -1.578956 0.470103 0.200000
13.416111 -3.453878 0.402926 0.010000
5.633275 1.879037 0.122432 0.090000
5.863115 1.368367 0.116134 0.040000
6.042677 0.871736 0.109756 0.120000
6.147144 0.378650 0.108196 0.030000
6.136933 -0.131618 0.101273 0.060000
6.071623 -0.637958 0.099220 0.040000
5.911153 -1.136101 0.091949 0.080000
5.700883 -1.645199 0.084508 0.120000
7.169867 2.699558 1.234505 0.100000
44.427380 15.395401 5.453996 0.080000
57.315491 12.062442 6.620259 0.060000
11.240533 0.830996 1.563188 0.000000
12.713874 -0.391480 1.692491 0.220000
11.476362 -1.559946 1.564916 0.190000
39.965576 -11.581975 4.567056 0.010000
53.726200 -24.246870 6.245913 0.020000
13.077054 5.870836 0.556706 0.090000
11.203037 0.844057 0.533128 0.070000
12.686384 -0.357673 0.512532 0.050000
15.607927 -4.052062 0.421424 0.010000
10.603916 -3.898090 0.468935 0.170000
5.746542 1.971241 0.118071 0.090000
6.001748 1.441035 0.116766 0.040000
6.161792 0.919026 0.110243 0.100000
6.291555 0.411440 0.103695 0.040000
6.246708 -0.119531 0.106604 0.060000
6.221691 -0.640084 0.099604 0.040000
6.066699 -1.163127 0.092255 0.070000
5.811425 -1.673106 0.089693 0.120000
7.169118 2.734440 1.264633 0.080000
44.506256 15.686193 5.665285 0.100000
57.284180 12.355959 6.876271 0.080000
11.234567 0.875743 1.603339 0.010000
12.707704 -0.336753 1.737679 0.200000
11.520373 -1.514260 1.610201 0.100000
39.171520 -11.127377 4.641674 0.020000
14.864600 4.704699 0.602038 0.150000
13.176708 2.492001 0.584406 0.000000
11.162270 0.878136 0.573149 0.090000
13.413455 -3.329274 0.503384 0.010000
10.597855 -3.848344 0.509105 0.170000
5.894611 2.074113 0.113840 0.090000
6.130395 1.513530 0.112371 0.050000
6.335719 0.977385 0.105914 0.100000
6.455853 0.449593 0.104266 0.030000
6.426496 -0.106067 0.102123 0.060000
6.386865 -0.646904 0.095009 0.040000
6.191950 -1.175748 0.097535 0.060000
5.967367 -1.720109 0.084925 0.120000
7.153590 2.759074 1.284684 0.240000
44.744095 16.029964 5.897186 0.080000
57.282970 12.645070 7.127346 0.080000
12.552581 -1.640046 1.757429 0.110000
39.378632 -10.999029 4.817694 0.010000
11.341138 -4.178512 1.694830 0.010000
13.093724 6.030817 0.657345 0.020000
14.808522 4.753450 0.652073 0.100000
30.029467 6.420452 0.643001 0.030000
11.141319 0.922614 0.608260 0.100000
13.322243 -1.710991 0.579162 0.040000
15.509483 -3.889340 0.536773 0.010000
10.601791 -3.798406 0.549301 0.220000
6.003045 2.156186 0.119428 0.090000
6.313732 1.602056 0.113179 0.040000
6.479733 1.030153 0.106486 0.120000
6.615262 0.482670 0.099805 0.030000
6.606283 -0.092604 0.097643 0.060000
6.567023 -0.653455 0.095455 0.040000
6.357603 -1.207563 0.092849 0.060000
6.082907 -1.747919 0.090123 0.280000
7.128050 2.783497 1.309709 0.160000
44.937340 16.352898 6.123893 0.070000
57.242092 12.918474 7.363258 0.090000
11.182860 0.954510 1.673498 0.030000
12.581583 -1.594666 1.807674 0.100000
39.399460 -10.804201 4.983474 0.010000
11.329872 -4.118882 1.740023 0.080000
7.416722 2.946438 0.661061 0.020000
14.772223 4.812546 0.712198 0.220000
30.574030 6.690434 0.780427 0.020000
11.150447 0.962649 0.648433 0.100000
13.471280 -3.228497 0.598910 0.030000
10.600633 -3.743565 0.589502 0.240000
6.165823 2.274343 0.115292 0.090000
6.447365 1.674628 0.113797 0.060000
6.638650 1.088207 0.107117 0.120000
6.789558 0.521015 0.100402 0.040000
6.760967 -0.074638 0.098113 0.070000
6.732088 -0.655294 0.095879 0.040000
6.502959 -1.224782 0.093164 0.060000
6.117670 -1.737307 0.105253 0.240000
7.142215 2.823684 1.334895 0.090000
43.393665 16.008274 6.118582 0.040000
57.266216 13.193141 7.594344 0.080000
36.035847 -0.680492 4.647324 0.260000
40.340794 -10.902162 5.250570 0.010000
11.353997 -4.078560 1.780236 0.060000
14.741031 4.866756 0.767319 0.200000
13.198093 2.661945 0.720095 0.010000
11.114692 0.996842 0.683467 0.100000
13.302650 -0.181481 0.689798 0.010000
10.619758 -3.703339 0.629702 0.300000
6.293966 2.371795 0.120989 0.090000
6.625607 1.768059 0.114610 0.060000
6.782651 1.140955 0.112689 0.120000
6.948845 0.559054 0.105959 0.040000
6.950644 -0.056002 0.098678 0.070000
6.882155 -0.657420 0.096263 0.040000
6.713686 -1.260753 0.093581 0.050000
6.152528 -1.731693 0.120366 0.160000
7.126674 2.848299 1.359946 0.100000
43.607059 16.321535 6.360306 0.050000
57.215565 13.451263 7.855174 0.070000
11.216003 1.039848 1.758902 0.020000
36.687634 -0.538828 4.879554 0.140000
38.849136 -10.305569 5.233894 0.010000
11.352921 -4.028737 1.825419 0.210000
7.360931 2.980192 0.711042 0.050000
14.714742 4.926062 0.822472 0.240000
11.128831 1.036992 0.718653 0.100000
14.952268 -0.155122 0.759202 0.010000
13.338986 -1.561176 0.724764 0.030000
13.393555 -3.100311 0.694185 0.020000
10.623803 -3.658382 0.664880 0.280000
6.466538 2.500123 0.121916 0.110000
6.779045 1.851012 0.115319 0.060000
6.971288 1.214599 0.108455 0.150000
7.143042 0.602781 0.106629 0.040000
7.100316 -0.038151 0.104135 0.070000
7.082310 -0.663588 0.096763 0.040000
6.859029 -1.277991 0.098896 0.050000
7.150633 2.898657 1.390196 0.270000
43.557533 16.529909 6.555954 0.060000
57.210041 13.705304 8.101107 0.080000
11.255125 1.080458 1.799156 0.010000
36.614639 -0.400660 5.004879 0.220000
40.267773 -10.529686 5.576767 0.010000
11.361953 -3.983702 1.865610 0.080000
13.176029 2.756191 0.815389 0.000000
11.117962 1.076644 0.758773 0.060000
13.260493 -0.082620 0.785056 0.000000
10.648010 -3.623077 0.710075 0.210000
6.604582 2.602767 0.127658 0.100000
6.967093 1.954632 0.116195 0.050000
7.145092 1.277921 0.114144 0.140000
7.322242 0.646220 0.107258 0.030000
7.329985 -0.018749 0.104806 0.060000
7.247362 -0.665445 0.102187 0.040000
7.059758 -1.314153 0.099286 0.040000
6.827381 -1.973683 0.086227 0.110000
7.105398 2.907719 1.410112 0.320000
43.746269 16.827770 6.777556 0.050000
57.109871 13.942603 8.326730 0.140000
11.304136 1.126240 1.844454 0.060000
44.941418 -0.325667 6.251905 0.160000
40.732399 -5.300212 5.692421 0.020000
40.098209 -10.313427 5.722130 0.010000
7.290335 3.003661 0.760945 0.090000
13.150041 2.800518 0.865486 0.000000
11.177080 1.117637 0.799080 0.050000
13.249516 -0.037987 0.830194 0.010000
13.081225 -1.431401 0.809575 0.030000
13.416373 -3.000223 0.794618 0.010000
10.687337 -3.592447 0.745292 0.170000
6.782058 2.736189 0.128617 0.100000
7.145336 2.048062 0.117008 0.060000
7.358711 1.352025 0.114977 0.120000
7.521438 0.690043 0.107941 0.030000
7.494654 -0.000610 0.110304 0.060000
7.482605 -0.675942 0.102762 0.040000
7.290494 -1.349722 0.094756 0.040000
7.008401 -2.025225 0.086508 0.100000
7.104744 2.937602 1.440222 0.270000
43.692036 17.021049 6.973135 0.030000
57.099800 14.171515 8.582557 0.050000
11.193600 1.149017 1.874251 0.100000
44.957958 -0.171001 6.437525 0.340000
39.776939 -5.028573 5.720937 0.020000
39.868629 -10.093225 5.842350 0.010000
11.208758 -3.826828 1.925794 0.180000
7.289599 3.038561 0.786073 0.050000
11.166320 1.152308 0.834181 0.030000
13.425379 -2.955226 0.844809 0.030000
6.934908 2.849118 0.134436 0.110000
7.333371 2.151663 0.122884 0.060000
7.592134 1.436511 0.115900 0.110000
7.735523 0.739133 0.113682 0.030000
7.754331 0.019385 0.106056 0.050000
7.687758 -0.682014 0.103275 0.040000
7.556499 -1.399636 0.095264 0.030000
7.214595 -2.086306 0.091819 0.100000
7.089312 2.957236 1.460255 0.190000
43.752068 17.251471 7.184150 0.060000
11.202835 1.184072 1.909405 0.230000
44.974434 -0.011299 6.613164 0.240000
39.753777 -4.884541 5.871413 0.020000
40.925400 -10.219145 6.154644 0.020000
11.187699 -3.777370 1.965923 0.150000
7.382970 3.120254 0.816621 0.080000
13.116866 4.514745 0.991773 0.010000
13.167982 2.895548 0.955887 0.010000
11.070767 1.175354 0.869018 0.110000
13.267839 0.037047 0.920522 0.000000
12.979189 -1.338669 0.899654 0.090000
16.540390 -3.726145 0.970075 0.070000
10.791533 -3.560739 0.825683 0.090000
7.161799 3.013493 0.135640 0.100000
7.541402 2.255647 0.128813 0.050000
7.770937 1.499928 0.121603 0.110000
7.959618 0.788434 0.114451 0.030000
7.943899 0.043001 0.111639 0.050000
7.887900 -0.688200 0.108774 0.040000
7.742026 -1.426106 0.100650 0.030000
7.390603 -2.137962 0.097087 0.100000
7.088672 2.987138 1.485365 0.270000
43.683147 17.429504 7.369634 0.030000
11.142289 1.207806 1.939336 0.250000
40.622082 0.131985 6.162331 0.110000
43.479038 -5.220786 6.569895 0.010000
40.801472 -10.037054 6.309999 0.030000
11.186829 -3.737526 2.006070 0.280000
7.441744 3.181299 0.842001 0.060000
14.827256 5.277215 1.114074 0.080000
18.734236 4.416595 1.201074 0.000000
11.080099 1.205410 0.904154 0.280000
13.251972 0.076604 0.960628 0.010000
12.938325 -1.299591 0.939693 0.080000
10.866223 -3.549453 0.865920 0.090000
7.215696 3.069480 0.150989 0.220000
7.754254 2.369744 0.129793 0.050000
8.014263 1.589604 0.122572 0.110000
8.178701 0.837620 0.120205 0.030000
8.228559 0.063457 0.112458 0.050000
8.113036 -0.693908 0.114341 0.030000
7.937551 -1.452385 0.106063 0.030000
7.611890 -2.203754 0.102420 0.070000
7.063419 2.996564 1.510334 0.320000
45.682224 18.466028 7.908711 0.050000
11.036874 1.225717 1.959128 0.240000
40.539337 0.254909 6.302573 0.280000
43.335743 -5.068998 6.705086 0.010000
40.999622 -9.963906 6.490790 0.010000
11.191161 -3.707566 2.041193 0.230000
7.278064 3.108078 0.861302 0.050000
14.855862 5.342573 1.169392 0.040000
18.563919 4.423114 1.260654 0.010000
11.089431 1.235466 0.939291 1.000000
12.967531 -1.264191 0.984901 0.250000
13.402526 -2.826154 0.985231 0.030000
10.905728 -3.528839 0.906100 0.090000
7.230053 3.099668 0.176138 0.140000
7.991993 2.489300 0.135858 0.050000
8.247769 1.669071 0.128477 0.100000
8.497588 0.898738 0.121265 0.030000
8.498220 0.083625 0.113236 0.040000
8.353266 -0.704327 0.119929 0.030000
8.178356 -1.492798 0.111541 0.020000
7.802991 -2.260123 0.107709 0.060000
7.072777 3.026657 1.535471 0.320000
44.220692 18.018162 7.848230 0.030000
11.041206 1.255677 1.994251 0.310000
40.486790 0.368427 6.437860 0.370000
43.338051 -4.949483 6.855538 0.020000
11.306379 -3.725564 2.096427 0.170000
7.326936 3.163932 0.886638 0.190000
14.919282 5.418617 1.219841 0.050000
13.160427 3.009929 1.091294 0.010000
11.028980 1.254201 0.969203 0.770000
31.488110 0.343115 1.769228 0.000000
13.001942 -1.238674 1.025086 0.240000
10.995799 -3.537263 0.946304 0.080000
8.269354 2.629636 0.137104 0.060000
8.525896 1.769416 0.129576 0.090000
8.751487 0.958611 0.122150 0.030000
8.822872 0.104846 0.114163 0.040000
8.648594 -0.718674 0.120647 0.030000
8.444360 -1.542713 0.112050 0.020000
8.039384 -2.330608 0.108064 0.060000
7.062344 3.046387 1.555517 0.190000
41.530132 17.017483 7.557485 0.030000
11.030638 1.280351 2.029315 0.300000
40.479485 0.467755 6.588211 0.310000
51.281742 -5.782556 8.253191 0.020000
11.325889 -3.705334 2.136554 0.400000
7.242487 3.132254 0.901300 0.340000
13.139860 3.034411 1.126332 0.000000
11.058417 1.279659 0.999375 0.520000
13.254825 0.171217 1.085988 0.000000
12.996264 -1.208924 1.065183 0.220000
11.146338 -3.569532 0.986578 0.160000
8.089334 3.671336 0.150506 0.100000
8.536813 2.764782 0.138304 0.050000
8.784302 1.854361 0.135566 0.090000
9.035462 1.014041 0.128098 0.030000
9.107532 0.125301 0.114982 0.030000
8.984023 -0.737235 0.116453 0.030000
8.800744 -1.610881 0.107727 0.020000
8.280955 -2.411014 0.113396 0.060000
41.547028 17.157244 7.718050 0.070000
11.055062 1.305695 2.064473 0.300000
40.482338 0.562368 6.713572 0.160000
48.493484 -5.339887 7.977555 0.010000
11.330221 -3.675374 2.171677 0.500000
7.237040 3.152061 0.926359 0.430000
13.092341 4.718468 1.222469 0.010000
13.259240 0.196159 1.126093 0.010000
13.445562 -2.740773 1.110662 0.010000
11.211234 -3.568417 1.021752 0.330000
8.370544 3.871757 0.151985 0.090000
8.804245 2.899891 0.149505 0.050000
9.102325 1.960471 0.136790 0.090000
9.354336 1.075141 0.134157 0.030000
9.392164 0.145719 0.125801 0.030000
9.284433 -0.756503 0.122166 0.020000
9.096921 -1.670238 0.113280 0.020000
8.542618 -2.496036 0.118763 0.050000
7.066446 3.086289 1.605676 0.080000
41.464928 17.245136 7.868164 0.070000
50.422745 13.631912 9.008126 0.020000
11.084487 1.331134 2.099645 0.270000
42.969036 0.683052 7.255517 0.160000
43.005497 -4.612204 7.240928 0.020000
11.349839 -3.660124 2.206785 0.330000
7.231797 3.161889 0.946382 0.420000
13.091676 4.748333 1.257579 0.020000
11.092283 1.330079 1.064651 0.090000
16.427780 0.276177 1.319663 0.010000
13.364528 -2.692445 1.145630 0.030000
11.235850 -3.553071 1.056873 0.330000
8.607408 4.036286 0.163215 0.090000
9.081701 3.035229 0.150732 0.060000
9.415338 2.066466 0.143002 0.090000
9.678125 1.141353 0.135248 0.030000
9.711818 0.166845 0.126714 0.030000
9.574749 -0.770964 0.127870 0.020000
9.357818 -1.715267 0.118793 0.020000
7.036426 3.085678 1.615596 0.070000
41.387741 17.338144 8.013309 0.070000
50.439560 13.771562 9.198691 0.040000
11.173764 1.362666 2.149996 0.260000
40.363533 0.724186 6.968866 0.070000
43.078613 -4.536395 7.406402 0.020000
11.344256 -3.635373 2.246863 0.290000
7.226362 3.181715 0.966442 0.350000
13.081081 4.772969 1.302643 0.040000
13.172720 3.129617 1.246773 0.000000
11.136704 1.355806 1.099863 0.080000
16.412092 0.305717 1.364732 0.000000
11.887316 -1.020312 1.112990 0.120000
13.379050 -2.672292 1.180743 0.040000
11.240388 -3.533091 1.086960 0.400000
9.403670 3.196424 0.152172 0.050000
9.713461 2.167193 0.144154 0.080000
10.007010 1.202663 0.136335 0.030000
10.006462 0.187473 0.132560 0.040000
9.880157 -0.790137 0.133596 0.020000
9.186810 -2.708736 0.119654 0.050000
7.040976 3.105677 1.640682 0.080000
41.360725 17.422091 8.163552 0.060000
50.446888 13.886063 9.379138 0.050000
11.173303 1.382551 2.180069 0.240000
39.072666 0.769802 6.875665 0.200000
42.160172 -4.363918 7.394646 0.020000
44.019413 -10.116123 7.868121 0.010000
11.358971 -3.625218 2.281939 0.330000
7.211217 3.186353 0.986420 0.270000
13.055694 4.787339 1.342631 0.010000
13.142430 3.138892 1.286729 0.010000
11.116438 1.365309 1.129846 0.100000
13.217619 0.264971 1.236241 0.010000
11.841754 -0.996309 1.147960 0.140000
13.393547 -2.652175 1.225856 0.010000
11.265087 -3.522763 1.127063 0.360000
9.224313 4.463139 0.176413 0.090000
9.780233 3.378649 0.158832 0.050000
10.056372 2.278762 0.150464 0.070000
10.355768 1.269317 0.147493 0.030000
10.366094 0.209346 0.138580 0.030000
10.190566 -0.809214 0.139335 0.020000
9.960074 -1.828790 0.129943 0.020000
7.035625 3.120485 1.665724 0.160000
41.273888 17.494854 8.323598 0.050000
50.429684 13.975070 9.564425 0.060000
11.202809 1.402973 2.220222 0.170000
38.931255 0.826701 6.985508 0.150000
42.143383 -4.289721 7.529879 0.020000
43.952431 -10.032905 8.008257 0.010000
11.373589 -3.610064 2.317034 0.380000
7.215877 3.201371 1.006488 0.230000
29.655146 12.117323 2.563221 0.050000
11.116073 1.380195 1.159900 0.110000
13.237236 0.280221 1.271349 0.000000
11.831377 -0.981633 1.182988 0.210000
11.284801 -3.512512 1.162153 0.270000
10.146881 3.555666 0.170447 0.050000
10.488787 2.417049 0.157107 0.070000
10.769336 1.347233 0.153862 0.030000
10.815709 0.232943 0.144841 0.030000
10.536050 -0.832638 0.150150 0.020000
9.775672 -2.907567 0.140452 0.050000
7.025491 3.125237 1.680715 0.190000
41.316723 17.585085 8.489047 0.030000
50.452541 14.059808 9.759803 0.070000
11.182544 1.412477 2.250205 0.110000
38.790012 0.873564 7.105315 0.160000
42.713173 -4.309765 7.791295 0.030000
43.935852 -9.973817 8.173435 0.010000
11.368294 -3.600310 2.357057 0.340000
7.210716 3.206182 1.031493 0.240000
29.634205 12.151543 2.668294 0.080000
11.100805 1.389794 1.189896 0.090000
31.383759 0.733656 2.460415 0.050000
11.821109 -0.971938 1.212998 0.180000
11.289612 -3.507547 1.197184 0.140000
10.034157 4.998689 0.195517 0.080000
10.568134 3.753732 0.182283 0.040000
10.871568 2.534346 0.173542 0.070000
10.958673 1.380792 0.174482 0.040000
11.240425 0.251062 0.151017 0.030000
10.971818 -0.869317 0.156151 0.020000
10.637770 -1.965908 0.151203 0.020000
10.133262 -3.040779 0.150890 0.040000
7.000540 3.119685 1.700629 0.210000
41.553246 17.738853 8.705238 0.020000
50.466164 14.104362 9.955006 0.070000
38.779289 0.892885 7.235360 0.200000
42.266651 -4.243544 7.855376 0.010000
11.378201 -3.600248 2.392083 0.310000
7.200666 3.205916 1.051466 0.270000
29.593912 12.150350 2.783186 0.080000
11.110617 1.394854 1.224941 0.100000
31.368473 0.732960 2.570373 0.040000
11.831002 -0.971895 1.253024 0.230000
17.938461 -3.706841 1.648804 0.000000
11.289603 -3.512695 1.237166 0.140000
10.706269 5.416635 0.198826 0.030000
11.074181 3.963424 0.194384 0.040000
11.383967 2.674166 0.180400 0.070000
11.093391 1.393283 0.199880 0.120000
11.660512 0.249070 0.162106 0.030000
11.423049 -0.930723 0.167101 0.020000
6.995884 3.099537 1.715543 0.260000
41.545532 17.603260 8.819715 0.030000
50.508598 13.959672 10.084579 0.040000
11.167882 1.386990 2.305073 0.140000
38.806351 0.773052 7.324986 0.300000
42.274082 -4.383774 7.949875 0.010000
43.767323 -10.082870 8.392591 0.000000
11.338648 -3.626065 2.406884 0.300000
7.186313 3.170598 1.061297 0.210000
29.635990 12.035971 2.827871 0.130000
18.657143 4.697858 1.831924 0.000000
11.116260 1.359920 1.234826 0.090000
12.959032 -1.130613 1.335379 0.110000
17.874405 -3.758114 1.658446 0.000000
11.280359 -3.552897 1.241992 0.410000
10.766641 5.397788 0.198913 0.080000
11.184174 3.965549 0.189679 0.040000
11.474334 2.655893 0.180568 0.070000
11.094049 1.358271 0.204752 0.130000
11.721268 0.210227 0.162121 0.030000
11.383618 -0.961502 0.171884 0.020000
11.050829 -2.123062 0.161697 0.020000
10.451831 -3.224729 0.156038 0.050000
6.996568 3.064562 1.710414 0.250000
41.569427 17.403774 8.794036 0.020000
11.083908 1.335446 2.284662 0.180000
38.789074 0.632752 7.309420 0.250000
42.317345 -4.552958 7.944359 0.030000
43.745884 -10.268295 8.386847 0.010000
11.309433 -3.666614 2.401657 0.540000
7.186997 3.135623 1.056169 0.280000
29.688389 11.911970 2.822546 0.150000
18.952063 4.703470 1.842715 0.000000
11.126942 1.325136 1.229725 0.150000
31.477713 0.509939 2.589830 0.010000
11.261155 -3.593235 1.231792 0.360000
10.579934 5.224181 0.197780 0.080000
11.056127 3.863097 0.183964 0.040000
11.340809 2.578341 0.174931 0.070000
11.124753 1.323908 0.189704 0.160000
11.536985 0.171709 0.156496 0.030000
11.198857 -0.975024 0.166351 0.020000
10.850496 -2.106878 0.156234 0.010000
10.291394 -3.202779 0.150701 0.040000
7.002059 3.039681 1.705336 0.250000
43.838612 18.195944 9.192907 0.030000
11.029750 1.294493 2.259368 0.180000
38.726940 0.491775 7.243732 0.130000
42.320461 -4.707724 7.888791 0.030000
11.330414 -3.716184 2.391528 0.230000
7.192501 3.110761 1.046091 0.490000
29.681122 11.777009 2.767025 0.030000
30.378239 7.775074 2.638967 0.010000
11.002975 1.272826 1.209207 0.250000
31.529917 0.401066 2.549561 0.010000
12.980818 -1.220120 1.310103 0.140000
13.430744 -2.781889 1.335472 0.000000
11.302337 -3.652402 1.216679 0.310000
10.313912 5.014049 0.196305 0.080000
10.843657 3.729004 0.182911 0.050000
11.077967 2.463286 0.173817 0.070000
11.025661 1.277038 0.179271 0.110000
11.257695 0.131335 0.160617 0.030000
10.928908 -0.980195 0.165627 0.020000
10.640152 -2.090903 0.155745 0.020000
10.055288 -3.147291 0.150291 0.040000
7.027368 3.025200 1.695348 0.170000
44.001350 18.064293 9.122843 0.050000
11.040362 1.264746 2.244285 0.220000
40.338867 0.376856 7.457515 0.330000
42.208138 -4.834530 7.788025 0.030000
11.200268 -3.703509 2.346235 0.270000
7.203004 3.085994 1.036026 0.450000
30.365505 7.665031 2.578524 0.030000
11.013588 1.243079 1.194124 0.290000
31.497091 0.295639 2.489083 0.030000
12.996621 -1.259770 1.294997 0.130000
13.471843 -2.836038 1.315378 0.010000
11.308237 -3.697242 1.201528 0.470000
10.092308 4.834774 0.195060 0.090000
10.606207 3.594451 0.176790 0.040000
10.829846 2.363535 0.167798 0.070000
10.988238 0.101187 0.154802 0.030000
10.708962 -0.984390 0.160037 0.020000
10.364450 -2.056159 0.150154 0.020000
9.879581 -3.110613 0.139968 0.040000
7.018080 2.990071 1.680193 0.260000
44.010429 17.864780 9.027123 0.060000
11.041072 1.229808 2.229156 0.180000
40.341530 0.247122 7.392039 0.370000
42.075817 -4.961720 7.687206 0.030000
11.165806 -3.729100 2.326049 0.290000
7.218411 3.066323 1.025993 0.170000
30.387861 7.550659 2.518157 0.050000
11.024308 1.208352 1.174022 0.730000
31.474251 0.190385 2.433631 0.010000
13.012437 -1.299400 1.274891 0.150000
13.397402 -2.862377 1.290086 0.030000
11.258695 -3.718103 1.176321 0.180000
9.841009 4.639945 0.188680 0.080000
10.334229 3.434214 0.175485 0.050000
10.566813 2.258479 0.166721 0.070000
10.802575 1.177822 0.158319 0.030000
10.748871 0.066615 0.149048 0.030000
10.459022 -0.989159 0.154367 0.020000
10.164021 -2.034975 0.144709 0.020000
9.633286 -3.045318 0.139568 0.050000
7.018598 2.965132 1.665102 0.320000
43.880554 17.617817 8.870865 0.030000
11.141354 1.216745 2.224370 0.210000
40.354362 0.112693 7.296572 0.230000
41.953346 -5.078665 7.571451 0.020000
11.191702 -3.773557 2.310951 0.230000
7.209027 3.036193 1.010856 0.130000
30.385044 7.445825 2.452759 0.040000
11.059820 1.184083 1.159024 0.380000
13.326697 0.046856 1.280715 0.000000
13.038360 -1.343820 1.249793 0.190000
13.408340 -2.907066 1.259948 0.020000
11.178871 -3.724541 1.151088 0.370000
9.609420 4.460496 0.182408 0.100000
10.101681 3.304756 0.169397 0.050000
10.298792 2.153346 0.160631 0.070000
10.573685 1.118446 0.152501 0.030000
10.489411 0.036659 0.143260 0.030000
10.223983 -0.988642 0.148756 0.020000
9.978686 -2.018504 0.139287 0.020000
9.422284 -2.994332 0.134207 0.060000
7.038908 2.950555 1.655100 0.310000
43.944141 17.444353 8.775385 0.040000
42.152946 10.551636 7.980079 0.010000
11.191958 1.187764 2.209394 0.250000
42.036674 -5.241841 7.501061 0.030000
7.229445 3.016635 0.995837 0.120000
13.106381 4.488183 1.361651 0.000000
13.142661 2.863793 1.300707 0.010000
11.165318 1.161154 1.144215 0.170000
13.237559 0.005252 1.250328 0.020000
13.114356 -1.392300 1.229811 0.090000
13.389175 -2.947348 1.234748 0.020000
11.199878 -3.774074 1.130959 0.240000
9.362928 4.275761 0.176078 0.100000
9.824524 3.154440 0.163114 0.050000
10.065477 2.063880 0.154689 0.070000
10.294900 1.053113 0.146531 0.030000
10.239950 0.006895 0.137498 0.020000
9.998956 -0.987915 0.138171 0.020000
9.707900 -1.978646 0.128728 0.020000
9.221198 -2.938137 0.123891 0.050000
7.039535 2.920635 1.634991 0.330000
47.171844 18.574699 9.243017 0.030000
42.186333 10.392706 7.854574 0.020000
11.207691 1.153151 2.184306 0.230000
44.969242 -0.181140 7.897532 0.090000
42.069794 -5.390885 7.405592 0.020000
7.225060 2.986601 0.980713 0.300000
13.157025 4.459258 1.331676 0.010000
13.158599 2.819200 1.270582 0.010000
13.263399 -0.034150 1.220249 0.010000
11.185725 -3.814242 1.100772 0.220000
9.116533 4.086027 0.169729 0.090000
9.572171 3.014600 0.156936 0.050000
9.807360 1.963937 0.148644 0.080000
10.021114 0.987877 0.140573 0.030000
9.980491 -0.023061 0.131709 0.030000
9.759013 -0.992493 0.132527 0.020000
9.447183 -1.943633 0.128178 0.020000
8.939622 -2.858515 0.123452 0.060000
7.045148 2.890792 1.619894 0.300000
47.459709 18.440519 9.153269 0.030000
42.215240 10.203611 7.748945 0.020000
11.258392 1.119171 2.169312 0.140000
44.953186 -0.371060 7.781783 0.290000
43.216282 -5.729263 7.482328 0.020000
7.235590 2.961872 0.960649 0.460000
13.088758 4.373064 1.296177 0.040000
13.134640 2.768842 1.240332 0.010000
11.121895 1.085492 1.093819 0.090000
148.428009 -20.018188 8.078850 2.254000
13.436527 -3.061241 1.174447 0.010000
7.346330 3.021551 0.266153 0.120000
9.285005 2.864074 0.155626 0.050000
9.534245 1.863707 0.142558 0.080000
9.757326 0.922832 0.134643 0.030000
9.701035 -0.053400 0.125867 0.030000
9.473780 -0.982954 0.131818 0.020000
9.206570 -1.913217 0.122663 0.020000
8.688244 -2.788299 0.118057 0.060000
7.060677 2.866158 1.599843 0.250000
42.266399 16.109699 8.026036 0.060000
44.951725 -0.535585 7.636166 0.240000
43.274937 -5.902730 7.361835 0.020000
40.884266 -10.818614 7.127318 0.020000
11.376929 -4.034800 2.240463 0.060000
7.251105 2.937219 0.945597 0.560000
15.620967 5.311358 1.406275 0.020000
30.474953 6.973619 2.136235 0.030000
11.137641 1.050898 1.063732 0.070000
13.332795 -1.557834 1.144765 0.040000
13.412485 -3.106581 1.139216 0.010000
10.612892 -3.659874 1.014850 0.320000
7.356859 2.996822 0.246088 0.210000
9.012655 2.723852 0.149394 0.050000
9.261129 1.763477 0.136473 0.080000
9.433537 0.856619 0.133552 0.030000
9.411473 -0.078951 0.125016 0.030000
8.732115 -0.907254 0.160164 0.030000
8.910584 -1.863859 0.117073 0.020000
8.401477 -2.698775 0.117641 0.070000
7.056400 2.831143 1.579701 0.390000
42.256035 15.890049 7.865191 0.080000
39.839592 -5.560968 6.674131 0.030000
39.882622 -10.701713 6.835135 0.010000
11.473675 -4.122907 2.225388 0.110000
7.291341 2.928062 0.925668 0.270000
13.115961 4.268841 1.220859 0.020000
13.131848 2.664045 1.164935 0.000000
11.148388 1.016208 1.033630 0.080000
13.301240 -0.168083 1.119848 0.010000
32.182640 -4.350128 1.948597 0.190000
15.761468 -3.821923 1.197689 0.010000
10.568458 -3.685620 0.984638 0.370000
7.362581 2.961999 0.225973 0.260000
8.710587 2.568039 0.148027 0.050000
8.953199 1.652560 0.135257 0.090000
9.129744 0.790789 0.132514 0.030000
9.071919 -0.105458 0.124031 0.030000
8.752847 -0.941772 0.135090 0.030000
8.614586 -1.814519 0.116484 0.030000
8.139897 -2.618770 0.117256 0.040000
7.086721 2.816777 1.564727 0.400000
42.156467 15.628700 7.698958 0.060000
47.304935 -0.955958 7.740747 0.080000
39.798161 -5.731370 6.558388 0.020000
39.570137 -10.812094 6.663908 0.030000
11.379110 -4.139538 2.175079 0.130000
7.336659 2.913982 0.910734 0.200000
15.142516 4.982596 1.278803 0.030000
30.505453 6.714890 1.935351 0.020000
11.114348 0.970676 0.998372 0.100000
12.907224 -0.215435 1.063643 0.020000
32.205608 -4.489309 1.838138 0.150000
15.843404 -3.915187 1.147555 0.040000
10.584599 -3.740192 0.949477 0.260000
7.373110 2.937269 0.205909 0.240000
8.443237 2.427912 0.141808 0.050000
8.669977 1.557119 0.134162 0.090000
8.810953 0.724672 0.131436 0.030000
8.822363 -0.130224 0.118288 0.030000
8.377234 -0.913979 0.139213 0.030000
8.348677 -1.769603 0.115957 0.030000
6.183020 -1.776631 0.260280 0.120000
7.077555 2.776686 1.539554 0.400000
41.858696 15.278725 7.481878 0.040000
42.452740 -1.020560 6.817832 0.140000
39.485657 -5.836641 6.357179 0.020000
39.332485 -10.910984 6.477918 0.030000
11.314624 -4.160612 2.129832 0.420000
7.396714 2.915224 0.885895 0.150000
15.019886 4.865428 1.223047 0.050000
30.697485 6.623900 1.840513 0.000000
11.165184 0.931753 0.968360 0.080000
12.733045 -0.253613 1.018046 1.000000
12.724124 -1.614006 1.007966 0.050000
10.560462 -3.780533 0.914263 0.230000
7.423357 2.928322 0.181006 0.290000
8.160877 2.287480 0.140549 0.050000
8.376852 1.456488 0.133023 0.090000
8.576885 0.675217 0.120641 0.030000
8.492616 -0.146542 0.117366 0.030000
8.307587 -0.930242 0.118970 0.020000
8.062593 -1.715055 0.110413 0.030000
6.128069 -1.777628 0.245132 0.150000
45.153782 16.300747 7.839282 0.040000
11.167794 0.913041 1.993307 0.020000
42.341572 -1.197079 6.641884 0.110000
39.614876 -6.038762 6.236764 0.030000
38.808731 -10.950215 6.256402 0.030000
11.270325 -4.191300 2.084601 0.180000
14.956862 4.769406 1.167525 0.120000
13.190025 2.515573 1.044533 0.000000
15.503418 1.309482 1.096089 0.680000
12.684116 -0.304412 0.977729 1.000000
11.701923 -1.498287 0.930727 0.100000
15.690527 -4.012747 1.041792 0.080000
10.571702 -3.840200 0.879071 0.210000
7.478521 2.924488 0.151136 0.260000
7.923139 2.167924 0.134484 0.060000
8.128445 1.371734 0.127060 0.080000
8.262998 0.614195 0.119595 0.030000
8.218051 -0.171805 0.116556 0.030000
8.027255 -0.915608 0.118293 0.010000
7.826788 -1.674545 0.104948 0.030000
6.148788 -1.812164 0.225058 0.100000
7.088929 2.712075 1.489343 0.200000
42.662731 15.109991 7.238347 0.060000
43.185661 9.254851 6.977943 0.010000
11.208632 0.873926 1.963268 0.040000
42.976128 -1.419727 6.577712 0.220000
40.225845 -6.336912 6.182250 0.040000
38.843197 -11.164098 6.120696 0.020000
15.307487 2.926125 1.071587 0.000000
12.635093 -0.350213 0.937431 0.080000
11.647804 -1.539184 0.890433 0.180000
15.672015 -4.082912 0.986483 0.250000
10.577846 -3.894964 0.843883 0.180000
7.424721 2.863502 0.135768 0.130000
7.730104 2.064227 0.128594 0.050000
7.885024 1.287057 0.126110 0.090000
8.024001 0.559608 0.118768 0.030000
7.958291 -0.186782 0.115822 0.030000
7.822115 -0.909518 0.112780 0.020000
7.636358 -1.653170 0.099530 0.040000
7.239656 -2.350891 0.095901 0.090000
7.114455 2.687633 1.469318 0.360000
44.787601 15.640303 7.375866 0.040000
43.270126 9.047074 6.802390 0.020000
11.174714 0.823433 1.917992 0.110000
51.350269 -1.958111 7.597579 0.070000
39.853569 -6.453292 5.970843 0.030000
39.264595 -11.480735 6.025618 0.010000
15.223224 4.714864 1.068016 0.140000
13.286954 2.427726 0.959459 0.010000
12.596080 -0.395803 0.892159 0.110000
11.593590 -1.575082 0.850158 0.270000
13.424883 -3.455434 0.872948 0.050000
10.588989 -3.949631 0.808708 0.140000
7.212648 2.709431 0.129642 0.130000
7.512253 1.950035 0.127601 0.050000
7.686415 1.213259 0.120317 0.080000
7.794906 0.510212 0.117986 0.030000
7.753726 -0.210686 0.110199 0.040000
7.687358 -0.922064 0.102381 0.020000
7.380352 -1.603064 0.099048 0.030000
7.068743 -2.304137 0.090629 0.100000
7.115191 2.652733 1.444190 0.340000
44.202354 15.165037 7.092569 0.060000
43.239998 8.817099 6.626454 0.010000
11.175668 0.778571 1.882827 0.120000
51.540157 -2.188928 7.437216 0.120000
11.697380 -1.662070 1.930117 0.010000
38.071918 -11.307373 5.703146 0.020000
13.038430 5.738496 0.986118 0.090000
14.986312 4.560538 1.001824 0.070000
15.081087 2.752180 0.955348 0.010000
12.602141 -0.445549 0.851989 0.120000
11.559372 -1.610597 0.809936 0.300000
15.423429 -4.142243 0.865612 0.380000
6.995372 2.565244 0.128539 0.110000
7.319123 1.851337 0.121730 0.050000
7.457800 1.138867 0.119443 0.100000
7.590628 0.471311 0.112309 0.030000
7.538970 -0.224783 0.104586 0.040000
7.416916 -0.902258 0.106749 0.020000
7.184718 -1.571805 0.098654 0.040000
6.852345 -2.233269 0.090327 0.110000
44.446178 14.990263 6.932554 0.070000
57.146255 11.507484 8.422773 0.050000
35.642750 -1.629857 5.097773 0.020000
11.648190 -1.697835 1.879855 0.030000
38.076046 -11.501778 5.552432 0.020000
15.007793 4.491139 0.946621 0.270000
15.062658 2.676997 0.905020 0.030000
12.733372 -0.502899 0.812118 0.440000
11.580513 -1.665074 0.774788 0.330000
6.827703 2.442012 0.127643 0.140000
7.111078 1.747334 0.120800 0.050000
7.269094 1.070259 0.113696 0.090000
7.386529 0.422394 0.111594 0.030000
7.309288 -0.244203 0.108914 0.040000
7.226773 -0.895880 0.101276 0.030000
6.948803 -1.526315 0.098207 0.040000
6.646043 -2.167209 0.090034 0.100000
7.141562 2.588410 1.394019 0.110000
44.382294 14.699758 6.721305 0.040000
57.207405 11.219448 8.191860 0.170000
36.096802 -1.825902 5.018229 0.070000
11.624162 -1.743156 1.839623 1.000000
38.915562 -11.985657 5.517825 0.020000
44.116394 -20.731264 6.498900 0.060000
13.061383 5.599296 0.880659 0.020000
13.116606 3.765121 0.848985 0.070000
14.989348 2.595781 0.849526 0.020000
11.606667 -1.719436 0.734654 0.190000
6.669854 2.328987 0.121811 0.130000
6.937657 1.664016 0.115038 0.050000
7.075280 1.006536 0.112953 0.110000
7.187154 0.388588 0.105948 0.030000
7.119432 -0.252823 0.103387 0.040000
7.011430 -0.880002 0.100773 0.030000
6.788271 -1.499367 0.092888 0.040000
6.479924 -2.110380 0.089812 0.120000
7.142203 2.558509 1.368910 0.160000
44.471691 14.497112 6.535783 0.100000
40.594170 7.654466 5.730217 0.050000
44.208164 -2.463841 5.902040 0.180000
11.595038 -1.783575 1.799396 0.060000
39.633961 -12.406698 5.443134 0.020000
46.696018 -22.272646 6.639905 0.030000
15.130178 4.383885 0.831541 0.150000
14.945842 2.525136 0.794149 0.030000
31.283392 2.007514 0.949872 0.010000
11.758180 -1.791400 0.694782 0.200000
13.420171 -3.704872 0.682007 0.040000
6.506896 2.220847 0.120983 0.130000
6.749321 1.575394 0.114217 0.050000
6.906270 0.953290 0.112314 0.120000
7.007858 0.350147 0.105337 0.030000
6.924660 -0.266555 0.102827 0.040000
6.816084 -0.863740 0.100324 0.030000
6.577340 -1.453417 0.097509 0.040000
6.339197 -2.073050 0.084583 0.100000
7.197436 2.549638 1.349021 0.350000
46.239971 14.860950 6.566751 0.030000
40.737709 7.492755 5.574989 0.080000
44.117130 -2.644920 5.711127 0.060000
11.580925 -1.823687 1.754210 0.040000
44.268845 -21.327076 6.122079 0.100000
13.099142 5.470381 0.775277 0.040000
15.181367 4.330058 0.776474 0.170000
11.285055 1.760185 0.701749 0.050000
31.266092 1.882582 0.834362 0.010000
14.779339 -0.778324 0.696434 0.180000
11.739138 -1.836644 0.659564 0.300000
15.490246 -4.465178 0.634584 0.030000
13.574325 -5.737021 0.604854 0.030000
6.348938 2.112803 0.120169 0.110000
6.590788 1.497344 0.113513 0.050000
6.747366 0.895255 0.106683 0.110000
6.808471 0.316323 0.104691 0.040000
6.774880 -0.279426 0.102388 0.040000
6.650923 -0.856902 0.099918 0.020000
6.406605 -1.416680 0.097199 0.040000
6.188171 -2.020933 0.084383 0.100000
7.158480 2.498993 1.318730 0.320000
46.419048 14.675007 6.386526 0.050000
42.435467 7.620145 5.619895 0.090000
50.409397 2.944155 6.408335 0.040000
35.741226 -2.256083 4.550697 0.090000
11.581892 -1.868530 1.714045 0.020000
41.494175 -13.430904 5.349181 0.010000
44.870121 -21.895275 6.016535 0.090000
13.135239 3.595980 0.703403 0.070000
11.241017 1.714462 0.666464 0.100000
31.269062 1.743018 0.723850 0.010000
14.805614 -0.837648 0.646281 0.080000
11.704932 -1.872141 0.614342 0.320000
11.952836 -3.322557 0.584597 0.080000
6.210689 2.020139 0.119464 0.110000
6.427243 1.419180 0.117795 0.040000
6.563346 0.841703 0.111004 0.100000
6.668976 0.288646 0.104224 0.030000
6.579904 -0.283179 0.106866 0.050000
6.495665 -0.844873 0.099558 0.030000
6.246060 -1.389750 0.096881 0.050000
5.991662 -1.944702 0.089153 0.100000
45.698959 14.192213 6.087849 0.070000
41.119541 7.181094 5.279824 0.080000
50.279240 2.722466 6.177168 0.020000
11.894245 -0.682301 1.709270 0.020000
40.547508 -13.312969 5.062146 0.010000
44.789738 -22.106045 5.795540 0.050000
13.097004 5.335701 0.669770 0.030000
11.202087 1.663854 0.626174 0.160000
13.232362 0.627627 0.607621 0.010000
12.077505 -0.694706 0.594691 0.060000
11.705886 -1.917002 0.579177 0.340000
11.621660 -3.258742 0.543969 0.150000
13.547000 -5.862182 0.499317 0.020000
6.052635 1.917093 0.118668 0.120000
6.273530 1.351242 0.112142 0.040000
6.424139 0.799029 0.110482 0.090000
6.474478 0.259898 0.108609 0.040000
6.435135 -0.295936 0.101440 0.050000
6.305304 -0.828534 0.104121 0.030000
6.090310 -1.352745 0.101612 0.050000
5.845634 -1.892489 0.088966 0.080000
45.330978 13.855986 5.845636 0.040000
41.795799 7.134367 5.191415 0.040000
57.355606 2.895857 6.786291 0.030000
11.895103 -0.722164 1.674124 0.070000
45.435921 -22.668365 5.685135 0.080000
14.991160 6.187312 0.627880 0.090000
13.122584 3.486048 0.612960 0.040000
11.153050 1.618035 0.590875 0.200000
12.058284 -0.729933 0.554510 0.110000
11.706757 -1.956846 0.539031 0.200000
11.627640 -3.303470 0.498818 0.300000
5.929095 1.839714 0.118058 0.110000
6.104890 1.277981 0.116429 0.040000
6.240023 0.750476 0.114821 0.100000
6.334888 0.237220 0.108160 0.030000
6.270153 -0.299114 0.105998 0.040000
6.170042 -0.816123 0.103815 0.030000
5.974961 -1.334932 0.096377 0.050000
5.694500 -1.835392 0.093784 0.110000
44.714371 13.450095 5.572515 0.060000
42.780952 7.143438 5.139019 0.160000
57.380299 2.682099 6.565558 0.030000
11.825821 -0.753313 1.623827 0.150000
45.284374 -22.820524 5.474172 0.140000
