# This PCD file was generated using the MATLAB® pcwrite function
# from Computer Vision Toolbox®.
# .PCD v.7 - Point Cloud Data file format
VERSION .7
FIELDS x y z intensity
SIZE 4 4 4 4
TYPE F F F F
COUNT 1 1 1 1
WIDTH 1280
HEIGHT 1
VIEWPOINT 0 0 0 1 0 0 0
POINTS 1280
DATA ascii
5.584984 1.007995 0.109068 0.030000
5.693683 0.554996 0.107668 0.090000
5.747215 0.110962 0.101157 0.030000
5.726035 -0.349525 0.099390 0.080000
5.644783 -0.806144 0.092480 0.030000
5.458346 -1.254794 0.090326 0.060000
5.247227 -1.718882 0.078050 0.110000
45.703217 19.326813 5.121937 0.070000
57.260567 15.814766 5.894057 0.060000
11.145623 1.364731 1.439923 0.470000
34.885189 0.801766 3.549819 0.050000
11.805676 -0.983116 1.452918 0.680000
11.323801 -3.497752 1.432312 0.060000
48.402367 -26.009560 4.975451 0.030000
13.071786 4.866217 0.372956 0.010000
13.134616 3.152081 0.376748 0.040000
10.953815 1.339812 0.414319 0.090000
13.249349 0.298829 0.351441 0.010000
19.124405 -1.713404 0.194294 0.000000
16.540352 -3.358330 0.221435 0.030000
11.276133 -3.464589 0.322300 0.330000
11.277079 -5.074727 0.281317 0.090000
5.495226 1.516366 0.110724 0.110000
5.669393 1.039617 0.109406 0.030000
5.773381 0.571526 0.107938 0.100000
5.872000 0.123354 0.101529 0.040000
5.791022 -0.348281 0.099564 0.080000
5.730041 -0.819532 0.097653 0.030000
5.548904 -1.283064 0.090457 0.070000
5.312777 -1.747650 0.083114 0.110000
50.870377 21.768490 5.884509 0.120000
57.237415 15.943411 6.149477 0.080000
11.150135 1.384675 1.480009 0.590000
35.018360 0.878817 3.690454 0.050000
11.765114 -0.959017 1.487902 0.670000
45.159100 -10.147147 4.555946 0.010000
11.313124 -3.468098 1.472395 0.040000
48.151279 -25.719995 5.160874 0.070000
13.105691 4.916692 0.423233 0.040000
13.109119 3.171431 0.421754 0.030000
11.038036 1.376303 0.449675 0.100000
13.223757 0.323178 0.396465 0.010000
13.340975 -1.094790 0.381500 0.010000
19.503445 -4.011643 0.211741 0.010000
11.265455 -3.434935 0.362383 0.340000
11.266293 -5.040092 0.326418 0.260000
5.594154 1.573270 0.111194 0.100000
5.753789 1.071221 0.114744 0.030000
5.892879 0.598819 0.108351 0.100000
5.951876 0.129866 0.106762 0.040000
5.911096 -0.350981 0.099868 0.070000
5.815217 -0.827902 0.097844 0.040000
5.644365 -1.306240 0.090620 0.070000
5.418715 -1.795630 0.083212 0.110000
46.574097 20.001778 5.626724 0.070000
57.248745 16.102812 6.380102 0.070000
11.129677 1.404176 1.510029 0.500000
35.261402 0.962954 3.836403 0.050000
11.759531 -0.934266 1.527980 0.860000
45.101353 -10.028873 4.731237 0.030000
11.337727 -3.452771 1.512517 0.030000
48.097496 -25.551746 5.366361 0.070000
14.756052 5.693363 0.450428 0.040000
13.153118 3.217099 0.472039 0.020000
11.032563 1.396073 0.484734 0.150000
24.059479 0.671366 0.261042 0.010000
11.887327 -0.927857 0.448326 0.020000
13.398989 -2.559011 0.396208 0.040000
11.300056 -3.419416 0.402531 0.400000
5.693081 1.630175 0.111663 0.110000
5.867906 1.118414 0.115217 0.040000
5.982384 0.625538 0.108684 0.110000
6.081577 0.147372 0.102165 0.040000
6.016172 -0.353970 0.100131 0.070000
5.920485 -0.840888 0.098071 0.050000
5.755015 -1.339127 0.090787 0.080000
5.509356 -1.828918 0.088325 0.130000
46.327595 20.051369 5.816267 0.090000
57.219986 16.266447 6.610638 0.070000
11.144091 1.429310 1.550160 0.410000
35.194340 1.051191 3.971557 0.010000
11.733870 -0.904881 1.563023 0.840000
45.053371 -9.895337 4.886610 0.020000
44.126858 -23.176565 5.144824 0.040000
14.725339 5.722579 0.505457 0.150000
13.117624 3.236257 0.517018 0.030000
11.031993 1.420938 0.519826 0.080000
11.896729 -0.902838 0.493444 0.060000
11.294378 -3.389667 0.442627 0.430000
5.791996 1.687061 0.117133 0.110000
5.987021 1.165704 0.115704 0.030000
6.111880 0.653023 0.109124 0.090000
6.186353 0.159362 0.107483 0.030000
6.146243 -0.356479 0.100461 0.060000
6.060937 -0.863202 0.098355 0.050000
5.845368 -1.357418 0.095955 0.060000
5.615199 -1.871899 0.088441 0.100000
46.209724 20.173437 6.006415 0.070000
48.496880 13.836559 5.868828 0.070000
11.163408 1.459539 1.590323 0.280000
37.120815 1.206903 4.307168 0.030000
11.728300 -0.880111 1.598101 0.820000
45.015347 -9.761665 5.057009 0.010000
44.133076 -23.007149 5.345471 0.050000
16.721884 4.350427 0.545568 0.060000
11.106203 1.457219 0.560155 0.090000
13.291680 0.414019 0.526981 0.000000
11.855974 -0.868741 0.528465 0.070000
18.821756 -3.700469 0.436120 0.030000
11.333883 -3.369053 0.482807 0.300000
13.558244 -6.176729 0.418176 0.040000
5.925547 1.764651 0.112770 0.120000
6.130953 1.223489 0.111294 0.030000
6.251184 0.690697 0.109628 0.100000
6.316041 0.176849 0.107887 0.030000
6.286217 -0.353798 0.100836 0.060000
6.171095 -0.871112 0.103613 0.040000
5.986109 -1.394729 0.096183 0.050000
5.721041 -1.914879 0.088558 0.110000
50.035988 22.134533 6.713700 0.070000
57.211197 16.654495 7.117063 0.040000
44.467209 1.594239 5.262794 0.030000
11.747604 -0.849901 1.643264 0.610000
45.407177 -23.519121 5.696898 0.060000
14.772621 5.848066 0.626048 0.090000
16.541843 4.341739 0.610066 0.050000
11.190234 1.503708 0.595547 0.180000
30.841476 1.120489 0.510417 0.010000
11.865293 -0.838704 0.568602 0.040000
13.361413 -2.445243 0.541535 0.050000
11.388481 -3.353151 0.523009 0.230000
6.098802 1.858004 0.108569 0.110000
6.284870 1.281447 0.111912 0.040000
6.425397 0.734060 0.105244 0.110000
6.515634 0.200694 0.103496 0.030000
6.421179 -0.351231 0.106198 0.060000
6.346651 -0.897736 0.098972 0.040000
6.111756 -1.427329 0.096390 0.060000
5.872259 -1.976994 0.088722 0.110000
45.526707 20.274054 6.365010 0.090000
57.211052 16.888636 7.362935 0.030000
57.352669 2.250265 6.898884 0.070000
11.801997 -0.824020 1.688503 0.620000
46.271492 -23.778732 6.003192 0.050000
16.306814 4.331997 0.674417 0.050000
11.209468 1.538955 0.630729 0.140000
30.809278 1.219486 0.620702 0.020000
14.814933 -1.057362 0.605489 0.270000
18.809093 -3.581203 0.576532 0.010000
11.458076 -3.336962 0.563252 0.210000
13.580940 -6.071679 0.528627 0.010000
6.217330 1.935269 0.114166 0.110000
6.448594 1.349595 0.112592 0.040000
6.574603 0.776925 0.105792 0.120000
6.675220 0.223754 0.103999 0.040000
6.621264 -0.352363 0.096716 0.060000
6.486912 -0.910052 0.099292 0.020000
6.277505 -1.464143 0.091686 0.070000
6.018394 -2.034187 0.083891 0.100000
51.318390 23.236959 7.356152 0.070000
45.194233 13.392460 6.068558 0.100000
41.313362 6.709374 5.373578 0.160000
57.333321 2.444067 7.134557 0.080000
11.841298 -0.793427 1.733719 0.600000
45.302197 -23.052443 6.078362 0.120000
13.109733 5.185717 0.724246 0.010000
16.106707 4.327962 0.728881 0.050000
11.173796 1.568130 0.670745 0.180000
13.259130 0.527920 0.662321 0.000000
12.033998 -0.780756 0.649258 0.110000
18.963306 -3.548501 0.647057 0.010000
11.522576 -3.315870 0.603499 0.270000
13.529094 -5.982840 0.578822 0.020000
6.380574 2.028412 0.114938 0.130000
6.592417 1.412360 0.113201 0.050000
6.743804 0.820173 0.106395 0.120000
6.849818 0.247121 0.099541 0.040000
6.761224 -0.349700 0.102092 0.050000
6.662262 -0.926697 0.099688 0.030000
6.413137 -1.496569 0.096920 0.060000
6.184705 -2.101014 0.084076 0.110000
44.530781 20.273952 6.642413 0.020000
46.879395 14.123304 6.500678 0.090000
57.293442 2.667536 7.355286 0.070000
45.352737 -22.847172 6.279260 0.130000
14.971762 6.131289 0.802622 0.070000
13.132696 3.460724 0.752894 0.030000
11.202932 1.608567 0.705971 0.140000
30.774456 1.437996 0.856426 0.010000
14.787747 -0.958250 0.710787 0.260000
13.423640 -2.319542 0.682166 0.030000
11.582078 -3.294873 0.643733 0.360000
6.508921 2.115885 0.115598 0.150000
6.765947 1.490697 0.113945 0.050000
6.922813 0.873611 0.107061 0.130000
7.009295 0.275161 0.105062 0.040000
6.936096 -0.341349 0.102579 0.060000
6.807523 -0.938917 0.100022 0.040000
6.604073 -1.542902 0.092246 0.070000
6.350933 -2.162823 0.079280 0.110000
43.911732 20.201645 6.760530 0.080000
45.275002 13.817579 6.480353 0.050000
42.158131 7.189006 5.822570 0.040000
57.228569 2.890527 7.575947 0.090000
45.443283 -22.641117 6.475264 0.040000
11.202170 1.643430 0.741099 0.120000
13.222285 0.611918 0.747538 0.000000
14.921825 -0.915858 0.761295 0.860000
11.776012 -1.941140 0.709272 0.030000
11.706937 -3.292647 0.689067 0.130000
13.536410 -5.858081 0.689306 0.030000
6.681877 2.224217 0.116453 0.130000
6.939477 1.569035 0.114689 0.050000
7.076909 0.921552 0.112641 0.130000
7.183784 0.303508 0.105623 0.030000
7.120965 -0.332807 0.103093 0.060000
6.972766 -0.950773 0.105409 0.040000
6.784792 -1.579466 0.097582 0.050000
6.491851 -2.210151 0.084472 0.120000
73.853798 35.120689 11.539195 0.230000
44.793327 13.882907 6.604340 0.080000
41.122959 7.184070 5.849850 0.080000
44.564510 -21.943153 6.565566 0.080000
13.150336 3.570733 0.848350 0.060000
30.714363 1.671043 1.087138 0.010000
11.749859 -1.886778 0.749406 0.050000
6.829919 2.327052 0.122221 0.130000
7.113008 1.647372 0.115434 0.050000
7.265819 0.980181 0.113352 0.120000
7.403181 0.337734 0.101323 0.040000
7.310834 -0.324170 0.103621 0.060000
7.168113 -0.967035 0.105859 0.040000
6.970620 -1.620914 0.097913 0.060000
6.673159 -2.276690 0.084698 0.110000
41.142498 19.353477 6.745148 0.090000
44.892670 14.149069 6.820591 0.060000
41.402756 7.428702 6.061492 0.060000
44.304413 -2.828089 6.180940 0.250000
11.701821 -1.886841 1.879292 0.000000
39.443645 -12.691401 5.716581 0.020000
44.503220 -21.639915 6.741535 0.060000
13.074617 5.424354 0.925044 0.030000
15.266003 4.326055 0.946681 0.090000
30.766478 1.806662 1.197779 0.030000
11.758986 -1.846743 0.789579 0.170000
13.538370 -5.713385 0.789850 0.020000
7.007778 2.440478 0.123107 0.130000
7.301343 1.735994 0.116255 0.060000
7.449827 1.033714 0.114032 0.130000
7.592462 0.376348 0.106960 0.040000
7.550693 -0.314574 0.104283 0.050000
7.388551 -0.987817 0.106357 0.040000
7.181539 -1.666883 0.098292 0.050000
6.849263 -2.333346 0.089947 0.120000
41.508224 19.804609 7.007782 0.080000
45.036606 14.436069 7.042036 0.070000
41.971645 7.718750 6.309058 0.070000
11.660697 -1.832729 1.909386 0.020000
39.615841 -12.568742 5.897489 0.020000
43.629822 -20.956722 6.796795 0.050000
15.189998 4.369387 1.006645 0.110000
13.214060 0.761292 0.883073 0.000000
12.740348 -0.612968 0.861728 0.090000
11.732845 -1.792362 0.824713 0.220000
13.414754 -3.705562 0.841992 0.080000
13.521600 -5.628892 0.845121 0.020000
7.185432 2.563884 0.129030 0.130000
7.499568 1.829789 0.122121 0.060000
7.693344 1.113392 0.114964 0.100000
7.781743 0.414961 0.112598 0.030000
7.750560 -0.305745 0.104837 0.040000
7.643995 -1.007910 0.101949 0.030000
7.392362 -1.707853 0.098690 0.050000
7.070755 -2.409117 0.090244 0.110000
42.111214 20.395161 7.311554 0.040000
44.842667 14.616782 7.207203 0.060000
41.190403 7.768595 6.362204 0.050000
51.565926 3.481779 7.673365 0.020000
51.748085 -2.880563 7.570189 0.100000
39.908554 -12.473834 6.093608 0.020000
43.599102 -20.682905 6.972734 0.130000
13.096464 5.574413 1.030660 0.040000
13.116719 3.739605 0.988892 0.120000
31.255367 2.095159 1.450130 0.010000
12.644207 -0.559947 0.901674 0.100000
11.566239 -1.715686 0.864564 0.260000
13.443564 -3.650184 0.892273 0.070000
7.407707 2.708167 0.130146 0.130000
7.722514 1.939078 0.123109 0.060000
7.872147 1.176809 0.120666 0.110000
8.025930 0.459646 0.113401 0.030000
7.950222 -0.286936 0.110429 0.040000
7.798940 -1.004978 0.112364 0.030000
7.643273 -1.753055 0.099177 0.040000
7.246763 -2.460774 0.095511 0.100000
44.702923 14.838503 7.382665 0.070000
41.071106 7.970796 6.512646 0.090000
11.291901 0.705528 1.952860 0.000000
51.282299 -2.599874 7.690018 0.080000
40.457264 -12.434180 6.330190 0.020000
44.138252 -20.668493 7.224198 0.070000
15.257012 2.690135 1.065578 0.040000
13.226919 0.861244 0.968479 0.010000
12.603056 -0.505872 0.941768 0.130000
11.565298 -1.670806 0.894729 0.320000
13.427204 -3.585651 0.937471 0.040000
13.569031 -5.508329 0.945694 0.030000
7.644692 2.867733 0.131358 0.120000
7.920643 2.037872 0.128994 0.060000
8.135565 1.261869 0.121670 0.100000
8.275117 0.504426 0.114218 0.030000
8.209982 -0.271959 0.111162 0.040000
8.019174 -1.015781 0.117899 0.030000
7.833895 -1.784428 0.104558 0.040000
7.473253 -2.536450 0.095821 0.090000
49.522346 24.866709 9.032539 0.080000
44.801895 15.124679 7.593989 0.080000
41.051952 8.164877 6.673319 0.020000
11.245981 0.749565 1.977904 0.020000
43.066513 -1.973424 6.665890 0.130000
40.310902 -6.875763 6.285470 0.050000
40.402405 -12.200703 6.470916 0.020000
44.339218 -20.485382 7.435405 0.050000
13.132842 5.749774 1.131407 0.060000
15.105763 4.567222 1.167162 0.150000
15.220726 2.749249 1.120703 0.080000
17.204861 1.241835 1.160280 0.010000
12.606993 -0.455935 0.981965 0.140000
11.544240 -1.621347 0.934858 0.360000
15.498603 -4.176488 1.050683 0.030000
10.635279 -4.029089 0.898535 0.060000
7.851862 3.016709 0.137453 0.130000
8.173296 2.162732 0.130117 0.060000
8.359168 1.336146 0.127530 0.090000
8.564105 0.559970 0.115179 0.030000
8.504735 -0.256311 0.111990 0.040000
8.289602 -1.035605 0.118531 0.030000
8.054607 -1.820226 0.110001 0.030000
7.684542 -2.602433 0.101127 0.080000
49.386650 25.133387 9.243179 0.040000
45.054539 15.478737 7.825967 0.070000
42.864735 8.758086 7.120261 0.040000
11.185244 0.783297 2.007871 0.040000
46.354488 -1.927829 7.324649 0.070000
40.075966 -6.635623 6.395751 0.040000
40.458263 -12.005149 6.621790 0.010000
44.570587 -20.321655 7.636620 0.080000
15.114098 4.647212 1.217481 0.070000
12.595850 -0.401267 1.017139 0.160000
11.573280 -1.575911 0.970103 0.350000
15.672935 -4.148364 1.111243 0.060000
10.578486 -3.940271 0.928717 0.080000
8.093641 3.186351 0.143715 0.110000
8.415938 2.287383 0.136214 0.060000
8.647389 1.431683 0.128637 0.100000
8.823085 0.614922 0.121060 0.030000
8.799393 -0.235664 0.112836 0.040000
8.554840 -1.045527 0.119187 0.030000
8.340704 -1.874756 0.110545 0.030000
7.920936 -2.672918 0.101483 0.080000
52.802616 27.346119 10.100330 0.040000
41.802502 14.562650 7.444069 0.060000
42.581310 8.917246 7.240114 0.040000
11.159307 0.827698 2.037968 0.140000
41.882591 -1.536479 6.789425 0.090000
40.553425 -6.527212 6.602402 0.020000
38.517864 -11.196563 6.454730 0.010000
44.469189 -20.009073 7.782519 0.060000
13.060334 5.868095 1.216659 0.080000
30.588882 6.276429 1.928939 0.040000
15.679275 1.252473 1.196337 0.000000
12.634875 -0.355658 1.057411 0.140000
11.592323 -1.530667 1.005321 0.330000
10.587435 -3.890219 0.963927 0.170000
8.315617 3.345612 0.149886 0.130000
8.708296 2.428007 0.137500 0.060000
8.935611 1.527220 0.129745 0.100000
9.126974 0.675753 0.122079 0.030000
9.094049 -0.215017 0.113682 0.040000
8.825159 -1.060371 0.124837 0.030000
8.611707 -1.924575 0.111068 0.030000
52.646454 27.637428 10.306007 0.030000
41.911755 14.839149 7.620384 0.080000
42.581921 9.126781 7.380896 0.010000
42.058716 -1.353624 6.940567 0.130000
39.827305 -6.216100 6.611663 0.040000
40.746159 -11.675732 6.938770 0.030000
11.285910 -4.236395 2.189476 0.010000
13.114834 4.068839 1.205113 0.020000
15.652999 1.311797 1.246490 0.000000
12.683899 -0.309857 1.097710 0.090000
13.426969 -3.336235 1.108399 0.030000
10.541024 -3.821206 0.994062 0.170000
8.592019 3.535939 0.151315 0.120000
8.960745 2.562847 0.143660 0.050000
9.243637 1.633138 0.130942 0.090000
9.435754 0.741659 0.128130 0.030000
9.388598 -0.189390 0.119546 0.030000
9.145483 -1.074239 0.125622 0.030000
8.847417 -1.960086 0.116551 0.030000
6.193514 -1.806545 0.290196 0.090000
47.400921 25.114344 9.512928 0.040000
41.990997 15.115056 7.801618 0.070000
48.996647 -1.355335 8.208683 0.080000
40.605549 -6.152101 6.863935 0.020000
40.827328 -11.494658 7.079656 0.030000
11.370489 -4.219937 2.234758 0.110000
13.062046 6.027844 1.302258 0.020000
13.113580 4.128679 1.245332 0.020000
30.652721 6.572007 2.120206 0.000000
11.205037 0.927185 1.058448 0.000000
12.757945 -0.263541 1.128075 0.070000
10.560080 -3.775943 1.024281 0.120000
8.843413 3.725769 0.157677 0.130000
9.262814 2.718660 0.145028 0.050000
9.526654 1.738558 0.137073 0.090000
9.729548 0.807298 0.129141 0.030000
9.703156 -0.163361 0.120464 0.030000
9.420719 -1.083969 0.126304 0.030000
9.183599 -2.018657 0.117211 0.030000
6.152716 -1.767374 0.305235 0.090000
47.053398 25.227306 9.622441 0.050000
41.931931 15.308482 7.932184 0.110000
46.851929 -1.100613 7.999030 0.100000
40.205894 -5.919897 6.913755 0.030000
40.591991 -11.229412 7.160028 0.030000
11.349182 -4.155426 2.259943 0.080000
13.035796 6.087205 1.342411 0.030000
13.102436 4.183347 1.280507 0.030000
30.495350 6.683738 2.195211 0.030000
11.243993 0.977830 1.088738 0.020000
12.676841 -0.210177 1.153062 0.050000
32.194729 -4.485617 2.138127 0.220000
13.419405 -3.211596 1.173844 0.030000
11.290344 -4.052226 1.085160 0.170000
9.114721 3.921000 0.159111 0.130000
9.550063 2.864169 0.151319 0.060000
9.794879 1.833712 0.138127 0.090000
10.018428 0.867823 0.135120 0.030000
9.952618 -0.133596 0.126226 0.030000
9.736030 -1.097952 0.132075 0.030000
9.429212 -2.048977 0.122739 0.030000
46.700645 25.350113 9.746979 0.060000
41.792870 15.500358 8.067535 0.100000
49.350437 11.390906 9.016997 0.020000
46.812710 -0.896750 8.114686 0.060000
40.262421 -5.754207 7.029520 0.040000
40.628258 -11.049070 7.265795 0.030000
11.398506 -4.124604 2.295186 0.280000
13.086320 4.237957 1.305668 0.050000
13.171606 2.664477 1.255041 0.010000
11.263158 1.018113 1.113938 1.000000
32.202042 -4.355729 2.213629 0.120000
11.279131 -3.992522 1.110353 0.270000
9.341408 4.095354 0.165351 0.110000
9.802429 3.004027 0.152497 0.050000
10.033097 1.928272 0.144100 0.090000
10.262218 0.932485 0.140997 0.030000
10.222075 -0.103449 0.132041 0.030000
9.940883 -1.089045 0.137643 0.030000
9.664824 -2.079489 0.128241 0.030000
9.183217 -3.043883 0.123399 0.060000
46.748501 25.700487 9.913407 0.040000
41.763264 15.724408 8.183292 0.050000
42.186501 9.862634 7.847604 0.030000
11.259572 1.054090 2.194073 0.000000
45.008560 -0.670565 7.920815 0.190000
40.459267 -5.605887 7.160587 0.040000
40.664528 -10.868730 7.371561 0.010000
11.427765 -4.089129 2.320395 0.080000
13.145658 2.708859 1.290139 0.010000
11.152552 1.045926 1.133753 0.050000
13.260155 -0.129321 1.244887 0.050000
13.317454 -1.553475 1.239742 0.050000
13.412128 -3.101954 1.239233 0.010000
11.313280 -3.951971 1.140594 0.130000
9.567999 4.274706 0.171609 0.100000
10.064684 3.149056 0.158721 0.050000
10.266315 2.022737 0.150060 0.080000
10.516022 0.997357 0.141900 0.030000
10.496545 -0.073187 0.132870 0.030000
10.145831 -1.085137 0.143193 0.020000
52.649155 29.444132 11.312741 0.040000
44.104912 16.887424 8.748734 0.030000
42.197475 10.057475 7.958358 0.040000
11.323606 1.100196 2.229412 0.010000
44.959763 -0.486834 8.021372 0.270000
40.460773 -5.436158 7.251223 0.030000
40.695923 -10.693445 7.467296 0.010000
29.142590 15.622723 2.684914 0.030000
30.457104 7.082251 2.421595 0.060000
11.116848 1.080193 1.148787 0.080000
13.296448 -1.503942 1.259871 0.070000
13.390930 -3.042423 1.259399 0.030000
11.282097 -3.892612 1.155733 0.130000
9.804504 4.459269 0.172913 0.110000
10.272237 3.278036 0.164742 0.050000
10.544238 2.133061 0.156196 0.080000
10.754718 1.066922 0.147782 0.030000
10.710917 -0.039094 0.138556 0.030000
10.430970 -1.089677 0.143920 0.020000
10.135957 -2.135512 0.139262 0.020000
9.610232 -3.145741 0.129135 0.060000
52.469002 29.695305 11.428205 0.040000
43.842216 17.017197 8.808532 0.030000
42.233360 10.257812 8.064198 0.040000
11.238034 1.128544 2.234294 0.030000
44.926025 -0.302723 8.096970 0.100000
41.765717 -5.462253 7.549535 0.020000
29.094748 15.761593 2.750306 0.030000
30.419846 7.191336 2.481904 0.070000
11.161008 1.120955 1.174054 0.060000
12.989767 -1.419819 1.264384 0.110000
13.399919 -2.992315 1.279609 0.020000
11.185350 -3.804505 1.170808 0.210000
9.996486 4.617955 0.179004 0.100000
10.524602 3.417894 0.165921 0.050000
10.732670 2.216685 0.156999 0.080000
10.938712 1.120437 0.153461 0.020000
10.900293 -0.005479 0.144176 0.030000
10.615730 -1.076155 0.149453 0.020000
10.371488 -2.161006 0.139782 0.020000
9.785857 -3.177401 0.134475 0.050000
44.462296 25.231932 9.820698 0.020000
43.773460 17.200602 8.894034 0.040000
42.234703 10.437576 8.144870 0.020000
11.277100 1.174209 2.259566 0.110000
48.221878 -0.146976 8.761158 0.090000
41.692192 -5.288887 7.619988 0.030000
11.192883 -3.838638 2.335713 0.060000
29.126051 15.947023 2.806078 0.090000
30.432222 7.321413 2.532420 0.060000
11.170200 1.161083 1.189227 0.130000
12.988866 -1.374883 1.279549 0.110000
11.179450 -3.759665 1.185960 0.230000
10.198464 4.776833 0.185122 0.100000
10.692545 3.526111 0.171762 0.050000
10.955890 2.310958 0.162932 0.070000
10.992909 1.161446 0.163755 0.030000
11.109775 0.023538 0.144830 0.030000
10.835690 -1.071942 0.150043 0.020000
10.506545 -2.163438 0.145126 0.020000
9.936391 -3.204541 0.139768 0.050000
6.712715 2.754420 1.613520 0.000000
44.443657 17.687716 9.117598 0.050000
42.256123 10.612706 8.230577 0.010000
11.181734 1.192386 2.259385 0.150000
40.295853 0.016078 7.426062 0.150000
41.654099 -5.134773 7.670462 0.030000
11.217251 -3.808239 2.355890 0.130000
29.068523 16.070742 2.861388 0.130000
30.405014 7.430765 2.572756 0.060000
11.029830 1.178379 1.193925 0.140000
12.952971 -1.330618 1.294620 0.150000
11.193546 -3.714442 1.201165 0.200000
10.400168 4.950727 0.186294 0.100000
10.870308 3.644536 0.172666 0.050000
11.139322 2.394486 0.163721 0.070000
11.037108 1.202263 0.174023 0.100000
11.319052 0.062534 0.150522 0.030000
11.010452 -1.058611 0.155548 0.020000
6.677529 2.763747 1.613462 0.000000
44.221310 17.803350 9.152447 0.070000
11.106174 1.220944 2.259294 0.160000
40.192932 0.164042 7.451343 0.310000
41.836281 -4.996534 7.746452 0.040000
11.191201 -3.753729 2.356024 0.170000
6.748835 2.782371 0.998711 0.010000
30.392721 7.545421 2.608151 0.060000
11.054129 1.213814 1.204121 0.220000
31.563782 0.201735 2.533908 0.030000
12.957068 -1.285587 1.309798 0.170000
11.278491 -3.712870 1.216392 0.270000
11.028254 3.752562 0.178480 0.050000
11.282845 2.472230 0.169385 0.070000
11.006514 1.231645 0.184052 0.140000
11.463449 0.095306 0.151020 0.030000
11.135128 -1.041238 0.160939 0.020000
10.861958 -2.181635 0.145986 0.020000
10.262563 -3.263324 0.145401 0.050000
6.691817 2.798972 1.628631 0.020000
44.122940 17.971312 9.202815 0.040000
11.030708 1.244503 2.259184 0.240000
40.089973 0.311949 7.491625 0.280000
42.459572 -4.925208 7.918346 0.020000
11.180220 -3.703967 2.366181 0.240000
6.753328 2.807425 1.008816 0.010000
16.545271 6.092988 1.741597 0.010000
30.360432 7.659695 2.643492 0.050000
10.998551 1.242736 1.209083 0.200000
31.526520 0.315949 2.559236 0.010000
12.971273 -1.245344 1.319985 0.170000
17.068890 -3.728260 1.581453 0.000000
11.307775 -3.677357 1.231601 0.520000
10.615789 5.179860 0.197709 0.090000
11.106788 3.829061 0.183969 0.050000
11.391580 2.539324 0.169918 0.070000
11.005816 1.266601 0.194180 0.130000
11.577744 0.132483 0.156457 0.030000
10.971828 -2.174547 0.151299 0.010000
10.377624 -3.266139 0.150690 0.040000
6.666534 2.813490 1.628619 0.020000
43.811298 18.055395 9.192314 0.030000
11.040023 1.279669 2.264339 0.240000
38.737831 0.441883 7.268576 0.110000
42.386219 -4.751600 7.923800 0.030000
11.300215 -3.706779 2.396484 0.190000
29.725653 11.797755 2.797219 0.060000
30.348083 7.779406 2.663905 0.020000
11.022754 1.283170 1.219297 0.230000
31.544355 0.426237 2.579692 0.010000
12.980492 -1.205179 1.325158 0.160000
11.286725 -3.622751 1.231749 0.320000
10.708773 5.286678 0.193349 0.080000
11.155533 3.895006 0.184342 0.040000
11.440516 2.595271 0.170254 0.070000
11.099936 1.313412 0.194600 0.150000
11.616971 0.173241 0.156711 0.030000
11.314137 -0.987800 0.161604 0.020000
10.981047 -2.134382 0.156473 0.010000
10.366751 -3.221357 0.155829 0.040000
6.661056 2.838390 1.628697 0.050000
44.614727 18.640188 9.386587 0.020000
11.059226 1.320007 2.274540 0.210000
38.764912 0.592373 7.284206 0.200000
42.297810 -4.573225 7.914232 0.030000
43.766342 -10.287797 8.356827 0.010000
11.309446 -3.666595 2.396657 0.480000
6.786763 2.888043 1.019203 0.040000
29.693153 11.927137 2.802615 0.160000
11.156745 1.335709 1.229842 0.120000
31.512049 0.545621 2.585052 0.010000
11.275769 -3.572952 1.231905 0.430000
10.618777 5.284935 0.198108 0.090000
11.075248 3.908453 0.189182 0.050000
11.370037 2.618907 0.175158 0.070000
11.149078 1.359380 0.189899 0.150000
11.561297 0.207163 0.161692 0.030000
11.263367 -0.948784 0.166617 0.020000
10.965283 -2.094677 0.156579 0.010000
10.305421 -3.152520 0.155924 0.040000
6.655578 2.863289 1.628775 0.040000
41.592175 17.524305 8.774543 0.020000
50.550156 13.885638 10.034412 0.010000
11.153212 1.371761 2.289978 0.200000
38.827148 0.738628 7.274912 0.220000
42.234684 -4.404239 7.869695 0.030000
43.813072 -10.111742 8.322603 0.010000
11.333701 -3.626087 2.386871 0.300000
29.645845 12.051363 2.772953 0.100000
11.121202 1.365070 1.219858 0.110000
31.385082 0.653374 2.540121 0.030000
11.841518 -0.996643 1.237959 0.060000
11.279945 -3.527809 1.217084 0.390000
10.826457 3.843695 0.183292 0.040000
11.125670 2.584240 0.169391 0.060000
11.118547 1.388855 0.174929 0.130000
11.315685 0.237482 0.156163 0.030000
11.017179 -0.888470 0.161199 0.020000
10.653137 -1.985636 0.156170 0.010000
10.138548 -3.055680 0.150849 0.050000
6.670013 2.893589 1.623925 0.070000
41.564663 17.669170 8.675009 0.030000
50.492607 14.035003 9.914817 0.060000
11.162686 1.402021 2.270115 0.150000
38.720222 0.851967 7.175054 0.200000
44.426296 -4.508348 8.165032 0.010000
43.911110 -9.994477 8.223294 0.000000
11.373363 -3.605250 2.367052 0.310000
6.790760 2.943202 0.999419 0.120000
29.644234 12.146643 2.693302 0.080000
18.228552 4.635024 1.725571 0.000000
11.100792 1.389775 1.194896 0.120000
31.393744 0.733829 2.465441 0.050000
11.826012 -0.966843 1.213029 0.210000
17.054436 -3.488293 1.527307 0.000000
7.390319 3.327228 0.327404 0.050000
10.379716 3.670127 0.176481 0.040000
10.657675 2.475257 0.167764 0.070000
10.905488 0.244646 0.150119 0.030000
10.621021 -0.831029 0.155378 0.020000
10.301217 -1.887322 0.145616 0.020000
9.795668 -2.907184 0.140506 0.040000
6.664875 2.903566 1.603949 0.100000
41.305832 17.634977 8.464204 0.030000
50.436607 14.114677 9.714965 0.070000
40.353306 0.947747 7.319674 0.100000
42.702522 -4.264668 7.711433 0.040000
43.950233 -9.928185 8.078641 0.000000
11.368085 -3.585201 2.327112 0.210000
6.775911 2.937991 0.979360 0.080000
29.633839 12.181835 2.588405 0.040000
13.161255 3.194097 1.331984 0.000000
11.090694 1.399712 1.159907 0.090000
13.216857 0.299834 1.271369 0.010000
11.815913 -0.956907 1.178040 0.230000
17.029119 -3.463553 1.467332 0.010000
11.284443 -3.492478 1.152226 0.110000
9.967981 3.497248 0.164763 0.050000
10.194991 2.351411 0.156096 0.070000
10.499783 1.322085 0.148065 0.030000
10.405594 0.235089 0.143779 0.030000
10.235161 -0.788374 0.144529 0.020000
9.934382 -1.794312 0.140005 0.020000
9.447968 -2.768800 0.135112 0.050000
6.664927 2.903641 1.583949 0.090000
41.231590 17.619194 8.288949 0.050000
50.387138 14.114464 9.514832 0.070000
38.984337 0.932883 6.946041 0.130000
42.993031 -4.273721 7.607157 0.020000
44.005436 -9.916557 7.923827 0.010000
11.388268 -3.589687 2.292148 0.180000
6.746256 2.922493 0.959225 0.120000
13.064516 4.847481 1.352877 0.010000
13.161359 3.194246 1.291984 0.000000
11.065886 1.394364 1.124822 0.110000
13.241861 0.305460 1.231455 0.010000
11.796021 -0.957141 1.137986 0.280000
17.039356 -3.468157 1.412341 0.010000
11.254266 -3.477907 1.112201 0.110000
7.360634 3.316823 0.282288 0.120000
9.487000 3.282998 0.162711 0.050000
9.762372 2.223103 0.154490 0.070000
10.041115 1.248288 0.146594 0.030000
10.025679 0.227830 0.137760 0.030000
9.864381 -0.750450 0.138702 0.020000
9.592843 -1.715803 0.129405 0.020000
9.110456 -2.640223 0.129709 0.040000
6.664979 2.903715 1.563949 0.120000
41.242210 17.610001 8.123941 0.070000
50.343052 14.094349 9.314640 0.080000
11.182561 1.422772 2.170243 0.040000
40.518559 0.971851 7.065192 0.150000
42.998337 -4.268050 7.452190 0.030000
44.081116 -9.929542 7.768975 0.010000
11.398357 -3.589365 2.257175 0.220000
6.751225 2.927681 0.934257 0.100000
13.084452 4.858048 1.302968 0.040000
13.101789 3.178285 1.241769 0.000000
11.070976 1.394590 1.089835 0.100000
31.389030 0.764954 2.135541 0.040000
11.801112 -0.956915 1.103000 0.210000
13.408031 -2.616672 1.166025 0.010000
11.259465 -3.482662 1.072197 0.140000
7.335991 3.301440 0.257166 0.100000
9.115149 3.115865 0.156119 0.050000
9.409368 2.116342 0.148171 0.070000
9.667252 1.186135 0.140387 0.030000
9.675853 0.216147 0.131803 0.030000
9.523691 -0.716951 0.132937 0.020000
9.321661 -1.655968 0.123919 0.020000
8.737747 -2.502337 0.129249 0.050000
6.670126 2.898886 1.543945 0.160000
41.263309 17.576004 7.958869 0.060000
50.349407 14.050159 9.124491 0.070000
11.167750 1.417616 2.135185 0.070000
40.604374 0.948985 6.930330 0.190000
42.974361 -4.297891 7.282015 0.020000
44.132481 -9.977980 7.608927 0.010000
11.403653 -3.599119 2.217152 0.210000
6.756372 2.922852 0.914252 0.090000
13.131983 3.174010 1.201831 0.000000
11.101145 1.390277 1.059898 0.100000
31.384880 0.735254 2.030419 0.090000
11.816392 -0.966496 1.068004 0.200000
13.408326 -2.626521 1.125989 0.010000
11.244655 -3.487818 1.037139 0.260000
7.301625 3.270849 0.236962 0.160000
8.763281 2.949097 0.154581 0.040000
9.031450 2.004084 0.146768 0.080000
9.273475 1.118581 0.139108 0.030000
9.311126 0.199177 0.125788 0.030000
9.143092 -0.689235 0.132047 0.020000
8.960209 -1.582859 0.118248 0.020000
8.390321 -2.378969 0.128801 0.050000
6.675273 2.894057 1.523940 0.200000
41.289860 17.517071 7.803717 0.060000
50.326443 13.970403 8.934133 0.080000
11.203014 1.408400 2.105242 0.110000
40.675659 0.900818 6.800335 0.090000
42.219330 -4.266374 7.015159 0.010000
44.148842 -10.027107 7.453785 0.000000
11.363668 -3.594738 2.177064 0.260000
6.761615 2.913024 0.894229 0.110000
13.065539 4.812990 1.217750 0.010000
13.122473 3.153970 1.161731 0.000000
11.121411 1.380774 1.029915 0.080000
31.401001 0.690922 1.930295 0.090000
11.826865 -0.986171 1.032958 0.220000
13.413813 -2.646273 1.085930 0.020000
11.219847 -3.493165 1.002054 0.340000
7.331589 3.276516 0.212061 0.170000
8.456035 2.803205 0.148236 0.050000
8.698538 1.892707 0.140485 0.080000
8.929606 1.057003 0.132981 0.030000
8.951481 0.177285 0.124768 0.020000
8.832684 -0.670158 0.126308 0.020000
8.628834 -1.514193 0.117638 0.020000
8.103471 -2.284427 0.123403 0.050000
6.685529 2.884343 1.498930 0.210000
41.188168 17.370811 7.607906 0.050000
50.319183 13.855995 8.728686 0.080000
11.168509 1.387882 2.065075 0.150000
39.927929 0.812454 6.533052 0.160000
43.613594 -4.484949 7.082986 0.030000
11.364143 -3.614604 2.141991 0.290000
6.796456 2.923748 0.879360 0.250000
14.990017 5.634827 1.270829 0.020000
13.152763 3.144696 1.121776 0.010000
11.116791 1.365811 0.994847 0.080000
31.457127 0.647374 1.825279 0.030000
13.359036 -2.652158 1.040764 0.040000
11.215322 -3.513127 0.966967 0.490000
7.346734 3.271878 0.192083 0.190000
8.188480 2.673059 0.147054 0.050000
8.440120 1.807743 0.139494 0.080000
8.655616 1.001746 0.132060 0.030000
8.671724 0.161925 0.123981 0.030000
8.512169 -0.646292 0.125560 0.020000
8.312551 -1.450239 0.117050 0.020000
7.907192 -2.218138 0.113137 0.050000
6.680965 2.864326 1.478844 0.150000
44.005966 18.513880 7.919513 0.030000
50.336536 13.762062 8.523380 0.070000
11.134111 1.362384 2.019890 0.190000
43.332584 0.811320 6.906939 0.190000
45.509048 -4.769156 7.211879 0.020000
11.349538 -3.629739 2.101896 0.340000
6.767197 2.888273 0.854151 0.370000
14.911408 5.568493 1.220377 0.060000
17.868217 4.449703 1.283937 0.000000
11.137153 1.351308 0.964846 0.070000
31.498325 0.598503 1.730204 0.010000
11.877696 -1.019965 0.967964 0.110000
13.369618 -2.676813 1.000700 0.030000
11.185611 -3.523570 0.931851 0.500000
7.940840 2.548312 0.140944 0.050000
8.156802 1.717301 0.138418 0.090000
8.396540 0.951794 0.126198 0.030000
8.387065 0.141469 0.123161 0.030000
8.261846 -0.631065 0.119963 0.030000
8.066651 -1.404922 0.111577 0.020000
7.690808 -2.147251 0.107836 0.070000
6.676319 2.849326 1.453776 0.100000
44.246563 18.503981 7.785103 0.050000
50.334114 13.652657 8.342965 0.060000
11.079705 1.336484 1.979651 0.230000
43.444530 0.728926 6.776924 0.180000
45.636414 -4.871203 7.066831 0.020000
11.344931 -3.644683 2.061828 0.320000
6.777343 2.883540 0.834160 0.400000
14.798228 5.481549 1.154758 0.070000
17.869154 4.409952 1.218791 0.010000
11.097731 1.325677 0.929647 0.060000
13.234309 0.211179 0.991082 0.010000
13.005756 -1.168368 0.965357 0.260000
13.365312 -2.706736 0.955577 0.030000
11.186099 -3.543417 0.891778 0.440000
7.337428 3.241860 0.146947 0.090000
7.708004 2.433851 0.134911 0.050000
7.943196 1.643216 0.132585 0.080000
8.102649 0.891155 0.125206 0.030000
8.127318 0.126510 0.117428 0.040000
8.016603 -0.620760 0.119361 0.030000
7.860924 -1.368856 0.111174 0.020000
7.524894 -2.100402 0.102577 0.060000
44.641117 18.546967 7.671292 0.050000
50.357002 13.528769 8.152562 0.040000
11.030298 1.310680 1.939426 0.300000
40.533207 0.590254 6.193803 0.220000
45.899181 -4.995735 6.942052 0.020000
41.575581 -9.737579 6.423134 0.020000
11.325436 -3.664895 2.016701 0.320000
6.782682 2.868713 0.814119 0.340000
14.804042 5.446856 1.099643 0.030000
17.959581 4.396902 1.158978 0.010000
11.058309 1.300046 0.894449 0.090000
13.239905 0.186447 0.946004 0.010000
12.996354 -1.193388 0.920239 0.230000
11.146498 -3.559032 0.851616 0.340000
7.105647 3.072409 0.140712 0.080000
7.485154 2.319563 0.133904 0.050000
7.709786 1.558749 0.126662 0.090000
7.898467 0.847255 0.119510 0.030000
7.877653 0.106725 0.116703 0.040000
7.796371 -0.609958 0.113826 0.030000
7.675409 -1.342367 0.100788 0.030000
7.313592 -2.034437 0.102271 0.070000
6.677094 2.814481 1.413648 0.110000
44.620010 18.372282 7.465585 0.040000
11.035868 1.285910 1.904348 0.340000
40.525543 0.490676 6.033411 0.360000
45.716492 -5.088480 6.731228 0.020000
40.965305 -9.693324 6.166703 0.010000
11.321115 -3.694837 1.976578 0.370000
13.093913 4.669352 0.987288 0.060000
13.150424 3.030272 0.946342 0.010000
11.058892 1.275199 0.854358 0.240000
12.992035 -1.223329 0.880116 0.170000
16.577408 -3.565279 0.935770 0.010000
6.923077 2.943890 0.139758 0.080000
7.277205 2.210561 0.132956 0.060000
7.506083 1.489854 0.120874 0.100000
7.679274 0.803049 0.118773 0.030000
7.687989 0.088108 0.111138 0.040000
7.621321 -0.608292 0.108375 0.030000
7.454588 -1.301589 0.100363 0.030000
7.122395 -1.973070 0.097000 0.080000
6.677638 2.789579 1.388556 0.190000
44.445065 18.139753 7.229262 0.040000
57.032619 15.049926 8.710649 0.050000
11.021549 1.255777 1.864198 0.370000
40.542942 0.386541 5.883068 0.350000
45.644192 -5.204206 6.545608 0.020000
38.838169 -9.277321 5.707692 0.010000
13.099796 4.629622 0.942155 0.040000
18.369831 4.405219 1.035078 0.010000
11.049560 1.245144 0.819221 0.320000
12.907551 -1.244786 0.834815 0.240000
13.417871 -2.820236 0.815291 0.030000
10.966562 -3.552165 0.766171 0.100000
6.750517 2.815581 0.133830 0.080000
7.098977 2.117149 0.127143 0.060000
7.312461 1.416132 0.120095 0.090000
7.465190 0.753959 0.113032 0.030000
7.468317 0.068898 0.110493 0.040000
7.375983 -0.592988 0.107792 0.030000
7.218770 -1.261098 0.099898 0.030000
6.931294 -1.916701 0.091710 0.090000
6.702877 2.780134 1.368587 0.090000
43.497246 17.542742 6.884565 0.030000
57.097164 14.847006 8.470059 0.130000
11.037212 1.226201 1.829129 0.300000
36.936905 0.234781 5.238084 0.160000
45.717686 -5.362204 6.375210 0.020000
38.645020 -9.350372 5.526915 0.020000
11.196578 -3.706876 1.881208 0.220000
18.460653 4.372190 0.970192 0.010000
11.035229 1.214992 0.784071 1.110000
13.297054 0.093002 0.815805 0.000000
12.883248 -1.275092 0.789639 0.280000
10.896775 -3.558356 0.725965 0.100000
6.587861 2.692462 0.127948 0.090000
6.905942 2.013453 0.121254 0.050000
7.118756 1.347429 0.114334 0.110000
7.275992 0.710328 0.112376 0.030000
7.253645 0.049783 0.109862 0.040000
7.185923 -0.591627 0.107301 0.030000
6.987951 -1.220512 0.099446 0.030000
6.745275 -1.865255 0.091416 0.080000
43.605366 17.405430 6.709335 0.050000
57.176201 14.669332 8.239603 0.090000
11.137643 1.208212 1.804324 0.300000
36.984356 0.126166 5.102803 0.210000
45.746014 -5.511045 6.199729 0.020000
38.557381 -9.451464 5.361309 0.030000
11.197462 -3.746701 1.836061 0.270000
14.689345 5.200440 0.873426 0.050000
13.157992 2.915910 0.805935 0.000000
11.020994 1.179842 0.748903 1.080000
13.262945 0.052506 0.770565 0.010000
12.859041 -1.310397 0.744444 0.290000
16.319555 -3.654573 0.754763 0.010000
10.847163 -3.574181 0.690777 0.090000
6.405277 2.563925 0.131994 0.080000
6.757407 1.935594 0.120577 0.060000
6.930024 1.278784 0.118586 0.120000
7.086698 0.671696 0.111738 0.030000
7.078965 0.031434 0.109338 0.040000
6.990767 -0.585364 0.106815 0.040000
6.842595 -1.203292 0.099131 0.040000
6.569253 -1.813617 0.091148 0.090000
43.391384 17.122143 6.472721 0.040000
57.166275 14.440036 7.983722 0.070000
11.173206 1.184018 1.769327 0.350000
36.977131 0.001537 4.957319 0.290000
38.585644 -9.600399 5.210827 0.020000
11.178145 -3.776929 1.795898 0.250000
14.755148 5.166896 0.818472 0.100000
19.120199 4.420307 0.842091 0.010000
13.435724 -2.949404 0.674856 0.030000
10.742205 -3.571025 0.645514 0.100000
6.277148 2.466490 0.121297 0.090000
6.574262 1.837069 0.119733 0.060000
6.756219 1.215462 0.112897 0.110000
6.927412 0.633657 0.106181 0.030000
6.879290 0.012607 0.108747 0.040000
6.830715 -0.583410 0.101404 0.030000
6.656959 -1.171842 0.098763 0.040000
6.398232 -1.761883 0.090894 0.100000
43.415543 16.933306 6.272080 0.070000
57.226093 14.222005 7.748065 0.080000
11.188966 1.149442 1.734239 0.230000
36.885044 -0.129682 4.801589 0.290000
40.610500 -5.135776 5.217709 0.010000
38.986042 -9.862355 5.095897 0.010000
11.209285 -3.831214 1.760777 0.140000
13.051258 6.404666 0.768625 0.030000
14.701930 5.081064 0.763014 0.080000
13.169963 2.826472 0.710633 0.000000
11.157218 1.127716 0.674064 0.070000
13.264809 -0.032143 0.680254 0.010000
10.682703 -3.592022 0.605280 0.160000
6.119369 2.348429 0.125446 0.080000
6.425836 1.754230 0.114037 0.050000
6.602302 1.157504 0.112280 0.100000
6.748212 0.590217 0.105552 0.030000
6.729618 -0.005244 0.103289 0.040000
6.660555 -0.576668 0.100985 0.030000
6.476418 -1.145295 0.098391 0.040000
6.237317 -1.714938 0.085649 0.090000
43.524563 16.751059 6.081685 0.050000
57.201626 13.967389 7.502053 0.070000
11.219722 1.115153 1.699191 0.210000
36.613045 -0.264273 4.625377 0.300000
57.376347 -7.616557 7.007269 0.060000
39.090099 -10.054920 4.965452 0.020000
13.013133 6.314122 0.713189 0.010000
13.220741 2.792604 0.665639 0.010000
11.157980 1.092853 0.638936 0.280000
13.255694 -0.072160 0.635081 0.000000
15.795806 -3.698933 0.568229 0.010000
10.648389 -3.622538 0.565077 0.220000
5.981407 2.240768 0.124686 0.070000
6.272398 1.671277 0.113328 0.050000
6.448385 1.099546 0.111662 0.100000
6.598910 0.552351 0.105021 0.030000
6.564937 -0.023402 0.102792 0.040000
6.525580 -0.579253 0.100623 0.030000
6.315969 -1.123364 0.098053 0.040000
6.076375 -1.668031 0.090403 0.110000
44.303326 16.836336 5.989034 0.040000
57.227161 13.713750 7.251174 0.080000
11.200609 1.074945 1.653991 0.440000
36.656288 -0.412939 4.479936 0.320000
57.421646 -7.859870 6.771481 0.050000
39.400375 -10.308527 4.830317 0.020000
11.367683 -3.997972 1.695570 0.150000
13.078936 6.280578 0.658235 0.060000
29.956074 6.859161 0.634440 0.020000
11.093959 1.046766 0.598597 0.130000
15.037517 -0.142846 0.584469 0.010000
13.329310 -1.555774 0.564757 0.020000
13.393986 -3.099698 0.529187 0.010000
10.629251 -3.662783 0.529877 0.300000
5.848252 2.143201 0.123976 0.080000
6.118947 1.588305 0.117619 0.040000
6.299467 1.041684 0.111059 0.090000
6.419601 0.513892 0.109410 0.030000
6.390148 -0.036770 0.107286 0.040000
6.345422 -0.572703 0.100177 0.030000
6.155519 -1.101433 0.097716 0.040000
5.940730 -1.635623 0.090169 0.110000
44.258648 16.586170 5.787985 0.070000
57.262711 13.455192 7.030303 0.070000
34.919052 -0.530094 4.164963 0.260000
12.615226 -1.513750 1.738062 0.000000
39.937122 -10.642977 4.740474 0.020000
11.338464 -4.033391 1.655362 0.370000
13.132494 4.276451 0.595924 0.010000
13.138388 2.666334 0.574954 0.010000
11.104815 1.007095 0.563478 0.100000
13.262844 -0.171710 0.544729 0.010000
15.738321 -3.814633 0.452648 0.010000
10.610126 -3.703010 0.489677 0.330000
5.734902 2.056014 0.123356 0.070000
5.980314 1.515637 0.116987 0.050000
6.140537 0.983612 0.115428 0.100000
6.275300 0.476121 0.108893 0.030000
6.235464 -0.054735 0.106816 0.040000
6.185357 -0.570768 0.099767 0.030000
6.040254 -1.088638 0.097463 0.040000
5.789800 -1.588505 0.089951 0.110000
46.490543 25.048557 6.330274 0.050000
44.353283 16.373697 5.582440 0.060000
57.263645 13.181096 6.774284 0.070000
11.122558 0.983727 1.573448 0.240000
35.087139 -0.671423 4.034874 0.320000
12.626312 -1.563364 1.687906 0.010000
40.056721 -10.860156 4.584978 0.030000
11.309353 -4.073791 1.610135 0.450000
13.057171 6.125500 0.557601 0.020000
14.762202 4.838000 0.537265 0.070000
11.110672 0.967328 0.528345 0.100000
14.914909 -0.254847 0.483731 0.010000
26.120947 -3.570141 0.315657 0.040000
13.411448 -3.214017 0.428806 0.040000
10.616282 -3.757755 0.449489 0.210000
5.636454 1.974115 0.122794 0.070000
5.841764 1.437952 0.121337 0.040000
6.036336 0.941627 0.110000 0.080000
6.120903 0.443159 0.108367 0.030000
6.100681 -0.067319 0.106417 0.050000
6.065366 -0.573085 0.104445 0.040000
5.909894 -1.071132 0.097187 0.050000
5.694435 -1.570328 0.089769 0.110000
46.680222 24.832850 6.139965 0.050000
44.135090 16.045212 5.375648 0.080000
57.294430 12.912500 6.538363 0.070000
11.143316 0.949247 1.538373 0.180000
35.165337 -0.819475 3.904527 0.300000
11.549210 -1.443439 1.540539 0.020000
39.945049 -11.011717 4.419121 0.020000
13.063655 6.055813 0.502358 0.010000
14.793489 4.778790 0.482126 0.100000
13.155644 2.561995 0.479610 0.000000
11.111529 0.927466 0.493199 0.110000
14.926213 -0.314421 0.423539 0.010000
13.392826 -1.719073 0.424315 0.030000
13.407728 -3.273915 0.378573 0.030000
10.617345 -3.807597 0.409306 0.210000
5.528020 1.892042 0.117206 0.070000
5.742850 1.381066 0.115867 0.040000
5.897308 0.888937 0.114441 0.110000
6.021401 0.416248 0.108008 0.030000
5.985990 -0.084518 0.106054 0.050000
5.945292 -0.570384 0.104141 0.040000
5.804627 -1.058146 0.096961 0.050000
5.563692 -1.532825 0.089567 0.130000
47.809837 25.134811 6.069036 0.030000
44.070866 15.769629 5.184453 0.090000
41.675346 9.054252 4.693232 0.030000
11.259030 0.916549 1.513554 0.200000
12.737314 -0.300776 1.627888 0.110000
11.595333 -1.497455 1.510458 1.000000
38.888504 -10.906016 4.166753 0.020000
13.070113 5.986090 0.457115 0.040000
13.161802 2.507250 0.439422 0.000000
11.137300 0.893100 0.453138 0.110000
13.260976 -0.316277 0.409185 0.010000
13.338707 -1.759970 0.384021 0.030000
18.122078 -4.738282 0.220434 0.010000
10.628597 -3.867245 0.369113 0.190000
5.464087 1.835807 0.116830 0.070000
5.638911 1.324047 0.120384 0.040000
5.793094 0.846934 0.114013 0.100000
5.906997 0.384052 0.107589 0.030000
5.886296 -0.101431 0.105731 0.050000
5.835326 -0.572472 0.098847 0.050000
5.684362 -1.045447 0.096694 0.050000
5.483433 -1.519342 0.084408 0.120000
47.198601 24.454121 5.754907 0.040000
43.971992 15.478455 4.973111 0.110000
41.824158 8.877620 4.542963 0.030000
12.678305 -0.346749 1.582563 0.150000
11.556129 -1.533047 1.465223 0.080000
38.686378 -11.034286 3.995747 0.030000
13.066777 5.906195 0.406809 0.040000
13.132781 4.027109 0.404996 0.090000
13.232673 2.468765 0.394464 0.010000
11.143240 0.848316 0.422987 0.110000
13.162057 -0.368034 0.368734 0.010000
11.639138 -1.537480 0.380412 0.090000
16.192213 -4.240117 0.207248 0.030000
10.634851 -3.926989 0.328907 0.190000
5.365542 1.758906 0.116287 0.070000
5.564800 1.277637 0.115018 0.030000
5.698878 0.805122 0.113611 0.110000
5.807495 0.357141 0.107230 0.030000
5.791505 -0.113248 0.105439 0.050000
5.740344 -0.574291 0.098592 0.060000
5.594200 -1.037153 0.091490 0.050000
5.393066 -1.501069 0.084240 0.110000
47.398247 24.243696 5.539643 0.060000
43.947407 15.223672 4.772097 0.070000
43.088326 8.942080 4.481501 0.080000
12.659397 -0.396937 1.532327 0.490000
11.537100 -1.578273 1.425004 0.130000
38.499474 -11.172231 3.814745 0.030000
51.182709 -23.146208 5.103354 0.120000
18.270012 5.811489 0.240037 0.020000
11.189102 0.809334 0.382961 0.080000
12.697701 -0.401823 0.337396 0.030000
11.564927 -1.573761 0.340083 0.120000
14.573904 -3.821018 0.199582 0.030000
5.296705 1.697577 0.115879 0.060000
5.495688 1.231324 0.109665 0.030000
5.614578 0.768519 0.108255 0.110000
5.723003 0.330537 0.101910 0.030000
5.691716 -0.125161 0.105135 0.060000
5.665467 -0.580708 0.093372 0.050000
5.504025 -1.028879 0.091285 0.060000
5.302604 -1.477798 0.084090 0.130000
57.165211 29.083799 6.348138 0.040000
44.672737 15.227949 4.669005 0.080000
42.410831 8.574847 4.258365 0.040000
12.645463 -0.447066 1.492103 0.370000
11.513058 -1.623613 1.389773 0.150000
17.493647 -4.801525 1.908576 0.000000
13.070091 5.746579 0.311223 0.030000
15.634233 4.780754 0.249326 0.060000
15.631126 2.855354 0.242160 0.010000
11.240047 0.765430 0.347930 0.070000
12.653772 -0.452526 0.297092 0.030000
11.575974 -1.623430 0.304927 0.180000
13.508572 -3.551336 0.187803 0.030000
11.258140 -4.339758 0.228999 0.290000
5.212871 1.635961 0.115431 0.070000
5.426564 1.184992 0.109313 0.030000
5.535168 0.736993 0.107931 0.100000
5.643401 0.309008 0.101622 0.030000
5.637026 -0.141193 0.099932 0.050000
5.565473 -0.582642 0.098104 0.050000
5.438955 -1.025106 0.086129 0.060000
5.217237 -1.459429 0.083936 0.140000
29.333755 14.168762 3.325015 0.010000
30.002880 9.806375 3.155544 0.030000
30.612665 5.917586 3.082679 0.050000
12.636514 -0.497118 1.456894 0.560000
11.494015 -1.668857 1.354555 0.170000
17.872459 -7.609858 1.924125 0.000000
13.155684 5.723397 0.261360 0.040000
14.403675 4.277116 0.239241 0.050000
14.795647 2.614384 0.219083 0.010000
12.624827 -0.502961 0.261829 0.030000
12.500475 -1.840524 0.241532 0.110000
12.644530 -3.347830 0.181304 0.040000
5.183656 1.595412 0.110204 0.070000
5.342429 1.138354 0.113920 0.030000
5.470755 0.705754 0.107647 0.090000
5.578796 0.287767 0.101375 0.030000
5.542236 -0.153011 0.099641 0.060000
5.505592 -0.588771 0.092925 0.040000
5.348767 -1.016850 0.090924 0.060000
5.157070 -1.450562 0.078812 0.130000
29.456785 14.026478 3.219806 0.020000
16.834265 5.082777 1.893598 0.010000
30.705471 5.784670 2.992426 0.030000
12.667641 -0.551422 1.426773 0.430000
11.530128 -1.723084 1.329447 0.160000
17.657490 -7.603717 1.853586 0.000000
12.721389 5.425119 0.234117 0.060000
13.058592 3.746243 0.238757 0.040000
13.900152 2.372228 0.205845 0.010000
13.036414 -0.574908 0.212635 0.070000
11.951223 -3.181060 0.175115 0.040000
11.154779 -4.416495 0.158443 0.080000
5.104724 1.538891 0.109788 0.070000
5.303024 1.107612 0.108703 0.030000
5.371431 0.668827 0.112250 0.140000
5.499290 0.261240 0.101069 0.030000
5.492546 -0.168947 0.094452 0.060000
5.425607 -0.590303 0.092711 0.040000
5.293790 -1.017885 0.085777 0.060000
5.086891 -1.441904 0.078661 0.140000
29.455702 13.836809 3.114097 0.010000
16.681942 4.950056 1.832706 0.040000
30.713484 5.640128 2.901909 0.110000
31.228060 2.019490 2.849792 0.070000
12.723763 -0.605246 1.396719 0.420000
11.536067 -1.767868 1.299296 0.140000
17.971741 -5.201981 1.783334 0.000000
17.518261 -7.636151 1.788102 0.000000
12.163144 5.069420 0.216338 0.070000
12.766683 3.585716 0.212398 0.070000
11.444833 1.834871 0.262439 0.020000
12.316925 -1.908813 0.175798 0.050000
11.464041 -3.070334 0.164254 0.040000
10.671145 -4.230706 0.152871 0.060000
5.080413 1.503437 0.104593 0.070000
5.238803 1.066375 0.108382 0.030000
5.326931 0.642988 0.107038 0.160000
5.454599 0.245400 0.095893 0.030000
5.397646 -0.175784 0.099179 0.060000
5.355716 -0.596643 0.092505 0.050000
5.223707 -1.014227 0.085608 0.060000
5.026615 -1.428056 0.078555 0.140000
29.459425 13.657233 3.008438 0.060000
30.716509 5.495508 2.806378 0.100000
31.240974 1.880042 2.759307 0.120000
11.597271 -1.826614 1.274237 0.120000
11.609681 4.723777 0.208608 0.070000
12.236120 3.350550 0.200139 0.060000
11.221556 1.745653 0.241525 0.060000
12.572458 0.676574 0.176076 0.010000
12.382586 -0.637313 0.175696 0.020000
11.765686 -1.849360 0.174581 0.050000
10.961643 -2.949934 0.163390 0.040000
10.288451 -4.092993 0.147384 0.070000
5.036188 1.462583 0.104326 0.060000
