# This PCD file was generated using the MATLAB® pcwrite function
# from Computer Vision Toolbox®.
# .PCD v.7 - Point Cloud Data file format
VERSION .7
FIELDS x y z intensity
SIZE 4 4 4 4
TYPE F F F F
COUNT 1 1 1 1
WIDTH 1279
HEIGHT 1
VIEWPOINT 0 0 0 1 0 0 0
POINTS 1279
DATA ascii
5.902056 -0.401163 0.099658 0.090000
5.776087 -0.873659 0.097572 0.030000
5.590033 -1.342306 0.095344 0.070000
5.364300 -1.826678 0.082955 0.110000
46.554794 19.191504 5.558661 0.040000
57.185600 15.231688 6.311698 0.070000
11.012422 1.261960 1.494194 1.070000
35.255081 0.512827 3.814713 0.060000
40.266136 -9.474636 4.245671 0.020000
11.330808 -3.612913 1.506903 0.060000
14.696168 5.427206 0.439282 0.040000
13.116793 3.026406 0.461235 0.010000
11.005168 1.260543 0.479159 0.850000
18.470928 0.268917 0.339959 0.000000
13.178118 -1.213059 0.415635 0.050000
13.407558 -2.743843 0.385543 0.050000
11.137017 -3.522539 0.396722 0.160000
11.299754 -5.224595 0.355819 0.170000
5.694423 1.560188 0.111407 0.110000
5.849250 1.048045 0.114907 0.030000
5.973631 0.560359 0.108419 0.100000
6.052732 0.086808 0.101865 0.030000
5.952129 -0.405224 0.104773 0.090000
5.896639 -0.901356 0.097784 0.030000
5.695876 -1.385286 0.095461 0.070000
5.445230 -1.875154 0.087986 0.110000
46.440113 19.148640 5.738204 0.060000
57.174957 15.235714 6.521688 0.070000
11.037325 1.262309 1.529260 0.840000
35.234745 0.511961 3.944658 0.040000
11.325704 -3.613158 1.546890 0.060000
14.696012 5.426983 0.499281 0.130000
13.136576 3.031621 0.506307 0.020000
11.015075 1.260604 0.514186 0.840000
18.450764 0.268293 0.404905 0.000000
13.178097 -1.218225 0.460616 0.060000
11.308248 -3.589381 0.426921 0.120000
5.798624 1.602173 0.116835 0.110000
5.998469 1.090928 0.110456 0.030000
6.098320 0.577750 0.108809 0.080000
6.152701 0.088705 0.107133 0.040000
6.077393 -0.417827 0.105053 0.080000
6.012192 -0.929147 0.097982 0.030000
5.781530 -1.418651 0.095561 0.070000
5.556468 -1.938017 0.083042 0.090000
46.374889 19.131655 5.937973 0.030000
57.169209 15.239688 6.771690 0.070000
11.037234 1.262179 1.564260 0.980000
35.314365 0.512973 4.084871 0.030000
39.290703 -9.229026 4.449040 0.010000
11.315410 -3.603500 1.586899 0.070000
13.131459 3.031358 0.551293 0.030000
11.029885 1.265761 0.549244 0.650000
13.162790 -1.208681 0.505612 0.050000
27.084408 -6.092190 0.323796 0.020000
11.212286 -3.546376 0.471831 0.100000
5.927545 1.659652 0.117385 0.100000
6.137772 1.128603 0.110960 0.030000
6.237911 0.600427 0.109258 0.080000
6.302686 0.091596 0.102535 0.030000
6.237760 -0.434740 0.100409 0.060000
6.122651 -0.952036 0.098186 0.030000
5.907465 -1.466248 0.095712 0.060000
5.642302 -1.981399 0.088105 0.100000
46.219711 19.112982 6.127501 0.040000
57.172649 15.288919 7.001884 0.080000
11.026953 1.271855 1.599270 0.850000
36.188122 0.553870 4.317306 0.030000
39.849579 -4.233118 4.654072 0.190000
39.289783 -9.204662 4.619130 0.010000
11.355573 -3.617898 1.631951 0.060000
13.106237 3.035692 0.601243 0.020000
11.019687 1.270419 0.589235 0.660000
13.245718 0.197972 0.561058 0.000000
13.067294 -1.190691 0.555431 0.040000
16.979330 -3.600993 0.501682 0.050000
11.212086 -3.541526 0.511849 0.270000
6.120906 1.748408 0.108220 0.110000
6.281979 1.171372 0.111495 0.030000
6.407413 0.628697 0.104805 0.090000
6.472654 0.094852 0.102991 0.030000
6.403112 -0.451576 0.100778 0.050000
6.263199 -0.979349 0.098451 0.030000
6.023197 -1.504057 0.100874 0.060000
5.768620 -2.048992 0.088184 0.090000
46.059391 19.104286 6.297051 0.040000
57.170807 15.353052 7.232121 0.070000
11.031656 1.281801 1.639319 0.790000
36.232174 0.584206 4.457535 0.060000
40.645283 -4.293715 4.880927 0.160000
39.580132 -9.244750 4.794741 0.020000
11.345182 -3.603241 1.671979 0.070000
13.078232 4.750257 0.662545 0.010000
18.020861 4.399891 0.664144 0.040000
11.034401 1.280575 0.624311 0.570000
13.325394 0.209335 0.606309 0.000000
13.021911 -1.176704 0.595365 0.040000
16.848240 -3.553715 0.561516 0.020000
11.131134 -3.498215 0.551799 0.200000
13.639797 -6.530560 0.507074 0.020000
6.254718 1.810963 0.113801 0.130000
6.455988 1.224714 0.112147 0.040000
6.562001 0.651662 0.105294 0.100000
6.642526 0.103107 0.103465 0.030000
6.563369 -0.463509 0.101152 0.050000
6.373645 -1.002256 0.103654 0.050000
6.179331 -1.561058 0.096070 0.060000
5.904936 -2.116393 0.088289 0.090000
46.860825 19.513515 6.625668 0.050000
57.148911 15.416727 7.482303 0.060000
11.021375 1.291477 1.674329 0.850000
36.211056 0.623314 4.592627 0.080000
52.618053 -5.580162 6.412413 0.150000
39.664303 -9.223740 4.960040 0.030000
11.364979 -3.598008 1.712050 0.060000
14.674662 5.465756 0.724372 0.050000
17.955608 4.403404 0.728987 0.060000
11.044116 1.290634 0.659374 0.390000
13.260001 0.222920 0.651189 0.010000
13.021505 -1.161874 0.640419 0.040000
13.406178 -2.704725 0.620688 0.010000
11.130742 -3.483367 0.591853 0.240000
6.423263 1.889223 0.109532 0.130000
6.585197 1.267196 0.112643 0.040000
6.711493 0.679529 0.105788 0.100000
6.807413 0.111284 0.098926 0.040000
6.703535 -0.470826 0.101491 0.050000
6.559485 -1.043686 0.098985 0.030000
6.360556 -1.622580 0.091314 0.050000
6.066643 -2.203293 0.083388 0.090000
44.508488 18.583668 6.516070 0.050000
47.002560 12.665699 6.415580 0.050000
11.045979 1.306804 1.714450 0.570000
36.184849 0.667324 4.727724 0.040000
13.158522 -1.183947 1.920708 0.010000
39.863808 -9.220560 5.135574 0.020000
11.384679 -3.587775 1.752140 0.040000
14.753449 5.522073 0.779788 0.100000
17.840460 4.400959 0.793678 0.060000
13.111276 -1.155319 0.685678 0.100000
13.450861 -2.694032 0.665845 0.040000
11.200816 -3.492173 0.632004 0.220000
15.676085 -7.637142 0.613277 0.040000
6.586794 1.967369 0.110250 0.130000
6.769122 1.325747 0.108340 0.040000
6.910786 0.718353 0.106452 0.110000
6.962192 0.124251 0.099378 0.040000
6.858793 -0.482855 0.101851 0.060000
6.745217 -1.080136 0.099334 0.040000
6.496475 -1.670004 0.096492 0.050000
6.223147 -2.280309 0.083510 0.090000
44.501255 18.672831 6.711385 0.070000
46.826752 12.681693 6.590183 0.080000
11.180235 1.339180 1.769922 0.700000
36.093540 0.715071 4.867664 0.040000
41.076996 -4.192372 5.412436 0.120000
39.741619 -9.128433 5.285600 0.030000
11.374275 -3.573137 1.797168 0.040000
17.700508 4.388039 0.858266 0.050000
11.038360 1.320272 0.729470 0.090000
19.082588 0.383947 0.806988 0.000000
13.130880 -1.140087 0.725786 0.100000
13.379990 -2.655547 0.710803 0.020000
11.260810 -3.496153 0.667146 0.260000
15.695433 -7.612005 0.678422 0.190000
6.720511 2.034923 0.115850 0.140000
6.962935 1.389470 0.109083 0.040000
7.065278 0.746317 0.106959 0.130000
7.151952 0.137869 0.104924 0.040000
7.049045 -0.494213 0.102306 0.060000
6.860566 -1.097948 0.104569 0.030000
6.697792 -1.736141 0.091772 0.050000
6.349274 -2.337904 0.083625 0.100000
44.671814 18.875326 6.932585 0.070000
50.140308 13.743012 7.237784 0.110000
40.674229 0.885262 5.580261 0.060000
40.924877 -4.100727 5.537381 0.160000
39.694633 -9.044832 5.425789 0.040000
11.383882 -3.558097 1.837249 0.030000
43.367107 -23.375843 6.422112 0.030000
13.110704 4.855183 0.858021 0.050000
13.123909 3.125203 0.831625 0.050000
11.067866 1.340695 0.769624 0.120000
31.353186 0.698197 1.060189 0.010000
13.414566 -2.640066 0.760951 0.020000
11.280510 -3.485921 0.707236 0.320000
6.888837 2.123144 0.121617 0.130000
7.131837 1.447697 0.114741 0.040000
7.269473 0.790235 0.107656 0.110000
7.331727 0.151315 0.105443 0.040000
7.204195 -0.501261 0.107684 0.060000
7.051297 -1.134302 0.104932 0.040000
6.853721 -1.783163 0.092004 0.050000
6.515858 -2.419746 0.088756 0.090000
44.679073 18.989733 7.138031 0.080000
50.192345 13.868243 7.453387 0.100000
40.672375 0.959653 5.740534 0.070000
40.667480 -3.996115 5.667099 0.220000
39.858543 -9.012365 5.611340 0.040000
11.332951 -3.514175 1.867280 0.030000
43.359325 -23.256649 6.607537 0.040000
13.075293 4.869323 0.907982 0.080000
17.281027 4.339538 0.981992 0.060000
11.117287 1.366517 0.804849 0.130000
13.308002 0.303212 0.826615 0.010000
11.877194 -0.969324 0.793149 0.070000
11.325192 -3.475228 0.752393 0.320000
7.057177 2.211384 0.122385 0.140000
7.345455 1.521801 0.115574 0.050000
7.453754 0.828753 0.113280 0.110000
7.536497 0.165239 0.106029 0.040000
7.404349 -0.507429 0.108184 0.060000
7.251930 -1.165465 0.105340 0.040000
7.019731 -1.835011 0.097245 0.050000
6.697549 -2.506282 0.088908 0.090000
44.358715 18.983009 7.297172 0.080000
11.084033 1.386979 1.869849 0.130000
40.710304 1.044789 5.905951 0.040000
40.610374 -3.907743 5.817280 0.220000
11.307194 -3.479790 1.902341 0.020000
17.125996 4.331347 1.041557 0.070000
11.111813 1.386288 0.839909 0.080000
30.840311 0.812589 1.279277 0.010000
11.836618 -0.945243 0.833133 0.080000
13.383186 -2.580986 0.851090 0.010000
11.329717 -3.455266 0.787479 0.310000
13.579757 -6.312844 0.827730 0.020000
7.524259 1.585219 0.121276 0.040000
7.677946 0.873055 0.114030 0.110000
7.756059 0.189430 0.111693 0.040000
7.664696 -0.522427 0.103808 0.050000
7.512840 -1.210476 0.105854 0.040000
7.220939 -1.896169 0.097543 0.040000
6.864051 -2.583107 0.089057 0.090000
44.260963 19.100498 7.477355 0.050000
45.369125 12.726732 7.146551 0.010000
11.083559 1.406845 1.904922 0.280000
44.050488 1.241539 6.530408 0.040000
40.638157 -3.812744 5.967707 0.270000
44.488995 -9.907308 6.565109 0.020000
11.306610 -3.454944 1.942432 0.030000
44.767967 -23.776928 7.199286 0.010000
14.883164 5.758536 1.071008 0.030000
13.126831 3.214780 0.966967 0.030000
31.478333 0.904366 1.406285 0.000000
11.856058 -0.919976 0.863278 0.080000
13.442688 -2.559990 0.891324 0.030000
11.303768 -3.410884 0.822577 0.340000
13.583858 -6.272942 0.877890 0.020000
7.453161 2.423987 0.129209 0.120000
7.747684 1.669513 0.122173 0.040000
7.857037 0.921475 0.119677 0.090000
7.960733 0.208353 0.112297 0.030000
7.859743 -0.523711 0.109312 0.040000
7.698380 -1.236927 0.106240 0.030000
7.442239 -1.961942 0.097876 0.040000
7.086022 -2.683874 0.089262 0.070000
45.050182 19.624496 7.811367 0.100000
11.117873 1.437361 1.945126 0.280000
40.535606 -3.700202 6.107859 0.180000
44.476158 -9.783155 6.735539 0.010000
11.356292 -3.444155 1.987602 0.060000
44.880672 -23.685522 7.409923 0.060000
14.877159 5.803227 1.126159 0.070000
16.790688 4.329540 1.145676 0.070000
11.095675 1.435731 0.910051 0.080000
13.261055 0.386869 0.951805 0.000000
11.850379 -0.890227 0.903375 0.070000
15.715308 -7.387722 0.989311 0.080000
7.725523 2.564228 0.130441 0.120000
7.941197 1.748214 0.127970 0.040000
8.101033 0.976157 0.120518 0.100000
8.215302 0.233233 0.113054 0.030000
8.084879 -0.529418 0.114879 0.040000
7.883894 -1.263415 0.116626 0.030000
7.648338 -2.018023 0.103205 0.040000
7.267412 -2.755431 0.094470 0.080000
43.465530 19.079308 7.735203 0.060000
45.297844 13.004114 7.502399 0.010000
11.216862 1.484082 1.995558 0.240000
40.163418 1.348031 6.270655 0.000000
40.387638 -3.563451 6.227983 0.060000
44.528252 -9.652703 6.891162 0.010000
11.345531 -3.409484 2.022703 0.050000
45.103851 -23.616987 7.615762 0.050000
14.955263 5.894519 1.186703 0.070000
16.680182 4.347226 1.200454 0.060000
11.144903 1.471551 0.945313 0.050000
31.434412 1.077748 1.626817 0.020000
11.894800 -0.864500 0.938587 0.060000
7.938170 2.688304 0.136457 0.110000
8.224228 1.853653 0.129101 0.040000
8.354932 1.036030 0.121403 0.090000
8.474762 0.263189 0.118843 0.030000
8.360020 -0.534150 0.115579 0.040000
8.094430 -1.289388 0.117079 0.030000
7.844246 -2.064298 0.108545 0.040000
7.484288 -2.851294 0.094680 0.070000
41.083237 18.164347 7.500581 0.060000
45.284119 13.173222 7.682994 0.070000
11.221086 1.519022 2.035700 0.440000
43.282669 1.590539 6.899705 0.000000
44.125668 -3.784468 6.936925 0.220000
11.364848 -3.379255 2.062867 0.030000
47.367828 -24.665905 8.187778 0.020000
13.100445 5.088964 1.148867 0.040000
16.375696 4.311223 1.244526 0.110000
31.372246 1.176209 1.727022 0.030000
11.874043 -0.830019 0.973661 0.060000
13.420149 -2.445878 1.021690 0.020000
13.534835 -6.084398 1.028464 0.020000
8.205245 2.843446 0.137731 0.130000
8.422645 1.937450 0.134931 0.050000
8.618719 1.101075 0.127333 0.090000
8.769145 0.298851 0.114744 0.030000
8.635064 -0.533882 0.116298 0.030000
8.380239 -1.328921 0.117678 0.030000
8.075449 -2.124881 0.108923 0.030000
7.690866 -2.932370 0.099917 0.070000
41.014671 18.327475 7.661010 0.070000
11.205448 1.548636 2.060769 0.290000
43.140965 -3.548285 6.935233 0.060000
11.363894 -3.334394 2.098031 0.010000
44.109760 -22.656553 7.806739 0.070000
16.349489 4.365510 1.304660 0.170000
31.329872 1.285031 1.832317 0.020000
11.908260 -0.794505 1.013883 0.060000
8.462419 2.993398 0.138960 0.120000
8.735382 2.058460 0.136197 0.040000
8.872426 1.170947 0.128255 0.080000
9.063515 0.334495 0.115645 0.030000
8.945210 -0.537925 0.112093 0.030000
8.640861 -1.358935 0.118246 0.030000
8.336824 -2.194906 0.114345 0.030000
7.887253 -3.003640 0.105165 0.080000
41.332027 18.697794 7.888217 0.080000
40.304386 1.759190 6.712556 0.030000
42.071163 -3.303620 6.903350 0.100000
44.171085 -22.485918 7.962535 0.090000
13.098020 5.203626 1.234288 0.040000
31.327625 1.389677 1.922701 0.040000
11.912524 -0.759508 1.039024 0.060000
19.387798 -3.618005 1.362914 0.000000
13.552502 -5.974351 1.113920 0.020000
8.660055 3.117168 0.149936 0.130000
9.013113 2.178782 0.142369 0.040000
9.205831 1.257347 0.129447 0.090000
9.367679 0.380310 0.121609 0.030000
9.210052 -0.527869 0.117821 0.030000
8.941571 -1.393182 0.118904 0.030000
8.582928 -2.250202 0.114782 0.040000
8.083736 -3.079909 0.110395 0.060000
41.064888 18.792309 7.992872 0.050000
41.739468 1.980430 7.067128 0.020000
42.187889 -3.151889 7.049220 0.050000
45.322598 -22.865252 8.324135 0.040000
29.521093 13.151002 2.276710 0.190000
16.013687 4.393809 1.378889 0.030000
15.582005 2.400465 1.295352 0.000000
31.315176 1.504110 2.018095 0.040000
11.715302 -1.953588 1.059071 0.010000
13.458397 -3.935830 1.131253 0.010000
9.300773 2.304332 0.138587 0.050000
9.494339 1.337887 0.130499 0.080000
9.696863 0.426641 0.117640 0.030000
9.555097 -0.526242 0.113728 0.030000
9.197085 -1.418311 0.124478 0.030000
8.849124 -2.310115 0.115254 0.030000
8.310214 -3.155603 0.115704 0.070000
41.703484 19.353594 8.281629 0.060000
45.624641 14.092265 8.407307 0.030000
39.943127 2.056645 6.897721 0.040000
42.830059 -3.030412 7.281350 0.060000
44.019814 -21.934652 8.219193 0.090000
13.080514 5.323019 1.314686 0.060000
16.017323 4.458725 1.424141 0.050000
13.203983 2.025149 1.207748 0.010000
13.235873 0.625604 1.177629 0.010000
11.704376 -1.908881 1.084209 0.050000
13.559800 -5.844482 1.194423 0.020000
9.238336 3.473306 0.152769 0.120000
9.568505 2.424463 0.144732 0.040000
9.787751 1.423521 0.131584 0.080000
9.931026 0.471097 0.128417 0.030000
9.804845 -0.511475 0.119435 0.030000
9.497603 -1.442560 0.125172 0.030000
9.165598 -2.384067 0.115805 0.030000
8.607568 -3.274911 0.111037 0.070000
52.487755 24.922974 10.550505 0.050000
47.681484 14.990001 8.911018 0.050000
41.692165 2.328742 7.298302 0.020000
41.044456 -2.728878 7.092808 0.090000
44.090160 -21.708723 8.345217 0.080000
29.514217 13.485288 2.452937 0.120000
31.289806 1.763120 2.168993 0.040000
12.675905 -0.685334 1.166294 0.050000
11.588004 -1.841171 1.104157 0.110000
13.440944 -3.816363 1.191652 0.010000
13.502829 -5.745647 1.219642 0.020000
9.519834 3.658730 0.154193 0.120000
9.846058 2.554801 0.145941 0.050000
10.056059 1.513657 0.137619 0.080000
10.180105 0.520858 0.134252 0.030000
10.009493 -0.492589 0.130040 0.040000
9.732834 -1.453075 0.130747 0.030000
9.451681 -2.438616 0.121349 0.030000
8.864231 -3.360029 0.116391 0.070000
45.868317 14.640856 8.729985 0.050000
42.711922 2.572270 7.586872 0.030000
42.387222 -2.644320 7.416631 0.140000
45.584034 -22.211613 8.732251 0.070000
29.456335 13.623910 2.533302 0.220000
13.236712 2.135575 1.268245 0.010000
13.213721 0.729997 1.232960 0.010000
12.624891 -0.636394 1.191343 0.060000
11.566998 -1.791638 1.124286 0.240000
16.021402 -4.622709 1.365392 0.020000
13.506395 -5.675695 1.254912 0.010000
9.761613 3.828372 0.160455 0.120000
10.088700 2.679452 0.152038 0.050000
10.289565 1.593125 0.143524 0.080000
10.469092 0.576402 0.135213 0.030000
10.259063 -0.467805 0.130783 0.030000
9.993073 -1.463093 0.131389 0.030000
9.702593 -2.483818 0.121836 0.030000
9.095625 -3.430610 0.116732 0.070000
42.470970 13.757468 8.217829 0.030000
42.403355 7.941447 7.841028 0.110000
11.302491 0.639802 2.202646 0.010000
42.228249 -2.447569 7.481948 0.140000
45.785290 -22.033222 8.868441 0.070000
29.447704 13.803520 2.603947 0.220000
13.202700 0.779703 1.258116 0.010000
12.598886 -0.586956 1.211459 0.110000
11.545991 -1.742105 1.144416 0.210000
13.428311 -3.686784 1.247101 0.010000
13.524984 -5.605418 1.280222 0.060000
9.978506 3.992555 0.161632 0.120000
10.301539 2.793530 0.158018 0.040000
10.517893 1.682514 0.144452 0.070000
10.687984 0.635586 0.141004 0.030000
10.478625 -0.443614 0.136446 0.030000
10.152921 -1.455067 0.141836 0.030000
9.928221 -2.514503 0.122311 0.030000
9.357205 -3.510615 0.117118 0.070000
52.198933 25.840990 10.993168 0.030000
42.367046 13.950218 8.298275 0.100000
42.354610 8.125253 7.921585 0.070000
11.306672 0.679816 2.222805 0.030000
42.049221 -2.246145 7.532230 0.070000
39.817921 -7.113601 7.198308 0.000000
46.476036 -22.095793 9.085013 0.040000
29.409081 13.982555 2.674513 0.210000
30.672131 5.776083 2.432301 0.030000
31.236450 2.171455 2.365374 0.040000
12.577796 -0.532406 1.226607 0.120000
11.529887 -1.687477 1.164577 0.280000
13.512547 -3.650275 1.277457 0.030000
10.170665 4.141225 0.172686 0.130000
10.573901 2.933771 0.159250 0.050000
10.736211 1.771692 0.150354 0.080000
10.911888 0.694885 0.141809 0.030000
10.663003 -0.410095 0.142052 0.030000
10.337778 -1.446544 0.147350 0.030000
10.093356 -2.521378 0.132717 0.030000
9.517724 -3.537582 0.127437 0.080000
51.934162 26.075649 11.078350 0.040000
42.148396 14.130861 8.353376 0.090000
42.340076 8.349703 8.007382 0.030000
11.195830 0.722701 2.222675 1.000000
46.998455 -2.289777 8.474997 0.070000
39.879070 -6.922671 7.274179 0.000000
45.824200 -21.478003 9.040608 0.100000
29.390381 14.167009 2.735150 0.200000
19.019335 5.895098 1.812320 0.000000
30.649418 5.910489 2.482742 0.040000
31.213722 2.305842 2.420815 0.050000
12.581772 -0.482412 1.251803 0.110000
11.548983 -1.642158 1.179796 0.260000
10.328035 4.279245 0.178610 0.140000
10.756650 3.052273 0.165168 0.040000
10.949529 1.860775 0.156242 0.070000
11.090871 0.748285 0.152475 0.030000
10.897563 -0.385617 0.147755 0.030000
10.517635 -1.438116 0.152851 0.020000
10.258504 -2.528235 0.138122 0.030000
9.683351 -3.569434 0.132751 0.070000
53.337391 27.166176 11.506071 0.030000
42.158752 14.360770 8.444259 0.090000
40.344631 8.132475 7.721363 0.060000
11.165043 0.762082 2.232742 1.000000
41.565735 -1.815530 7.587569 0.150000
39.855206 -6.728277 7.324839 0.030000
45.818199 -21.173285 9.101726 0.100000
29.322210 14.325567 2.780562 0.160000
30.601734 6.044452 2.523116 0.040000
31.215935 2.445763 2.461341 0.050000
12.585787 -0.432363 1.262000 0.120000
11.568173 -1.601839 1.194996 0.190000
10.515030 4.437854 0.179688 0.120000
10.909609 3.160222 0.165968 0.040000
11.103063 1.938729 0.156932 0.070000
11.264688 0.811625 0.153164 0.060000
11.066765 -0.342369 0.148358 0.030000
10.727500 -1.429095 0.153433 0.020000
10.438662 -2.534786 0.138568 0.020000
9.868999 -3.600865 0.128118 0.060000
53.195938 27.493305 11.566919 0.080000
42.064148 14.593835 8.489879 0.070000
40.131100 8.313380 7.731478 0.040000
11.099193 0.805828 2.232732 0.100000
41.671906 -1.623701 7.653560 0.100000
39.806087 -6.519328 7.365488 0.040000
47.991348 -21.903481 9.564689 0.050000
29.313274 14.525285 2.821282 0.200000
30.598660 6.199274 2.563684 0.040000
31.158075 2.589552 2.496725 0.050000
12.604786 -0.382045 1.277237 0.130000
11.627357 -1.560753 1.210303 0.180000
17.338224 -7.088842 1.609664 0.000000
10.607891 4.549634 0.185346 0.120000
11.042750 3.257771 0.171678 0.050000
11.261499 2.021778 0.157655 0.060000
11.223904 0.850815 0.163204 0.100000
11.221066 -0.304407 0.148902 0.030000
10.882088 -1.406130 0.153922 0.020000
10.573636 -2.532200 0.138930 0.020000
10.019438 -3.623007 0.133429 0.070000
52.600155 27.531994 11.540507 0.060000
41.900650 14.770624 8.520109 0.040000
39.918144 8.464293 7.741484 0.050000
41.943157 -1.438822 7.749957 0.170000
39.957741 -6.351614 7.426508 0.050000
40.469913 -11.723927 7.727878 0.010000
11.306303 -4.286802 2.404344 0.010000
29.284521 14.714602 2.866911 0.190000
30.560617 6.353463 2.594158 0.020000
31.155027 2.744411 2.527293 0.030000
12.618799 -0.331805 1.287460 0.130000
12.534317 -1.663640 1.277289 0.190000
10.710668 4.666623 0.186049 0.120000
11.136090 3.344555 0.177245 0.050000
11.345225 2.088375 0.163121 0.070000
11.198020 0.895290 0.173302 0.170000
11.325279 -0.262404 0.149330 0.030000
11.001682 -1.383836 0.154317 0.020000
10.124418 -3.620996 0.133710 0.050000
52.325653 27.761703 11.560645 0.030000
41.741985 14.957545 8.540390 0.020000
40.008850 8.680847 7.802526 0.070000
42.019493 -1.252474 7.790849 0.100000
40.525677 -6.256178 7.553347 0.020000
40.526363 -11.542943 7.763698 0.020000
11.335505 -4.246272 2.414571 0.080000
29.266310 14.879210 2.887475 0.170000
16.729635 1.451231 1.579822 0.010000
12.607829 -0.282024 1.292617 0.090000
12.608510 -1.622248 1.287636 0.180000
19.530348 -5.106913 1.732755 0.000000
10.773823 4.762831 0.191571 0.120000
11.169839 3.410213 0.177577 0.040000
11.408968 2.154608 0.163533 0.070000
11.172245 0.934785 0.178381 0.190000
11.434575 -0.225322 0.154753 0.020000
11.030993 -1.348287 0.159525 0.020000
10.717721 -2.484469 0.149484 0.020000
10.178820 -3.589967 0.138968 0.060000
41.747379 15.192544 8.581278 0.050000
40.104485 8.902535 7.853600 0.030000
48.747158 -1.238099 9.028476 0.060000
40.326263 -6.024883 7.533686 0.020000
40.527229 -11.327907 7.769500 0.030000
11.349435 -4.191014 2.419812 0.100000
29.217939 15.053277 2.897996 0.190000
30.515196 6.632550 2.620077 0.010000
12.606858 -0.232053 1.297800 0.090000
13.088917 -1.643161 1.318813 0.210000
19.604074 -5.040507 1.738195 0.000000
10.777781 4.817935 0.186786 0.110000
11.203587 3.475871 0.177909 0.050000
11.418103 2.199790 0.163725 0.070000
11.201472 0.975352 0.178608 0.160000
11.468815 -0.184641 0.149994 0.020000
11.120510 -1.321549 0.154858 0.020000
10.787242 -2.458114 0.144763 0.020000
10.228332 -3.564014 0.139193 0.060000
41.743015 15.417426 8.602103 0.040000
42.543919 9.672686 8.327836 0.020000
48.733150 -1.028312 9.024220 0.070000
40.287861 -5.845532 7.519252 0.010000
40.553501 -11.132351 7.765295 0.030000
11.378663 -4.150447 2.420040 0.320000
29.189590 15.227765 2.898571 0.180000
30.502707 6.762334 2.620527 0.010000
11.233273 0.997152 1.218783 0.010000
12.610995 -0.186965 1.297978 0.070000
13.163219 -1.606750 1.324142 0.240000
19.697798 -4.973719 1.743688 0.000000
11.370142 -4.061231 1.230337 0.010000
10.707302 4.841571 0.191690 0.120000
11.177825 3.515385 0.177989 0.040000
11.407243 2.244591 0.163863 0.070000
11.135705 1.014081 0.183581 0.180000
11.292864 -0.138039 0.159708 0.040000
11.114649 -1.276654 0.155010 0.020000
10.751085 -2.398815 0.149889 0.020000
10.227469 -3.519022 0.139358 0.050000
53.002426 29.203949 11.832775 0.040000
42.636620 15.993946 8.796580 0.040000
41.793728 9.693798 8.195954 0.040000
11.284594 1.039200 2.294084 0.000000
44.999165 -0.762338 8.350454 0.210000
40.444988 -5.697588 7.545212 0.010000
41.283806 -11.158827 7.892105 0.010000
11.407890 -4.109880 2.420267 0.150000
29.136822 15.371779 2.898969 0.070000
30.505022 6.902403 2.621054 0.010000
11.212510 1.036761 1.218876 0.010000
13.212335 -1.560820 1.329441 0.160000
11.374087 -4.006145 1.230552 0.050000
10.641931 4.860322 0.191590 0.110000
11.102360 3.538944 0.177879 0.050000
11.331765 2.268131 0.168754 0.060000
11.139938 1.054169 0.183741 0.190000
10.861825 -0.091378 0.183756 0.040000
11.053593 -1.222832 0.160051 0.020000
10.735226 -2.354110 0.150014 0.020000
10.181124 -3.449916 0.144494 0.060000
52.778210 29.424767 11.813011 0.050000
42.582699 16.197948 8.797198 0.040000
47.968388 11.433088 9.383550 0.040000
11.328697 1.085016 2.304370 0.010000
44.880512 -0.569485 8.325861 0.270000
40.511787 -5.531316 7.556005 0.020000
29.128456 15.546632 2.904597 0.070000
30.507435 7.037473 2.621562 0.050000
11.191747 1.076370 1.218969 0.040000
13.461584 -3.086353 1.334421 0.000000
10.522132 4.848008 0.196231 0.100000
11.012172 3.547199 0.182675 0.050000
11.216499 2.280926 0.168501 0.060000
11.124283 1.088894 0.178829 0.160000
10.886163 -0.055887 0.178952 0.050000
10.992743 -1.178989 0.160055 0.020000
10.653982 -2.290674 0.155038 0.020000
10.089512 -3.366656 0.144565 0.050000
42.936527 23.978148 9.632052 0.020000
43.743877 16.899506 9.022840 0.020000
47.944420 11.642740 9.364266 0.040000
11.283074 1.119204 2.289378 0.050000
44.847065 -0.384965 8.291460 0.130000
41.736458 -5.528540 7.744214 0.020000
29.090750 15.691027 2.880035 0.040000
30.435310 7.151204 2.596797 0.040000
11.176105 1.111114 1.209057 0.030000
12.974870 -1.430235 1.299307 0.130000
13.460556 -3.031326 1.324623 0.000000
11.230922 -3.838766 1.205800 0.120000
10.303514 4.773808 0.195385 0.100000
10.827590 3.523660 0.182105 0.040000
11.056433 2.282860 0.168090 0.070000
11.138540 1.129211 0.169016 0.100000
10.896706 -1.125819 0.160002 0.020000
10.547674 -2.222679 0.150013 0.020000
42.817654 24.186092 9.582514 0.020000
43.660259 17.093084 8.983340 0.040000
42.235497 10.382215 8.244667 0.020000
11.242450 1.153487 2.274399 1.000000
48.177872 -0.213197 8.860798 0.070000
41.698025 -5.344097 7.704799 0.030000
11.299004 -3.901763 2.375756 0.030000
29.112265 15.876564 2.855781 0.060000
17.214750 6.125798 1.748467 0.000000
30.427994 7.276196 2.567242 0.060000
11.205359 1.151718 1.199285 0.120000
12.979129 -1.390109 1.289467 0.130000
13.424439 -2.971970 1.314749 0.010000
11.199900 -3.784314 1.195921 0.080000
10.164128 4.741151 0.189899 0.100000
10.658113 3.495428 0.176558 0.050000
10.886465 2.279605 0.167634 0.080000
11.014875 0.016701 0.149557 0.030000
10.705605 -1.069451 0.154712 0.020000
10.416274 -2.150165 0.144940 0.020000
9.861022 -3.185982 0.139640 0.060000
44.404480 25.370646 9.876062 0.020000
44.494671 17.638777 9.092548 0.040000
42.237381 10.552484 8.190305 0.010000
11.181952 1.182425 2.249348 0.200000
48.329536 -0.030059 8.806874 0.090000
41.655079 -5.179597 7.625298 0.030000
11.217577 -3.823181 2.340835 0.100000
29.104292 16.036568 2.821354 0.120000
30.410885 7.391016 2.532624 0.050000
11.080039 1.169376 1.184023 0.110000
12.998384 -1.349697 1.279667 0.120000
13.418534 -2.922001 1.294919 1.000000
11.198980 -3.734268 1.181105 0.310000
9.955508 4.667142 0.189080 0.090000
10.448824 3.456413 0.175866 0.040000
10.671793 2.260490 0.167003 0.070000
10.834238 0.048247 0.149203 0.020000
10.544485 -1.012527 0.154503 0.020000
10.254771 -2.073244 0.144804 0.020000
9.698944 -3.079067 0.139614 0.050000
51.801270 30.092587 11.427939 0.020000
44.139023 17.687450 8.961800 0.050000
11.161324 1.217091 2.234423 0.180000
40.379143 0.118003 7.341657 0.230000
42.083233 -5.081435 7.641780 0.030000
11.191498 -3.763578 2.315988 0.110000
29.061760 16.175980 2.766761 0.100000
30.383816 7.505702 2.482979 0.060000
11.074421 1.204348 1.164138 0.230000
13.251123 0.075395 1.285624 0.000000
13.027665 -1.309055 1.259894 0.190000
13.382457 -2.862590 1.270046 0.030000
11.278813 -3.722682 1.166356 0.150000
9.692666 4.552088 0.187966 0.090000
10.195129 3.386560 0.169945 0.050000
10.432329 2.230917 0.161268 0.070000
10.677611 1.175446 0.152984 0.030000
10.608623 0.078950 0.143728 0.030000
10.363478 -0.960966 0.149223 0.020000
10.078284 -1.996592 0.139628 0.020000
9.526977 -2.977324 0.134543 0.050000
47.537907 27.759209 10.403127 0.020000
43.778442 17.736122 8.806038 0.040000
11.026166 1.229651 2.194117 0.190000
40.391666 0.258561 7.262211 0.370000
42.230804 -4.943327 7.572678 0.040000
11.205781 -3.723224 2.296175 0.240000
28.979933 16.279669 2.701932 0.040000
13.108850 4.618198 1.377141 0.000000
30.376865 7.615808 2.423369 0.010000
11.019005 1.228364 1.144082 0.310000
13.270514 0.110865 1.260807 0.010000
13.006968 -1.269353 1.234988 0.240000
13.406846 -2.827025 1.245241 0.030000
11.298286 -3.692230 1.146520 0.260000
9.424933 4.431958 0.181820 0.090000
9.951421 3.316880 0.169049 0.050000
10.153149 2.185562 0.160370 0.070000
10.402759 1.165181 0.152229 0.030000
10.378091 0.104539 0.143222 0.030000
10.142478 -0.910171 0.143835 0.020000
9.871707 -1.915516 0.134390 0.020000
9.385292 -2.890004 0.129498 0.050000
47.419945 27.927364 10.298442 0.030000
43.626553 17.848635 8.696058 0.040000
11.030547 1.264815 2.174259 0.240000
40.334435 0.387836 7.167542 0.200000
42.053097 -4.786244 7.447797 0.040000
11.295790 -3.721463 2.286417 0.100000
16.009733 8.478520 1.649066 0.010000
13.147758 4.679046 1.352468 0.010000
13.144812 3.013897 1.291270 0.010000
11.043477 1.258911 1.124260 0.680000
13.026359 -1.233884 1.210170 0.260000
11.267400 -3.642721 1.121623 0.200000
9.152297 4.306732 0.175643 0.090000
9.628315 3.215693 0.162830 0.050000
9.878980 2.140322 0.154486 0.080000
10.117921 1.154742 0.146446 0.030000
10.092583 0.129094 0.137567 0.030000
9.876295 -0.850240 0.138362 0.020000
9.690316 -1.843959 0.129183 0.020000
9.147858 -2.764510 0.124345 0.050000
11.220804 5.643022 2.521034 0.000000
41.457523 17.068901 8.157493 0.040000
11.025134 1.289807 2.149337 0.250000
39.757874 0.492564 6.961424 0.240000
42.101158 -4.669919 7.343354 0.040000
11.330452 -3.700722 2.266584 0.390000
13.043686 6.712284 1.394755 0.000000
13.107474 4.698406 1.317435 0.030000
13.124332 3.043638 1.256327 0.000000
11.042954 1.288980 1.104370 0.310000
13.249320 0.180673 1.206010 0.010000
11.206339 -3.583770 1.091683 0.360000
8.865129 4.156206 0.174334 0.080000
9.340202 3.115175 0.156704 0.050000
9.609905 2.090178 0.148598 0.070000
9.888073 1.145357 0.140811 0.030000
9.832248 0.144111 0.136944 0.030000
9.675484 -0.809060 0.132991 0.020000
9.428654 -1.758937 0.123816 0.020000
8.905507 -2.644130 0.124160 0.050000
11.146031 5.636754 2.475815 0.020000
41.450336 17.199207 8.042956 0.060000
11.044703 1.315260 2.129483 0.270000
40.425808 0.605340 6.973587 0.130000
43.036068 -4.662159 7.385823 0.020000
11.339954 -3.670425 2.236721 0.350000
13.023028 6.752042 1.354849 0.010000
13.076996 4.727956 1.282465 0.030000
11.082438 1.319833 1.079587 0.110000
16.417934 0.265932 1.334599 0.010000
13.435063 -2.721136 1.155708 0.020000
11.215841 -3.553473 1.061820 0.380000
8.567977 4.005507 0.167998 0.090000
9.012372 2.998877 0.155416 0.050000
9.296114 2.024157 0.147533 0.070000
9.553615 1.113946 0.139822 0.030000
9.581938 0.159356 0.126347 0.030000
9.379389 -0.754721 0.132420 0.020000
9.207175 -1.683147 0.118519 0.020000
8.633067 -2.519326 0.123913 0.050000
11.115841 5.651307 2.440790 1.000000
41.443253 17.324533 7.923403 0.070000
50.425682 13.731784 9.063506 0.030000
11.129056 1.351937 2.114839 0.260000
43.007309 0.768672 7.290936 0.180000
43.064064 -4.541180 7.271345 0.010000
11.354550 -3.645031 2.206853 0.360000
13.002453 6.786782 1.319924 0.020000
13.143144 3.114231 1.196638 0.000000
11.097021 1.345209 1.054719 0.100000
31.512579 0.597731 2.015241 0.010000
11.832360 -1.016181 1.062861 0.080000
13.379316 -2.677049 1.115726 0.050000
11.230546 -3.533059 1.026934 0.430000
8.271111 3.839810 0.161607 0.080000
8.709441 2.888055 0.154213 0.050000
8.962421 1.952753 0.146397 0.080000
9.194257 1.077057 0.138747 0.030000
9.246713 0.167938 0.125504 0.030000
9.083499 -0.710362 0.126813 0.020000
8.855120 -1.579889 0.122984 0.020000
8.330345 -2.380099 0.123640 0.050000
11.100647 5.666147 2.405805 1.000000
41.327831 17.367918 7.763261 0.060000
50.374397 13.821423 8.898704 0.070000
11.178619 1.377964 2.095065 0.230000
43.046341 0.839963 7.146301 0.200000
42.171238 -4.362202 6.984677 0.010000
11.354080 -3.614888 2.166964 0.370000
13.036618 6.837629 1.270202 0.010000
13.095860 4.798623 1.202776 0.010000
13.147781 3.139489 1.151744 0.010000
11.131627 1.371004 1.019905 0.070000
31.416735 0.656309 1.905208 0.060000
11.877156 -1.000192 1.028037 0.150000
13.373942 -2.652001 1.075804 0.020000
11.235145 -3.507857 0.997039 0.410000
8.003858 3.694685 0.155370 0.080000
8.411522 2.777349 0.148024 0.050000
8.663736 1.882039 0.140354 0.080000
8.889806 1.046239 0.132837 0.030000
8.931484 0.176902 0.124714 0.020000
8.782598 -0.666117 0.126192 0.020000
8.573556 -1.500249 0.117545 0.020000
8.113482 -2.284217 0.118430 0.050000
11.080482 5.680928 2.360807 0.090000
41.182659 17.400805 7.583003 0.050000
50.333302 13.906384 8.698910 0.070000
11.178424 1.393091 2.060120 0.140000
39.947292 0.847886 6.518234 0.180000
43.632782 -4.439500 7.063205 0.020000
44.189976 -10.060665 7.273766 0.000000
11.384057 -3.609203 2.137063 0.200000
13.006536 6.847201 1.230158 0.020000
15.009465 5.665242 1.260993 0.020000
13.152502 3.159730 1.111831 0.000000
11.111517 1.380731 0.989889 0.080000
31.416050 0.706690 1.800392 0.030000
11.821778 -0.976120 0.992982 0.180000
13.378675 -2.631742 1.030891 0.010000
11.234962 -3.492711 0.957094 0.300000
7.741699 3.544656 0.149128 0.070000
8.138503 2.672119 0.141920 0.050000
8.380048 1.811612 0.134352 0.080000
8.595435 1.010595 0.131936 0.030000
8.636361 0.181269 0.118960 0.030000
8.471697 -0.622063 0.125544 0.020000
8.302073 -1.425435 0.117115 0.020000
7.876514 -2.183738 0.118185 0.050000
11.070395 5.690883 2.320817 0.100000
43.917778 18.682293 7.899909 0.040000
50.297543 13.971389 8.514056 0.060000
40.671085 0.921871 6.490398 0.200000
48.220425 -4.868640 7.598590 0.010000
44.274406 -10.008471 7.119179 0.000000
13.011188 6.872478 1.180264 0.020000
14.885206 5.633058 1.205549 0.050000
13.122420 3.169302 1.071787 0.000000
11.121320 1.396050 0.954971 0.070000
31.400534 0.746748 1.705499 0.040000
11.826677 -0.965896 0.958032 0.230000
13.393490 -2.616308 0.990987 0.030000
11.219672 -3.472872 0.922128 0.270000
7.504331 3.405085 0.147989 0.070000
7.880467 2.567159 0.140856 0.050000
8.121246 1.746644 0.133435 0.080000
8.301065 0.974951 0.131035 0.030000
8.336308 0.180504 0.123174 0.030000
8.221073 -0.591858 0.125002 0.030000
8.010595 -1.351004 0.116631 0.020000
7.684851 -2.097357 0.108006 0.060000
11.094908 5.721487 2.285995 0.100000
43.912304 18.732876 7.715081 0.040000
50.267414 14.006570 8.309107 0.050000
40.685734 0.962746 6.330587 0.300000
40.636154 -4.013991 6.286957 0.010000
44.404320 -9.980391 6.959621 0.000000
11.383595 -3.573912 2.057192 0.090000
14.825553 5.622115 1.150352 0.060000
17.269728 4.378577 1.187109 0.010000
11.101306 1.400777 0.924936 0.060000
13.242514 0.306390 0.981457 0.010000
11.821578 -0.955863 0.923056 0.200000
13.383405 -2.606353 0.950997 0.030000
11.259852 -3.476975 0.887217 0.240000
7.222450 3.239657 0.146639 0.060000
7.647345 2.467695 0.134878 0.050000
7.857542 1.676581 0.132486 0.080000
8.046688 0.940073 0.130242 0.030000
8.081273 0.180638 0.117509 0.030000
7.980461 -0.561442 0.119487 0.030000
7.839682 -1.304251 0.111358 0.020000
7.478261 -2.016299 0.107768 0.060000
11.085027 5.721462 2.240968 0.090000
44.382946 18.977262 7.627217 0.030000
50.192650 14.020856 8.113962 0.050000
11.128242 1.417538 1.950079 0.020000
40.670444 0.997991 6.185677 0.340000
40.615879 -3.978824 6.137033 0.030000
44.454166 -9.948826 6.794867 0.000000
11.413598 -3.568190 2.017291 0.040000
13.020680 6.913033 1.080438 0.010000
13.075171 4.858879 1.027944 0.030000
17.254707 4.388529 1.122106 0.010000
11.086317 1.405638 0.884914 0.060000
13.232537 0.311365 0.936449 0.010000
11.841597 -0.950314 0.878128 0.230000
11.295059 -3.481136 0.842293 0.310000
7.024799 3.115869 0.140663 0.070000
7.384406 2.357640 0.133783 0.050000
7.653551 1.622683 0.126753 0.090000
7.802322 0.905406 0.124475 0.030000
7.826321 0.175755 0.116825 0.030000
7.779936 -0.535259 0.114061 0.030000
7.633679 -1.253169 0.106010 0.020000
7.286777 -1.939934 0.102552 0.070000
11.099841 5.736895 2.201064 0.070000
44.452362 19.034281 7.442608 0.040000
50.197514 14.056706 7.909106 0.040000
11.078464 1.411748 1.904927 0.030000
40.700531 1.014102 6.040813 0.310000
40.670944 -3.962253 5.997237 0.030000
44.499275 -9.932390 6.640044 0.010000
11.403608 -3.563234 1.977283 0.050000
13.015812 6.913124 1.030426 0.030000
13.075192 4.864046 0.982963 0.060000
17.190069 4.377510 1.061896 0.010000
11.071411 1.405481 0.849875 0.070000
13.252542 0.316895 0.896522 0.020000
11.841687 -0.950184 0.843128 0.220000
11.305148 -3.480815 0.807320 0.380000
6.802332 2.981584 0.139583 0.070000
7.171171 2.263540 0.132876 0.050000
7.414841 1.553099 0.125871 0.100000
7.602851 0.876599 0.118847 0.030000
7.606362 0.171541 0.116235 0.040000
7.559511 -0.514459 0.108563 0.030000
7.417679 -1.202278 0.100636 0.030000
7.080295 -1.863857 0.097296 0.070000
44.492683 19.045788 7.242754 0.040000
50.188293 14.047354 7.684045 0.030000
11.068570 1.411705 1.864901 0.040000
40.675980 1.014255 5.870748 0.310000
40.536152 -3.949172 5.816932 0.030000
44.554939 -9.940647 6.455156 0.000000
11.423805 -3.567701 1.937319 0.050000
13.011052 6.908233 0.975394 0.040000
13.095128 4.874612 0.933054 0.050000
17.185335 4.372656 0.996865 0.010000
11.071503 1.405611 0.814875 0.080000
13.247673 0.316985 0.846509 0.020000
11.866787 -0.949556 0.803196 0.220000
11.290173 -3.475936 0.762299 0.420000
6.619584 2.863082 0.133665 0.080000
6.997654 2.185221 0.127132 0.050000
7.210947 1.494202 0.120120 0.100000
7.408380 0.847887 0.113233 0.030000
7.391511 0.162443 0.110641 0.040000
7.313969 -0.489175 0.113016 0.030000
7.201665 -1.151406 0.100261 0.030000
6.903891 -1.792222 0.097102 0.080000
44.552868 19.062622 7.057972 0.050000
46.490398 12.958962 6.955339 0.040000
11.088645 1.412200 1.834955 0.040000
40.666397 1.014658 5.710723 0.230000
40.666714 -3.956123 5.667245 0.030000
39.744514 -8.804549 5.621815 0.020000
11.373466 -3.543477 1.887277 0.050000
13.035903 6.923913 0.920517 0.030000
13.075454 4.864417 0.882964 0.050000
17.225306 4.383662 0.932010 0.010000
11.061596 1.405549 0.779849 0.100000
13.237780 0.316943 0.806482 0.010000
11.896982 -0.953832 0.763258 0.230000
13.398706 -2.595362 0.761076 0.000000
11.259995 -3.461364 0.722274 0.490000
6.451531 2.759845 0.132843 0.070000
6.789322 2.096215 0.126257 0.050000
7.031938 1.440764 0.119454 0.110000
7.193995 0.813776 0.112546 0.030000
7.201546 0.158804 0.110131 0.040000
7.153629 -0.472225 0.107660 0.030000
6.990746 -1.105438 0.099881 0.030000
6.762876 -1.739896 0.091928 0.070000
44.419891 18.985849 6.842337 0.060000
46.570690 12.971199 6.765592 0.050000
11.078764 1.412176 1.789928 0.050000
40.637039 1.004717 5.540608 0.170000
40.882805 -3.991477 5.527677 0.020000
39.770218 -8.818473 5.461828 0.030000
11.378678 -3.548213 1.842272 0.070000
11.410689 5.887917 0.827423 0.070000
14.672297 5.570234 0.859756 0.080000
17.255373 4.389477 0.867109 0.010000
11.071795 1.400890 0.739857 0.090000
13.232994 0.312015 0.761451 0.020000
11.892183 -0.958778 0.723227 0.160000
13.419024 -2.604791 0.711094 0.000000
11.260291 -3.471214 0.682238 0.540000
6.298477 2.656896 0.132060 0.070000
6.625803 2.018088 0.120540 0.050000
6.828031 1.381849 0.118703 0.100000
7.039503 0.785812 0.112039 0.030000
7.006679 0.150071 0.109590 0.050000
6.958378 -0.460962 0.107193 0.030000
6.855210 -1.078010 0.094629 0.030000
6.561476 -1.668740 0.091667 0.080000
44.361889 18.910496 6.631904 0.050000
45.503185 12.616920 6.426485 0.050000
11.113932 1.407959 1.760004 0.060000
40.523067 0.973134 5.375191 0.170000
13.122178 -1.119779 1.960852 0.010000
39.992046 -8.893761 5.332126 0.010000
11.373879 -3.553159 1.802241 0.060000
11.455607 5.898944 0.782580 0.100000
14.672811 5.550424 0.809683 0.180000
13.142964 3.185872 0.751899 0.010000
11.062078 1.390831 0.704794 0.100000
31.372406 0.764237 0.880482 0.020000
13.409335 -2.614813 0.666031 0.010000
11.270681 -3.485871 0.642210 0.540000
6.145435 2.553965 0.126278 0.070000
6.467174 1.945037 0.119854 0.050000
6.669018 1.328794 0.118090 0.110000
6.855112 0.752275 0.111433 0.030000
6.846804 0.142008 0.109143 0.040000
6.798120 -0.449029 0.106819 0.030000
6.694569 -1.046081 0.094329 0.030000
6.410450 -1.616623 0.091466 0.080000
43.603466 26.351315 6.922587 0.030000
44.314240 18.815300 6.431423 0.040000
45.524799 12.557983 6.246321 0.020000
11.139210 1.398569 1.725035 0.150000
35.632229 0.812115 4.631818 0.150000
13.147578 -1.134130 1.915864 0.020000
40.129044 -8.975602 5.182178 0.010000
11.384365 -3.572815 1.762195 0.060000
11.485637 5.904704 0.732680 0.110000
14.698058 5.546126 0.749732 0.070000
13.133384 3.170869 0.701818 0.000000
11.057376 1.380886 0.664745 0.090000
31.478357 0.731682 0.765637 0.030000
13.135405 -1.104719 0.650929 0.240000
13.475029 -2.643377 0.616095 0.020000
11.250885 -3.491104 0.602138 0.410000
6.012185 2.461396 0.125586 0.060000
6.318543 1.872178 0.119196 0.050000
6.510006 1.275739 0.117478 0.110000
6.680720 0.718929 0.110854 0.030000
6.681931 0.133849 0.108682 0.040000
6.652969 -0.441789 0.101467 0.030000
6.533928 -1.014152 0.094028 0.020000
6.249426 -1.564698 0.091239 0.080000
43.902237 26.442694 6.748704 0.030000
44.088306 18.631748 6.210149 0.020000
50.046116 13.783398 6.642682 0.040000
11.159476 1.389066 1.695052 0.160000
36.337994 0.785810 4.583562 0.090000
11.379745 -3.587778 1.727127 0.080000
11.535540 5.915808 0.692851 0.160000
13.148882 3.151328 0.656785 0.010000
11.027856 1.360445 0.629591 0.080000
30.899750 0.671049 0.638900 0.040000
13.150915 -1.124242 0.600896 0.110000
13.380177 -2.645010 0.565841 0.050000
11.155638 -3.472760 0.556957 0.360000
5.864129 2.358543 0.124817 0.060000
6.160010 1.794128 0.118492 0.040000
6.365909 1.227990 0.111925 0.100000
6.521338 0.685889 0.105315 0.030000
6.527164 0.120901 0.103230 0.040000
6.507805 -0.434568 0.101115 0.030000
6.373384 -0.987222 0.093709 0.020000
6.098401 -1.512581 0.091038 0.080000
43.816387 26.256842 6.522787 0.030000
44.046234 18.506653 6.009572 0.030000
50.043617 13.684157 6.417304 0.080000
11.159881 1.374236 1.649998 0.210000
35.175186 0.699552 4.300204 0.170000
13.118489 -1.169363 1.825657 0.060000
11.395338 -3.612319 1.682076 0.090000
11.536245 5.886000 0.642741 0.170000
17.745373 4.429804 0.613535 0.010000
11.003335 1.340100 0.594451 0.060000
30.871000 0.620892 0.528637 0.020000
13.375666 -2.664953 0.525755 0.050000
11.141019 -3.487914 0.521863 0.400000
5.730878 2.265975 0.124126 0.060000
6.016379 1.721364 0.117846 0.050000
6.191982 1.169630 0.116254 0.100000
6.376831 0.658098 0.109835 0.020000
6.342365 0.107322 0.112697 0.040000
6.327538 -0.423037 0.105687 0.030000
6.232835 -0.959909 0.093444 0.020000
5.957551 -1.470290 0.095828 0.090000
43.844505 26.123108 6.317361 0.020000
47.668205 19.970417 6.259470 0.020000
50.041386 13.569882 6.201871 0.100000
11.110474 1.348432 1.609772 0.200000
36.121445 0.647793 4.267481 0.160000
13.139083 -1.193808 1.780619 0.020000
11.350465 -3.613014 1.636956 0.290000
11.581354 5.887029 0.597862 0.160000
13.083330 4.755630 0.587577 0.020000
17.920221 4.448394 0.549060 0.010000
10.978814 1.319755 0.559311 0.060000
18.864300 0.335895 0.496237 0.010000
13.137002 -1.169205 0.515692 0.100000
13.371276 -2.689859 0.475650 0.020000
11.131618 -3.512934 0.476745 0.340000
5.612530 2.178692 0.123492 0.050000
5.862832 1.643392 0.122156 0.040000
6.062869 1.122149 0.115740 0.110000
6.212436 0.624944 0.109282 0.030000
6.197597 0.094566 0.107272 0.040000
6.177374 -0.415912 0.105321 0.030000
6.107475 -0.942307 0.093182 0.030000
5.862008 -1.442096 0.090683 0.090000
48.181000 28.650433 6.658079 0.040000
46.317951 19.240803 5.878230 0.020000
50.039520 13.435593 5.991365 0.100000
11.026278 1.311978 1.564417 0.330000
35.268723 0.552270 4.039897 0.270000
11.305795 -3.623688 1.586799 0.510000
14.735843 5.432655 0.524407 0.080000
18.085484 4.446834 0.474485 0.010000
11.123988 1.317682 0.519682 0.070000
13.260898 0.198519 0.491099 0.010000
13.132695 -1.199128 0.470569 0.150000
5.533612 2.122189 0.118076 0.040000
5.758905 1.586391 0.121672 0.040000
5.918745 1.074362 0.120186 0.110000
6.097937 0.597746 0.108882 0.030000
6.072798 0.082155 0.111900 0.040000
6.062300 -0.413115 0.105031 0.040000
5.992126 -0.924494 0.087947 0.030000
5.731266 -1.404593 0.090482 0.100000
51.762451 30.668665 6.869933 0.030000
46.341423 19.086941 5.682717 0.040000
50.037998 13.281252 5.795785 0.100000
11.026848 1.287113 1.529325 0.410000
35.215824 0.461755 3.899422 0.310000
13.155369 -1.248176 1.690458 0.010000
11.326649 -3.663167 1.551706 0.410000
13.151363 3.047017 0.476402 0.000000
11.139460 1.298103 0.484649 0.350000
18.466427 0.238716 0.369835 0.000000
13.367770 -2.754589 0.380400 0.040000
11.203525 -3.601297 0.401603 0.260000
5.430151 2.040175 0.122501 0.050000
5.650075 1.524296 0.121158 0.040000
5.824447 1.037568 0.114803 0.110000
5.963537 0.565166 0.108410 0.030000
5.978021 0.070356 0.106609 0.050000
5.952333 -0.415203 0.099737 0.040000
5.861754 -0.907006 0.092672 0.020000
5.655909 -1.386015 0.085354 0.110000
51.836784 30.475916 6.634408 0.060000
43.548466 17.720060 5.165340 0.030000
50.076427 13.132750 5.580331 0.060000
11.022432 1.262171 1.489221 0.480000
35.262962 0.368099 3.774195 0.350000
13.146049 -1.278213 1.650322 0.030000
40.342915 -9.568219 4.255524 0.020000
11.317330 -3.693204 1.511570 0.500000
13.017622 6.640274 0.439410 0.040000
13.100718 4.651477 0.442234 0.030000
13.122445 2.996619 0.431139 0.000000
11.020423 1.250925 0.454163 1.000000
18.487453 0.194349 0.304725 0.010000
13.194261 -1.267631 0.380474 0.120000
11.032990 -3.569411 0.361276 0.160000
5.356328 1.978769 0.117080 0.050000
5.570966 1.477791 0.115778 0.030000
5.705318 0.990260 0.119317 0.120000
5.883935 0.543638 0.108122 0.030000
5.853223 0.057946 0.111237 0.050000
5.842258 -0.412311 0.099460 0.040000
5.761499 -0.893906 0.087459 0.030000
5.530249 -1.353434 0.090147 0.120000
51.911709 30.253191 6.393773 0.040000
43.795383 17.645382 5.000705 0.070000
57.282383 14.909290 6.090750 0.060000
11.028098 1.232402 1.454124 0.520000
35.195244 0.267280 3.638642 0.170000
13.076781 -1.309343 1.595025 0.020000
11.323104 -3.727953 1.471455 0.300000
13.071895 4.596080 0.396952 0.020000
13.148132 2.967271 0.386096 0.010000
11.011104 1.220888 0.414026 1.345000
13.298063 0.104710 0.355846 0.010000
13.170053 -1.302936 0.335279 0.150000
16.415232 -3.610680 0.195170 0.020000
11.003579 -3.594832 0.321104 0.120000
5.242882 1.896582 0.116479 0.040000
5.481941 1.426077 0.115353 0.030000
5.630920 0.958847 0.114006 0.120000
5.764437 0.516345 0.107709 0.030000
5.778441 0.046530 0.105999 0.050000
5.752275 -0.414034 0.099219 0.040000
5.686321 -0.885344 0.087294 0.030000
5.454893 -1.334856 0.085019 0.130000
52.115013 30.112848 6.178780 0.040000
43.347858 17.282572 4.773186 0.050000
57.281960 14.700016 5.879969 0.070000
11.093630 1.208745 1.429207 0.280000
37.147552 0.159504 3.683338 0.110000
13.032482 -1.340032 1.549795 0.110000
39.349064 -9.580770 3.847879 0.010000
11.203066 -3.720067 1.421171 0.240000
14.735636 7.563890 0.297326 0.030000
17.126753 6.229612 0.253607 0.010000
13.160913 -1.342989 0.300106 0.150000
14.762849 -3.242297 0.202226 0.030000
10.858192 -3.572521 0.295807 0.100000
5.188755 1.850537 0.116166 0.050000
5.402818 1.379553 0.114974 0.030000
5.556509 0.927417 0.113694 0.110000
5.699941 0.490123 0.102443 0.030000
5.668653 0.034425 0.105668 0.050000
5.667291 -0.415662 0.098991 0.040000
5.596159 -0.877051 0.082090 0.030000
5.374525 -1.316392 0.084878 0.120000
57.094040 32.782703 6.466704 0.030000
43.347218 17.078129 4.607422 0.040000
30.378662 7.412947 3.202628 0.020000
11.154176 1.185010 1.399277 0.350000
34.990368 0.034268 3.377239 0.220000
13.038339 -1.379798 1.514662 0.070000
17.483164 -3.991528 1.896559 0.000000
11.193816 -3.755140 1.391016 0.270000
14.440503 7.313358 0.250624 0.020000
15.014288 5.293972 0.249615 0.050000
15.394410 3.465965 0.233812 0.010000
10.872819 1.138445 0.353358 0.100000
15.535445 0.023113 0.206382 0.010000
13.884329 -3.064017 0.180596 0.030000
10.788585 -3.588728 0.260565 0.110000
5.114918 1.789112 0.115745 0.040000
5.338610 1.338335 0.109653 0.030000
5.487206 0.891101 0.108378 0.100000
5.615340 0.468499 0.102142 0.030000
5.623962 0.018585 0.100492 0.050000
5.582403 -0.422289 0.098745 0.040000
5.531171 -0.878296 0.081916 0.030000
5.294265 -1.302908 0.079719 0.130000
29.080378 15.904106 3.360805 0.010000
29.798641 11.327659 3.180666 0.020000
30.416050 7.304047 3.092319 0.030000
11.189919 1.150798 1.369243 0.240000
17.303778 -4.014692 1.821004 0.000000
