# This PCD file was generated using the MATLAB® pcwrite function
# from Computer Vision Toolbox®.
# .PCD v.7 - Point Cloud Data file format
VERSION .7
FIELDS x y z intensity
SIZE 4 4 4 4
TYPE F F F F
COUNT 1 1 1 1
WIDTH 1285
HEIGHT 1
VIEWPOINT 0 0 0 1 0 0 0
POINTS 1285
DATA ascii
52.447319 -11.349319 4.990506 0.030000
6.441945 -1.559310 0.991771 0.000000
6.219060 -2.193691 0.988831 0.370000
11.916624 -0.876921 0.348591 0.080000
15.442521 -2.959267 0.215053 0.040000
6.443424 -1.562339 0.461758 0.050000
5.380344 1.509164 0.110397 0.090000
5.559318 1.042509 0.109130 0.030000
5.653020 0.589224 0.107689 0.090000
5.726548 0.145572 0.101232 0.030000
5.665184 -0.305683 0.099394 0.060000
5.603832 -0.756919 0.092557 0.040000
5.422298 -1.200475 0.090434 0.070000
5.185788 -1.645064 0.083164 0.110000
47.085045 20.543346 5.170066 0.060000
57.264313 16.420422 5.766317 0.050000
11.208843 1.461032 1.420446 0.020000
36.273685 1.153402 3.559751 0.020000
11.924282 -0.905739 1.428515 0.580000
45.334888 -9.877467 4.212404 0.020000
6.482647 -1.593482 0.976750 1.000000
6.194117 -2.194095 0.968764 0.310000
14.849614 5.795870 0.261051 0.050000
15.713975 4.012146 0.246677 0.030000
11.027411 1.421437 0.359814 0.130000
15.722074 0.461765 0.208499 0.010000
11.927301 -0.906575 0.308508 0.090000
14.363355 -2.749843 0.198014 0.020000
11.299970 -3.393863 0.252624 0.240000
5.326038 1.473136 0.105121 0.090000
5.465006 1.005697 0.108747 0.030000
5.568515 0.562601 0.107370 0.090000
5.656753 0.134233 0.101007 0.030000
5.590198 -0.307119 0.099193 0.060000
5.548842 -0.757973 0.092409 0.040000
5.321825 -1.177413 0.095257 0.060000
5.125320 -1.621218 0.083095 0.120000
29.601992 12.443778 3.269302 0.010000
30.257151 8.286104 3.115556 0.030000
11.219412 1.436359 1.385381 0.100000
31.438835 0.912689 3.021230 0.010000
11.934947 -0.935412 1.393432 0.370000
45.372746 -10.001104 4.032042 0.010000
6.462799 -1.598789 0.956678 0.110000
6.229821 -2.228362 0.953730 0.280000
13.635695 5.207554 0.245695 0.050000
14.566032 3.635149 0.227279 0.050000
11.002974 1.396075 0.329656 0.100000
14.633262 0.390936 0.195394 0.010000
13.198672 -2.517125 0.200839 0.040000
11.290625 -3.423938 0.222488 0.330000
5.241903 1.426498 0.109728 0.090000
5.410495 0.979648 0.108507 0.030000
5.483914 0.540977 0.107068 0.080000
5.591969 0.123009 0.095797 0.030000
5.515212 -0.308556 0.098992 0.070000
5.448478 -0.739892 0.092214 0.050000
5.271656 -1.168354 0.090160 0.070000
5.039666 -1.587853 0.082995 0.110000
29.663609 12.375349 3.159208 0.010000
30.318537 8.227617 3.020498 0.010000
11.175086 1.405633 1.350151 0.320000
31.425524 0.837769 2.925915 0.020000
18.228786 -3.746966 1.834414 0.000000
6.452936 -1.603924 0.941633 0.270000
6.199782 -2.223864 0.933668 0.260000
12.867956 4.822819 0.232261 0.060000
13.482381 3.294353 0.218183 0.050000
10.958526 1.370311 0.304444 0.160000
13.749015 0.344012 0.187911 0.010000
11.973434 -0.955443 0.238446 0.040000
12.541247 -2.394639 0.184578 0.040000
11.316395 -3.458304 0.182427 0.140000
5.182693 1.385375 0.104421 0.090000
5.346000 0.953426 0.103242 0.030000
5.419214 0.524735 0.106839 0.080000
5.517079 0.116573 0.095577 0.030000
5.445225 -0.309896 0.098804 0.050000
5.378395 -0.736233 0.092045 0.030000
5.206285 -1.149603 0.090059 0.080000
5.004398 -1.573507 0.077956 0.120000
29.660582 12.285624 3.063865 0.020000
30.300322 8.147603 2.925152 0.060000
11.130665 1.379906 1.314939 0.410000
31.397120 0.767561 2.830580 0.060000
12.993076 -1.090211 1.405619 0.380000
17.973537 -3.726594 1.763823 0.000000
6.428075 -1.609346 0.926548 1.000000
6.210203 -2.243613 0.918621 0.280000
12.253668 4.521057 0.214536 0.060000
12.816556 3.071599 0.205617 0.050000
10.949085 1.345235 0.274325 0.170000
12.974844 0.294195 0.180705 0.010000
11.938902 -0.975998 0.208280 0.030000
11.928884 -2.276328 0.178419 0.040000
5.143180 1.359614 0.104222 0.100000
5.281491 0.927186 0.102976 0.030000
5.364524 0.508703 0.101637 0.060000
5.447284 0.105235 0.095353 0.030000
5.375237 -0.311237 0.098617 0.110000
5.293124 -0.722864 0.091872 0.040000
5.151021 -1.135640 0.084967 0.090000
4.933932 -1.549853 0.077860 0.120000
29.672413 12.206258 2.948600 0.030000
30.262245 8.062262 2.814734 0.050000
11.166107 1.360673 1.289960 0.380000
31.503496 0.709936 2.735642 0.010000
12.968569 -1.110537 1.365479 0.340000
6.372850 -1.595328 0.906456 0.860000
6.205435 -2.253651 0.903571 0.350000
11.659254 4.224638 0.206882 0.060000
12.250042 2.885753 0.193447 0.060000
10.974446 1.330829 0.244338 0.150000
12.330457 0.256865 0.173884 0.010000
11.959455 -1.000499 0.178242 0.050000
11.406886 -2.176289 0.172429 0.050000
10.617183 -3.241565 0.156407 0.050000
9.968890 -4.379145 0.140486 0.060000
5.078767 1.328375 0.103938 0.090000
5.221981 0.901042 0.102723 0.030000
5.314821 0.492748 0.101448 0.050000
5.382392 0.098991 0.095160 0.020000
5.345352 -0.316792 0.093518 0.290000
5.243037 -0.718823 0.091756 0.050000
5.085745 -1.121888 0.084847 0.100000
4.888557 -1.530718 0.077813 0.120000
29.689026 12.136949 2.843385 0.080000
18.736597 4.724311 1.852230 0.010000
11.176471 1.345979 1.259932 0.470000
31.509798 0.655396 2.640455 0.010000
12.974043 -1.130307 1.330420 0.470000
6.388174 -1.609982 0.891441 0.640000
6.200666 -2.263689 0.888521 0.670000
11.143976 3.974762 0.194608 0.060000
11.668518 2.699601 0.186237 0.050000
11.034718 1.322110 0.209462 0.150000
11.850956 0.227714 0.162524 0.010000
11.503800 -0.969183 0.167169 0.020000
10.929893 -2.075370 0.161559 0.040000
10.199412 -3.099504 0.145845 0.050000
9.544588 -4.157195 0.130203 0.050000
5.029364 1.297441 0.098694 0.090000
5.162375 0.879897 0.102489 0.020000
5.255024 0.481601 0.101250 0.050000
5.312500 0.092651 0.094954 0.020000
5.187856 -0.709878 0.091646 0.050000
5.030468 -1.107944 0.084755 0.120000
4.848290 -1.516469 0.072761 0.110000
29.660934 12.051781 2.737994 0.180000
18.906599 4.732751 1.802705 0.000000
11.161948 1.325825 1.224819 0.490000
31.545998 0.606429 2.545366 0.010000
13.014592 -1.154425 1.300435 0.460000
13.414458 -2.712116 1.315689 0.000000
6.413675 -1.634461 0.881416 0.350000
6.205992 -2.278534 0.873480 0.380000
10.693015 3.761125 0.182637 0.060000
11.251018 2.566619 0.174653 0.060000
11.109878 1.318659 0.179645 0.130000
11.416350 0.204423 0.151303 0.010000
11.083235 -0.942196 0.156171 0.020000
10.548457 -2.002625 0.150833 0.050000
9.877282 -2.990636 0.140408 0.040000
9.201202 -3.983741 0.129952 0.050000
4.984852 1.271585 0.098481 0.100000
5.137585 0.869439 0.097385 0.020000
5.205334 0.465665 0.096061 0.040000
5.252608 0.086503 0.094775 0.020000
5.180178 -0.309972 0.098112 0.070000
5.132688 -0.700914 0.086535 0.050000
4.980190 -1.093904 0.084676 0.130000
4.797821 -1.492431 0.072718 0.100000
29.672176 12.002391 2.627838 0.080000
19.205690 4.788636 1.763693 0.000000
11.042637 1.293663 1.189387 0.790000
31.552216 0.556906 2.445197 0.010000
13.020079 -1.174177 1.260376 0.650000
13.475305 -2.750829 1.280704 0.010000
6.378542 -1.625059 0.861359 0.260000
6.216221 -2.288285 0.858470 0.290000
10.301661 3.568632 0.170899 0.070000
10.763901 2.412281 0.167807 0.050000
10.906734 0.179658 0.149881 0.010000
10.657560 -0.910325 0.150179 0.020000
10.141822 -1.920380 0.145078 0.050000
6.657295 -1.742761 0.321644 0.040000
8.867925 -3.815076 0.124709 0.050000
4.945255 1.250841 0.093301 0.080000
5.063078 0.843007 0.097092 0.020000
5.145537 0.454517 0.095864 0.040000
5.207725 0.080661 0.089636 0.020000
5.140199 -0.310720 0.093005 0.060000
5.057497 -0.692371 0.091370 0.040000
4.924926 -1.079942 0.079583 0.130000
4.747447 -1.473392 0.072658 0.100000
13.173495 3.079366 1.316589 0.010000
11.057904 1.284064 1.159391 0.960000
13.293663 0.206288 1.271222 0.010000
13.010460 -1.189235 1.225294 0.650000
13.385344 -2.747386 1.235481 0.010000
6.368679 -1.630194 0.846314 0.230000
6.201263 -2.288517 0.843430 0.250000
9.900198 3.380929 0.164154 0.070000
10.316393 2.278705 0.161143 0.060000
10.497015 0.161827 0.143745 0.010000
10.296984 -0.882189 0.139342 0.020000
9.845657 -1.861005 0.134525 0.050000
6.712925 -1.771610 0.296682 0.090000
8.564736 -3.650835 0.119528 0.050000
4.875926 1.214488 0.097985 0.080000
5.003472 0.821862 0.096858 0.020000
5.090739 0.443466 0.095679 0.040000
5.142833 0.074417 0.089444 0.010000
5.080114 -0.306870 0.092862 0.040000
4.997221 -0.678523 0.091265 0.050000
4.879647 -1.065807 0.079518 0.150000
4.691882 -1.444451 0.072620 0.110000
13.046993 4.722234 1.322366 0.010000
13.178803 3.069631 1.271566 0.020000
11.018291 1.268431 1.124229 1.190000
13.024716 -1.148919 1.215482 0.760000
13.399505 -2.702070 1.225686 0.010000
6.373308 -1.610083 0.841401 0.200000
6.221081 -2.278117 0.838521 0.280000
9.512518 3.253408 0.182668 0.070000
10.305737 2.313525 0.156244 0.060000
10.536214 1.247769 0.147884 0.020000
10.556346 0.197988 0.139034 0.010000
10.341400 -0.851332 0.139572 0.020000
9.915153 -1.834688 0.139804 0.060000
8.675098 -3.668724 0.119750 0.060000
4.895443 1.239867 0.098130 0.080000
5.008075 0.841935 0.101945 0.010000
5.105435 0.458732 0.100775 0.040000
5.162529 0.089778 0.094552 0.020000
5.079814 -0.291891 0.097917 0.050000
5.037117 -0.672758 0.091390 0.050000
4.919544 -1.060042 0.079643 0.150000
4.721781 -1.438878 0.072719 0.110000
29.566290 12.065850 2.497797 0.080000
13.232634 0.260147 1.266263 0.010000
12.998985 -1.114497 1.240543 0.700000
13.363584 -2.657842 1.250757 0.010000
6.362900 -1.590316 0.851448 0.230000
6.230848 -2.267983 0.853584 0.940000
10.057472 3.523948 0.170096 0.070000
10.663358 2.440378 0.162649 0.060000
10.859894 1.318963 0.153994 0.030000
10.915799 0.229878 0.140091 0.010000
10.656520 -0.855316 0.145380 0.020000
10.180952 -1.874623 0.145350 0.060000
9.589199 -2.831088 0.130249 0.050000
8.932241 -3.778837 0.125011 0.060000
4.924959 1.265436 0.098302 0.080000
5.072597 0.868194 0.097211 0.020000
5.145141 0.474495 0.100937 0.040000
5.217327 0.100830 0.094736 0.020000
5.154813 -0.290436 0.093119 0.050000
5.077110 -0.671992 0.091497 0.050000
4.974725 -1.068986 0.079754 0.140000
4.777153 -1.457821 0.072793 0.120000
29.692722 12.237899 2.608767 0.030000
11.106297 1.364913 1.184818 0.500000
31.393560 0.748975 2.425497 0.080000
13.028422 -1.089039 1.270714 0.600000
6.387856 -1.589893 0.866515 0.240000
6.190063 -2.228794 0.863623 1.424000
10.379224 3.695104 0.181572 0.070000
11.060683 2.582995 0.169217 0.050000
11.058764 1.377727 0.169731 0.060000
11.315137 0.267514 0.146273 0.010000
11.041818 -0.867958 0.151339 0.020000
10.527024 -1.928023 0.151055 0.060000
9.906044 -2.925055 0.135727 0.050000
9.300718 -3.956812 0.125312 0.050000
4.974375 1.296388 0.098546 0.090000
5.107194 0.888842 0.102378 0.020000
5.219756 0.495946 0.096211 0.040000
5.267126 0.111786 0.094907 0.020000
5.239797 -0.288809 0.093346 0.050000
5.142194 -0.675746 0.091653 0.060000
5.024895 -1.078045 0.084852 0.170000
4.847715 -1.486474 0.072871 0.100000
29.690136 12.357468 2.719206 0.020000
11.155525 1.400734 1.220080 0.490000
6.392529 -1.574856 0.881583 0.540000
6.199843 -2.218642 0.873687 1.553000
10.809927 3.923393 0.183545 0.090000
11.423206 2.714943 0.175654 0.060000
11.172936 1.419866 0.185186 0.110000
11.669482 0.304288 0.152335 0.010000
11.387123 -0.881365 0.157191 0.020000
10.888189 -1.986134 0.156781 0.050000
10.197701 -3.009502 0.141175 0.050000
9.557860 -4.066925 0.130574 0.050000
5.013792 1.327149 0.098764 0.090000
5.156706 0.914794 0.102604 0.030000
5.269460 0.511901 0.096400 0.040000
5.311926 0.122645 0.095064 0.020000
5.294691 -0.282756 0.093512 0.100000
5.192280 -0.679788 0.091769 0.060000
5.064983 -1.082278 0.084940 0.170000
4.882805 -1.490803 0.072946 0.120000
29.647896 12.461347 2.809483 0.020000
11.164870 1.430808 1.250217 0.230000
31.449509 0.934382 2.616334 0.010000
11.895032 -0.920660 1.253382 0.480000
18.293343 -3.700117 1.669755 0.000000
6.402309 -1.564703 0.891646 0.680000
6.219609 -2.208316 0.888777 1.210000
11.007876 1.416576 0.219743 0.100000
12.138794 0.343247 0.163705 0.010000
11.867596 -0.902186 0.163367 0.040000
11.274446 -2.048766 0.162557 0.050000
10.549717 -3.112816 0.151710 0.050000
9.916135 -4.235112 0.135884 0.050000
5.058209 1.358005 0.098994 0.090000
5.201314 0.935652 0.102798 0.030000
5.289155 0.527263 0.101509 0.030000
5.401731 0.134386 0.090342 0.020000
5.364691 -0.281397 0.088700 0.320000
5.267362 -0.683350 0.091952 0.040000
5.125259 -1.096127 0.085046 0.170000
4.922976 -1.500054 0.078017 0.120000
29.610847 12.555324 2.899736 0.040000
31.467653 1.019433 2.701699 0.050000
11.904377 -0.890586 1.283518 0.700000
18.784288 -3.756017 1.750830 0.000000
6.432168 -1.559186 0.906745 0.240000
6.234471 -2.203086 0.903835 0.510000
11.735721 4.411172 0.197775 0.080000
12.351861 3.052732 0.194334 0.060000
11.012235 1.446573 0.244867 0.090000
12.632921 0.392700 0.170179 0.010000
11.911947 -0.871422 0.188598 0.020000
11.740878 -2.119864 0.168510 0.050000
10.997399 -3.249284 0.157371 0.040000
10.269122 -4.388397 0.141235 0.060000
5.107612 1.388938 0.104238 0.090000
5.260824 0.961797 0.103050 0.030000
5.348857 0.543409 0.101725 0.050000
5.456529 0.145437 0.090526 0.030000
5.354475 -0.271628 0.098710 0.300000
5.332446 -0.687105 0.092108 0.050000
5.190438 -1.104880 0.085184 0.130000
4.978349 -1.518996 0.078091 0.120000
29.558884 12.643996 2.994931 0.060000
17.542696 4.656452 1.843862 0.000000
31.390612 1.112644 2.791845 0.100000
11.878633 -0.856183 1.313579 0.720000
19.069340 -3.765817 1.821538 0.000000
6.218860 -2.173434 0.918905 0.800000
12.285130 4.706710 0.210308 0.070000
12.873192 3.247715 0.206419 0.050000
11.106290 1.493291 0.270286 0.150000
13.246931 0.449451 0.176992 0.010000
11.881190 -0.837134 0.223645 0.040000
12.327864 -2.218658 0.174675 0.050000
11.444890 -3.375755 0.163069 0.050000
10.662568 -4.565929 0.151603 0.070000
5.147029 1.419698 0.104455 0.100000
5.315239 0.992844 0.103308 0.030000
5.423364 0.569840 0.102018 0.080000
5.491304 0.156068 0.100657 0.030000
5.464468 -0.269502 0.094005 0.210000
5.402528 -0.690763 0.092277 0.040000
5.235513 -1.109036 0.090286 0.100000
5.043720 -1.537748 0.078192 0.140000
29.650335 12.815392 3.100808 0.020000
17.357433 4.662758 1.883402 0.010000
31.378477 1.212118 2.877184 0.020000
11.882978 -0.826204 1.343702 0.790000
32.554840 -6.681895 2.890910 0.010000
6.218438 -2.153494 0.933978 1.598000
12.883955 5.033200 0.223085 0.080000
13.657953 3.527775 0.214509 0.050000
11.055838 1.512218 0.300225 0.140000
11.915531 -0.806581 0.253849 0.040000
13.040209 -2.335055 0.181102 0.040000
11.499514 -3.359816 0.193271 0.170000
11.096185 -4.752713 0.167040 0.060000
5.201240 1.460725 0.109750 0.110000
5.384651 1.024179 0.103605 0.030000
5.477970 0.590890 0.102238 0.080000
5.581013 0.172808 0.095953 0.030000
5.529346 -0.263277 0.099197 0.120000
5.477610 -0.694326 0.092460 0.060000
5.315798 -1.122482 0.085446 0.090000
5.093889 -1.546807 0.083289 0.120000
29.587976 12.923851 3.201050 0.020000
31.386311 1.311937 2.972576 0.010000
11.842141 -0.787090 1.373741 0.920000
32.552269 -6.562308 2.996349 0.010000
6.218015 -2.133554 0.949051 1.792000
11.035079 1.546698 0.335299 0.160000
15.014179 0.608288 0.192196 0.010000
12.160229 -0.791983 0.279542 0.040000
11.538840 -3.329186 0.228488 0.240000
11.772178 -5.059839 0.172663 0.060000
5.280184 1.517266 0.105166 0.090000
5.439053 1.055208 0.108863 0.030000
5.562475 0.617513 0.102558 0.080000
5.640701 0.188935 0.101169 0.030000
5.609236 -0.256746 0.099430 0.130000
5.542598 -0.693081 0.092634 0.050000
5.386060 -1.136157 0.090578 0.080000
5.179448 -1.575173 0.083407 0.130000
49.759197 22.679388 5.334989 0.030000
30.171661 8.824342 3.177334 0.020000
30.749975 5.009909 3.119663 0.050000
57.463917 2.668263 5.320712 0.040000
11.866362 -0.751766 1.413936 0.790000
11.700375 -2.005130 1.398844 0.000000
6.222674 -2.118535 0.969119 2.388000
14.928467 6.117437 0.262452 0.070000
16.061928 4.383893 0.243967 0.040000
11.153925 1.603874 0.365822 0.170000
12.134362 -0.752619 0.319621 0.070000
11.833113 -1.993571 0.304222 0.070000
11.588164 -3.298364 0.263732 0.340000
11.260683 -4.734816 0.237537 0.230000
5.334394 1.558293 0.110460 0.090000
5.518271 1.096733 0.109224 0.030000
5.631970 0.643830 0.107837 0.090000
5.725302 0.210559 0.101470 0.030000
5.689029 -0.245216 0.099681 0.130000
5.632772 -0.701355 0.092839 0.060000
5.481329 -1.149335 0.090778 0.100000
5.259912 -1.598637 0.083530 0.110000
46.142036 21.215460 5.155103 0.020000
46.155090 14.055617 4.808518 0.030000
42.670895 7.259339 4.324154 0.130000
57.444206 2.887228 5.511477 0.090000
11.865600 -0.716903 1.449064 0.690000
11.644361 -1.956286 1.423879 0.000000
6.222157 -2.093596 0.984211 2.010000
16.760506 7.072711 0.265786 0.050000
11.168077 1.644042 0.396009 0.170000
18.908974 0.917971 0.193514 0.000000
12.113400 -0.708159 0.359732 0.080000
11.771871 -1.934880 0.344281 0.090000
11.597196 -3.253330 0.303923 0.390000
6.359555 -2.144048 0.459377 0.170000
5.408409 1.609701 0.115844 0.090000
5.587574 1.133048 0.114540 0.030000
5.721378 0.675548 0.108188 0.090000
5.819997 0.227376 0.101780 0.030000
5.773904 -0.238607 0.104927 0.090000
5.732850 -0.704439 0.093088 0.060000
5.556602 -1.162896 0.090924 0.110000
5.355578 -1.631792 0.078656 0.130000
45.284977 21.038610 5.262210 0.050000
44.530697 13.744361 4.828121 0.050000
42.537514 7.416336 4.454391 0.140000
57.409145 3.125938 5.692275 0.080000
11.924731 -0.675891 1.484371 0.660000
11.633410 -1.911616 1.459017 0.030000
6.251907 -2.083097 1.004328 2.320000
18.834667 8.177574 0.290307 0.040000
13.206104 3.593436 0.403575 0.040000
11.162303 1.678791 0.436124 0.170000
13.297266 0.664702 0.382926 0.010000
12.137537 -0.667818 0.394946 0.030000
11.771012 -1.895018 0.379427 0.210000
11.661696 -3.232237 0.344170 0.170000
6.343931 -2.114415 0.479446 0.500000
5.492243 1.671317 0.116292 0.100000
5.686598 1.184954 0.114991 0.030000
5.805788 0.707170 0.108526 0.100000
5.919595 0.249287 0.102121 0.030000
5.878802 -0.231579 0.100227 0.090000
5.812822 -0.702926 0.098303 0.060000
5.656871 -1.175978 0.091137 0.100000
5.435933 -1.650275 0.083797 0.120000
45.452435 21.401020 5.498997 0.070000
44.178043 13.857040 4.987621 0.150000
42.518421 7.605361 4.630046 0.080000
57.423794 3.370345 5.943224 0.050000
11.943926 -0.640701 1.534553 0.630000
39.688637 -12.741255 4.227020 0.020000
6.236296 -2.053446 1.019397 2.320000
13.105659 5.436692 0.450166 0.050000
13.105514 3.616331 0.453399 0.020000
11.186345 1.724131 0.471355 0.180000
6.323116 -2.074880 0.499539 1.010000
5.566175 1.727743 0.116695 0.100000
5.765816 1.226478 0.115353 0.040000
5.934997 0.749652 0.109022 0.100000
6.009182 0.270989 0.107436 0.030000
5.963582 -0.219971 0.105492 0.100000
5.927896 -0.705722 0.098593 0.050000
5.732036 -1.184558 0.096302 0.110000
5.536585 -1.683353 0.083937 0.130000
57.221977 27.581852 7.097711 0.030000
44.287243 14.133466 5.183936 0.090000
43.430660 7.981927 4.898830 0.050000
57.398434 3.619097 6.164084 0.070000
11.500965 -1.794370 1.524108 0.060000
41.032761 -12.981545 4.499639 0.010000
6.260952 -2.038044 1.039519 2.836000
22.679222 10.311233 0.403275 0.060000
15.196381 4.371453 0.476664 0.110000
13.220238 0.757931 0.468073 0.000000
13.262170 -0.646496 0.457961 0.020000
6.287209 -2.030633 0.519610 1.741000
5.674718 1.804836 0.117265 0.100000
5.884645 1.288765 0.115894 0.040000
6.029295 0.786447 0.114405 0.100000
6.138692 0.298492 0.102876 0.030000
6.098364 -0.207388 0.105890 0.080000
6.043066 -0.713518 0.098864 0.040000
5.887691 -1.216564 0.091589 0.090000
5.642127 -1.711355 0.089109 0.120000
47.217369 22.897758 6.144174 0.050000
44.291931 14.382866 5.384877 0.130000
41.249565 7.765319 4.837331 0.070000
57.402683 3.888419 6.385099 0.060000
11.479919 -1.744892 1.559237 0.050000
39.488636 -12.261045 4.513287 0.010000
6.250230 -2.003317 1.059620 2.602000
13.097717 5.576198 0.550665 0.040000
13.112882 3.741164 0.543883 0.060000
26.968115 1.796830 0.392819 0.010000
13.256095 -0.596768 0.503131 0.020000
11.587379 -1.723944 0.499585 0.090000
6.296675 -2.005521 0.539728 1.692000
5.788164 1.887023 0.117866 0.100000
5.998569 1.345957 0.116404 0.040000
6.183417 0.834425 0.109985 0.110000
6.263176 0.325863 0.108303 0.030000
6.233243 -0.199803 0.106271 0.070000
6.178137 -0.715932 0.099208 0.040000
5.987946 -1.229665 0.096802 0.060000
5.772882 -1.748839 0.084310 0.110000
42.676426 20.861605 5.804749 0.070000
44.470860 14.670537 5.606416 0.080000
41.295444 7.955572 5.018159 0.050000
52.270111 3.756217 6.066207 0.040000
12.676663 -0.542347 1.726833 0.240000
11.463956 -1.700337 1.599362 0.150000
39.751270 -12.161695 4.704343 0.020000
6.259889 -1.988202 1.079702 2.602000
17.726366 8.035187 0.596888 0.040000
15.019388 4.457656 0.591523 0.130000
13.205945 2.272558 0.573667 0.020000
13.242987 0.863055 0.558524 0.010000
13.094762 -0.535012 0.547940 0.010000
11.571224 -1.669391 0.539746 0.200000
6.291049 -1.975697 0.559825 1.644000
5.921427 1.979610 0.113558 0.100000
6.157115 1.424025 0.112108 0.040000
6.317434 0.887001 0.110530 0.110000
6.462494 0.364723 0.098967 0.030000
6.408032 -0.186435 0.101776 0.060000
6.333299 -0.722961 0.099587 0.040000
6.148408 -1.251577 0.092139 0.060000
5.898517 -1.781457 0.089517 0.100000
42.788822 21.227997 6.031406 0.050000
44.609344 14.982474 5.817939 0.060000
42.774914 8.472787 5.353948 0.090000
57.356415 4.410920 6.851925 0.050000
12.645512 -0.488081 1.766954 0.360000
11.467893 -1.650399 1.639558 0.140000
39.087563 -11.724622 4.784236 0.020000
6.249181 -1.953456 1.094803 2.756000
13.114278 5.741159 0.656322 0.110000
13.130030 3.876150 0.644430 0.040000
15.167233 2.740056 0.620525 0.170000
11.384354 0.767259 0.603316 0.010000
12.658097 -0.458526 0.592085 0.040000
11.545166 -1.620028 0.579862 0.280000
15.394322 -4.141554 0.525535 0.030000
6.300625 -1.955565 0.574925 1.424000
6.064484 2.082368 0.114314 0.110000
6.300651 1.501788 0.112772 0.040000
6.486457 0.940266 0.106170 0.110000
6.601893 0.397399 0.099453 0.030000
6.567811 -0.173373 0.102242 0.060000
6.498473 -0.729781 0.094993 0.040000
6.298955 -1.278699 0.092431 0.060000
6.074742 -1.843074 0.084748 0.110000
43.243584 21.730860 6.289465 0.030000
45.900169 15.686055 6.168928 0.030000
57.293991 11.784488 7.299177 0.060000
11.231110 0.785404 1.672995 0.000000
12.654530 -0.443065 1.812145 0.630000
39.012981 -11.506543 4.929854 0.020000
6.278932 -1.942958 1.114920 1.692000
11.263505 0.804805 0.643141 0.050000
12.677018 -0.408320 0.637321 0.060000
11.579289 -1.579514 0.620102 0.160000
15.407918 -4.076502 0.585813 0.020000
6.300094 -1.930644 0.595016 0.540000
6.192735 2.174840 0.114992 0.110000
6.474085 1.585124 0.113534 0.050000
6.625473 0.992937 0.106728 0.120000
6.761289 0.430457 0.099992 0.040000
6.737600 -0.160101 0.097735 0.060000
6.673632 -0.736427 0.095425 0.040000
6.449406 -1.300821 0.092742 0.060000
6.124707 -1.842154 0.094882 0.090000
42.227711 21.496107 6.355941 0.080000
45.675991 15.876117 6.354051 0.100000
57.252636 12.082887 7.535181 0.080000
11.245140 0.830534 1.713200 0.010000
38.329563 -11.084850 5.009638 0.010000
6.263212 -1.908326 1.135008 2.756000
13.111142 5.890759 0.756871 0.150000
14.890436 4.639614 0.756865 0.130000
11.247554 0.849379 0.678265 1.000000
6.314559 -1.905436 0.615148 0.540000
6.335696 2.282597 0.115766 0.110000
6.617621 1.662887 0.114198 0.050000
6.799291 1.056278 0.107417 0.150000
6.930573 0.468688 0.105576 0.040000
6.887272 -0.142249 0.103192 0.060000
6.838697 -0.738267 0.095849 0.040000
6.625044 -1.332463 0.093083 0.060000
6.108987 -1.807522 0.114970 0.160000
42.092640 21.732864 6.546471 0.040000
45.496559 16.082094 6.524350 0.090000
57.246685 12.361997 7.761205 0.070000
38.250080 -10.871867 5.155224 0.040000
6.282868 -1.893021 1.155117 3.004000
14.829333 4.688232 0.816887 0.200000
11.161808 0.882614 0.713165 0.090000
14.836532 -0.377341 0.748074 0.020000
12.510235 -1.632005 0.707337 0.100000
15.701412 -4.011291 0.701823 0.030000
6.319027 -1.880419 0.635253 1.130000
6.483643 2.390431 0.121553 0.120000
6.810777 1.761622 0.110069 0.060000
6.958207 1.114331 0.108048 0.140000
7.109773 0.512128 0.106205 0.040000
7.066951 -0.123805 0.103729 0.060000
7.008857 -0.745009 0.096268 0.040000
6.810585 -1.358915 0.093469 0.050000
6.103348 -1.777717 0.140066 0.180000
45.510887 16.346590 6.750373 0.050000
57.215633 12.640480 8.027163 0.080000
11.183340 0.914109 1.783350 0.030000
38.316597 -10.711133 5.310997 0.030000
6.287349 -1.867985 1.170222 3.091000
13.083286 6.024864 0.862298 0.080000
14.798045 4.747442 0.872026 0.160000
197.848526 44.960781 4.084358 7.743000
11.170936 0.922650 0.753339 0.120000
15.574076 -3.898930 0.761909 0.020000
6.323591 -1.860402 0.655339 1.692000
6.641409 2.508474 0.122404 0.130000
6.954204 1.844365 0.115751 0.060000
7.146913 1.182939 0.113796 0.120000
7.298971 0.555759 0.106861 0.030000
7.256628 -0.105169 0.104294 0.070000
7.218996 -0.751004 0.101795 0.040000
6.966022 -1.380960 0.098793 0.050000
6.133111 -1.767200 0.155183 0.200000
49.153000 26.263273 8.111757 0.040000
43.907471 15.990892 6.724865 0.070000
57.154663 12.918500 8.263039 0.160000
39.256187 -5.742774 5.471920 0.030000
38.518597 -10.577901 5.492021 0.030000
6.306993 -1.852698 1.195330 2.919000
14.791466 4.822127 0.927287 0.230000
13.218696 2.611836 0.854964 0.020000
11.150082 0.962129 0.788431 0.100000
14.939130 -0.265742 0.853758 0.010000
13.420519 -3.215145 0.783829 0.050000
6.328059 -1.835385 0.675444 1.553000
6.759636 2.600718 0.133055 0.140000
7.162249 1.948368 0.116681 0.060000
7.335632 1.251565 0.114543 0.130000
7.508165 0.599773 0.107571 0.030000
7.501390 -0.090479 0.104987 0.060000
7.409152 -0.757363 0.102267 0.030000
7.211946 -1.426240 0.094266 0.050000
6.142674 -1.747086 0.175283 0.180000
49.007843 26.499710 8.337260 0.040000
43.912457 16.225315 6.920752 0.040000
57.079395 13.161276 8.488748 0.060000
11.216496 0.999466 1.863755 0.020000
46.871811 -0.905248 6.649794 0.270000
39.358044 -5.601421 5.642713 0.030000
38.509853 -10.403587 5.642648 0.010000
6.291381 -1.823047 1.210400 3.004000
13.065332 6.164160 0.967770 0.030000
13.172725 2.655798 0.900008 0.040000
11.119325 0.996418 0.823479 0.090000
13.257106 -0.177995 0.864694 0.010000
13.419782 -1.620116 0.854757 0.070000
6.347715 -1.820079 0.695552 0.660000
6.996539 2.765302 0.129285 0.130000
7.330480 2.041588 0.122467 0.060000
7.564152 1.330956 0.115435 0.110000
7.697351 0.643386 0.113227 0.040000
7.680960 -0.067054 0.110543 0.060000
7.619305 -0.763339 0.102794 0.030000
7.467857 -1.471347 0.094766 0.040000
45.025589 24.549603 7.909612 0.030000
44.368713 16.648136 7.193517 0.090000
42.992111 -0.648240 6.295619 0.200000
39.319332 -5.427646 5.783259 0.020000
39.943546 -10.632472 6.000543 0.020000
13.024239 6.213180 1.022846 0.030000
13.161651 2.705430 0.945164 0.040000
11.088472 1.035705 0.858545 0.110000
13.363524 -1.561348 0.899830 0.060000
13.387978 -3.096096 0.879188 0.020000
6.342198 -1.795235 0.710630 0.570000
7.188819 2.909010 0.130322 0.100000
7.548330 2.155781 0.123460 0.050000
7.757761 1.404659 0.121214 0.120000
7.926445 0.692782 0.114008 0.030000
7.910630 -0.047652 0.111215 0.050000
7.819350 -0.764527 0.108312 0.030000
7.668477 -1.502528 0.100174 0.040000
7.311863 -2.204482 0.096634 0.090000
45.320961 25.014277 8.202113 0.040000
44.065929 16.766735 7.363170 0.090000
11.259637 1.084995 1.949186 0.030000
48.533691 -0.550576 7.260457 0.110000
39.255707 -5.259366 5.928720 0.040000
39.562786 -10.350100 6.105600 0.030000
6.290428 -1.778185 1.245564 2.069000
13.047475 6.298457 1.073224 0.020000
14.821909 5.037144 1.093167 0.030000
11.097600 1.075740 0.898718 0.090000
13.265049 -0.083156 0.955068 0.000000
13.342453 -1.511908 0.944959 0.080000
6.341667 -1.770314 0.730722 0.550000
7.400892 3.063080 0.136448 0.100000
7.756266 2.264764 0.129408 0.060000
7.981282 1.483953 0.122093 0.090000
8.160430 0.747254 0.119822 0.030000
8.150202 -0.023059 0.111931 0.050000
8.049582 -0.775138 0.113873 0.040000
7.879108 -1.533500 0.100609 0.030000
7.523069 -2.265448 0.096959 0.090000
45.077702 25.159039 8.367018 0.020000
43.971958 16.949345 7.533605 0.090000
11.298759 1.125605 1.989439 0.060000
44.929874 -0.338329 6.916835 0.380000
39.262440 -5.109761 6.079296 0.020000
6.305086 -1.762975 1.265659 2.602000
13.021391 6.347782 1.123340 0.030000
14.850309 5.112481 1.153522 0.120000
30.447165 7.179718 1.701924 0.050000
13.259166 -0.043426 1.000201 0.010000
15.467134 -1.751662 1.059615 0.430000
13.405905 -3.001084 0.974589 0.010000
6.351326 -1.755200 0.750804 0.730000
7.617868 3.222246 0.142606 0.090000
7.993909 2.389318 0.135491 0.050000
8.219595 1.573515 0.128048 0.100000
8.429421 0.802416 0.120729 0.030000
8.454858 -0.002221 0.112804 0.040000
8.274717 -0.780845 0.119440 0.030000
8.104711 -1.564221 0.111084 0.030000
7.734263 -2.326432 0.102283 0.080000
46.302338 26.171040 8.818981 0.030000
43.991955 17.184072 7.724532 0.020000
11.243115 1.154435 2.019402 1.000000
44.916092 -0.164167 7.082448 0.290000
51.488068 -6.608108 8.075659 0.020000
6.304650 -1.743054 1.285732 2.919000
14.908539 5.198428 1.203994 0.040000
30.419693 7.293827 1.807278 0.040000
11.195866 1.157380 0.969278 0.060000
13.014731 -1.383436 1.019582 0.130000
13.430030 -2.960761 1.014802 0.030000
6.371091 -1.744875 0.765894 1.345000
7.849758 3.386716 0.143823 0.090000
8.241467 2.519083 0.136620 0.060000
8.472919 1.663382 0.129043 0.090000
8.703316 0.862672 0.121668 0.030000
8.729423 0.023042 0.113615 0.040000
8.585056 -0.794886 0.115197 0.030000
8.355622 -1.609424 0.111571 0.030000
7.945456 -2.387417 0.107608 0.060000
44.502937 25.356874 8.691257 0.020000
45.743126 18.116014 8.212572 0.030000
11.217371 1.188838 2.049463 1.000000
51.534126 -6.427873 8.261451 0.020000
6.324416 -1.732728 1.300822 2.919000
13.028541 6.482576 1.223860 0.020000
13.152650 2.889648 1.120827 0.010000
11.040542 1.169316 0.993918 0.110000
16.362583 0.040290 1.208615 0.010000
12.978785 -1.339245 1.054652 0.190000
6.360575 -1.720127 0.780958 1.509000
8.071637 3.550976 0.150013 0.090000
8.518828 2.659419 0.137866 0.050000
8.746130 1.758613 0.135110 0.090000
8.977198 0.922909 0.127607 0.030000
9.019068 0.043574 0.119447 0.040000
8.885370 -0.809155 0.120928 0.030000
6.644040 -1.822736 0.241311 0.050000
44.374016 25.533741 8.881579 0.020000
41.667542 16.614584 7.681347 0.020000
11.146853 1.212418 2.069366 0.170000
40.500641 0.132734 6.687022 0.160000
48.323418 -5.853051 7.925203 0.020000
6.313995 -1.712979 1.315869 2.756000
13.052077 6.552875 1.269184 0.010000
13.095433 4.558536 1.211882 0.010000
19.196362 4.534513 1.462721 0.000000
11.094674 1.210232 1.029211 0.260000
16.341404 0.094711 1.258762 0.020000
13.018002 -1.303635 1.094888 0.230000
13.397898 -2.861671 1.100088 0.010000
6.339964 -1.690571 0.796015 1.160000
8.357751 3.756492 0.151523 0.110000
8.786178 2.799546 0.144084 0.060000
9.049156 1.864436 0.136295 0.100000
9.285990 0.988835 0.128658 0.030000
9.328627 0.069507 0.120352 0.030000
9.180602 -0.818503 0.121664 0.030000
8.947619 -1.708104 0.112749 0.020000
6.689088 -1.826929 0.256413 0.180000
47.551197 27.687054 9.692885 0.030000
41.614422 16.758097 7.816743 0.030000
11.031549 1.225157 2.084113 0.220000
40.423027 0.250810 6.812260 0.360000
50.940742 -6.030065 8.506383 0.020000
6.333747 -1.702672 1.335959 2.919000
13.021295 6.587126 1.314231 0.030000
13.094467 4.603379 1.252047 0.030000
19.204971 4.599487 1.517985 0.000000
11.024239 1.228794 1.054097 0.280000
16.375513 0.135206 1.304002 0.030000
12.992245 -1.269250 1.129948 0.250000
13.397136 -2.826807 1.135216 0.020000
6.369920 -1.690053 0.811095 0.660000
8.594531 3.926038 0.157772 0.100000
9.068429 2.944959 0.150362 0.050000
9.347281 1.965163 0.137447 0.100000
9.619778 1.055239 0.129776 0.030000
9.643185 0.095536 0.121270 0.040000
9.460920 -0.833155 0.127342 0.020000
9.238606 -1.757558 0.118325 0.020000
6.653276 -1.787681 0.276466 0.270000
47.338242 27.817430 9.847816 0.030000
43.548851 17.778456 8.335590 0.020000
11.045796 1.260326 2.114281 0.280000
40.330471 0.368674 6.917458 0.400000
42.224514 -4.827144 7.223090 0.030000
6.323340 -1.682905 1.346005 1.553000
13.005331 6.631681 1.354355 0.010000
13.073722 4.637877 1.282122 0.030000
13.160062 3.009408 1.231293 0.010000
11.033692 1.253888 1.079215 0.300000
16.364548 0.179858 1.344140 0.020000
13.011492 -1.233985 1.160130 0.240000
6.354404 -1.665400 0.826146 0.580000
9.320890 3.079818 0.151522 0.050000
9.635309 2.070698 0.138591 0.090000
9.918572 1.120973 0.130800 0.030000
9.862747 0.119727 0.126933 0.040000
9.701054 -0.838576 0.132948 0.020000
9.494516 -1.802665 0.118825 0.020000
6.658057 -1.777625 0.286516 0.230000
11.171766 5.597203 2.485735 0.000000
41.552937 17.055927 8.102693 0.050000
11.030351 1.279942 2.139314 0.250000
39.758419 0.467662 6.936332 0.250000
42.111671 -4.694666 7.328289 0.030000
6.323109 -1.672963 1.361042 0.970000
13.097654 4.688198 1.322371 0.030000
13.129497 3.033699 1.266304 0.010000
11.043146 1.278982 1.104333 0.440000
16.378771 0.214990 1.384308 0.020000
13.000840 -1.204294 1.190213 0.250000
126.817940 -30.800936 7.157349 0.630000
6.369171 -1.655171 0.841223 0.560000
9.107414 4.300890 0.170504 0.100000
9.613044 3.230421 0.157845 0.050000
9.908412 2.170909 0.149677 0.090000
10.187442 1.181096 0.141726 0.030000
10.152297 0.145259 0.132783 0.040000
10.026363 -0.852366 0.138746 0.030000
9.795488 -1.851946 0.129428 0.020000
6.687917 -1.772107 0.301615 0.110000
11.160898 5.636855 2.525855 0.010000
43.448059 18.040545 8.616304 0.040000
11.034697 1.309920 2.169437 0.240000
39.961193 0.566050 7.077229 0.240000
42.124371 -4.589808 7.438713 0.040000
6.327795 -1.657907 1.371110 1.898000
16.027416 8.598862 1.654560 0.000000
13.113750 3.068293 1.296391 0.010000
11.122382 1.315396 1.134676 0.250000
13.238834 0.200329 1.246056 0.040000
13.015280 -1.179123 1.220345 0.260000
13.425049 -2.731623 1.235643 0.020000
6.353764 -1.635499 0.851256 0.510000
9.925002 3.391406 0.164257 0.050000
10.211426 2.276713 0.155861 0.080000
10.451325 1.241143 0.147638 0.030000
10.486838 0.171652 0.138755 0.030000
10.266497 -0.857786 0.144353 0.030000
10.021104 -1.882649 0.134903 0.020000
11.150055 5.676545 2.555974 0.050000
41.352859 17.286274 8.338029 0.030000
50.538979 13.746995 9.598864 0.010000
11.108908 1.346201 2.209766 0.240000
43.576504 0.742643 7.817330 0.110000
42.157040 -4.484604 7.559191 0.030000
6.312375 -1.638254 1.386143 2.836000
28.981039 16.739662 2.733645 0.070000
29.712778 11.978348 2.577854 0.100000
11.136726 1.345566 1.164826 0.100000
13.014627 -1.149240 1.250454 0.240000
13.399208 -2.692221 1.265723 0.010000
6.353438 -1.620558 0.866311 0.550000
9.659810 4.701503 0.183435 0.090000
10.232057 3.547296 0.170638 0.050000
10.504441 2.382325 0.162019 0.080000
10.764995 1.312126 0.158721 0.030000
10.811380 0.197854 0.144699 0.030000
10.546610 -0.862459 0.155067 0.020000
11.040611 5.644388 2.570569 0.070000
44.298573 18.740271 9.081131 0.030000
50.510883 13.885895 9.759308 0.030000
11.158232 1.377023 2.245010 0.220000
38.722389 0.752339 7.079688 0.150000
42.495289 -4.413737 7.730339 0.040000
43.888611 -10.114655 8.147788 0.010000
6.317157 -1.628197 1.396193 2.919000
28.949085 16.828735 2.823894 0.120000
29.661129 12.052059 2.662994 0.090000
11.111282 1.364990 1.189832 0.090000
31.420488 0.644362 2.455178 0.030000
13.019152 -1.129278 1.285541 0.230000
6.373395 -1.620230 0.881364 0.790000
10.029841 4.963618 0.190376 0.070000
10.548918 3.713375 0.177083 0.050000
10.837258 2.498701 0.168320 0.070000
10.949059 1.360604 0.174381 0.050000
11.130816 0.228940 0.155649 0.030000
10.567770 -1.967268 0.156015 0.020000
11.029960 5.674079 2.600652 0.180000
41.604546 17.674917 8.680134 0.020000
50.512684 14.030368 9.919851 0.060000
11.167673 1.402098 2.275128 0.130000
38.750523 0.832434 7.205060 0.200000
43.906433 -10.019792 8.283189 0.000000
6.316926 -1.618255 1.411230 3.369000
28.902491 16.897488 2.924029 0.150000
29.649446 12.126500 2.758242 0.090000
11.115833 1.384989 1.214918 0.100000
31.378933 0.713266 2.540327 0.050000
13.058574 -1.103647 1.320739 0.230000
6.362988 -1.600463 0.891411 1.345000
10.449287 5.256685 0.197560 0.080000
10.905375 3.900198 0.188708 0.050000
11.234679 2.636318 0.174869 0.070000
11.078312 1.398013 0.194858 0.130000
11.515347 0.256291 0.161754 0.030000
11.217212 -0.889676 0.171716 0.020000
10.300692 -3.162502 0.125875 0.040000
11.035956 5.624240 2.585482 0.140000
41.678398 17.481480 8.629607 0.030000
50.597042 13.812165 9.859261 0.070000
43.505894 0.750687 7.982177 0.090000
42.417198 -4.520416 7.774739 0.030000
43.875946 -10.245140 8.207271 0.000000
6.312336 -1.638310 1.401143 3.004000
28.931719 16.688305 2.843327 0.130000
29.683195 11.942408 2.677644 0.110000
11.101955 1.329805 1.189677 0.100000
12.999839 -1.164636 1.280359 0.240000
13.434685 -2.721675 1.300706 0.010000
6.343605 -1.630784 0.876247 0.730000
9.833219 4.784802 0.194198 0.080000
10.361431 3.579742 0.181097 0.040000
10.604409 2.384221 0.167287 0.070000
10.811833 0.172821 0.154608 0.030000
10.567182 -0.892071 0.155010 0.020000
10.252363 -1.948286 0.150262 0.020000
6.667554 -1.757604 0.331616 0.040000
11.091286 5.610371 2.565575 0.110000
43.580261 18.152161 8.872067 0.030000
11.039495 1.314867 2.209468 0.180000
40.440163 0.589310 7.328568 0.160000
42.424603 -4.629872 7.659350 0.030000
6.317744 -1.658173 1.391083 2.457000
28.968863 16.589329 2.753055 0.080000
13.173635 3.069294 1.336552 0.000000
11.012721 1.293200 1.159307 0.120000
13.238948 0.190219 1.276019 0.010000
12.990494 -1.194710 1.250222 0.230000
13.385169 -2.742499 1.265499 0.030000
6.354025 -1.650533 0.861201 0.550000
9.542215 4.574211 0.187655 0.080000
10.089191 3.434540 0.169846 0.050000
10.291493 2.273227 0.161057 0.070000
10.531571 1.227640 0.157797 0.030000
10.517381 0.142195 0.148725 0.030000
10.256951 -0.883010 0.154234 0.020000
10.006656 -1.912968 0.144752 0.020000
6.693068 -1.782065 0.316591 0.110000
43.534275 17.961760 8.731238 0.050000
11.015249 1.279506 2.179273 0.230000
40.157990 0.459415 7.182347 0.320000
42.121693 -4.720121 7.503222 0.030000
6.297883 -1.663499 1.376011 3.181000
13.068130 4.657480 1.362181 0.010000
13.174493 3.029432 1.301406 0.000000
11.038357 1.263777 1.134264 0.280000
13.244875 0.145417 1.250868 0.010000
13.016321 -1.234131 1.225143 0.270000
6.344245 -1.660686 0.851137 0.670000
9.261305 4.358811 0.181121 0.090000
9.732708 3.247679 0.168221 0.050000
9.973757 2.152121 0.159778 0.080000
10.217985 1.151639 0.151696 0.030000
10.172937 0.110611 0.142709 0.030000
9.966841 -0.878529 0.143494 0.020000
9.715874 -1.873493 0.134140 0.020000
6.678398 -1.797294 0.301496 1.000000
43.622147 17.828840 8.615973 0.050000
11.020780 1.254681 2.159195 0.250000
40.180275 0.355208 7.077017 0.380000
41.958912 -4.817742 7.362433 0.040000
6.318385 -1.688074 1.365973 2.678000
15.970969 8.417877 1.618739 0.000000
13.103682 4.633267 1.332183 0.020000
13.135441 2.983786 1.271134 0.010000
11.019000 1.233493 1.109101 0.750000
16.375099 0.144889 1.389038 0.060000
13.022069 -1.268917 1.195028 0.260000
13.386871 -2.822242 1.200206 0.020000
6.359761 -1.685338 0.836086 0.660000
8.985107 4.158504 0.174656 0.090000
9.465358 3.107553 0.162002 0.050000
9.720447 2.062272 0.153783 0.060000
9.964004 1.096784 0.145829 0.030000
9.918382 0.085750 0.136952 0.030000
9.711710 -0.873396 0.137847 0.020000
9.500257 -1.842599 0.128692 0.020000
6.643430 -1.797927 0.291402 0.230000
43.675243 17.685291 8.490576 0.030000
11.061303 1.230526 2.139211 0.170000
40.117790 0.239413 6.961422 0.320000
41.856461 -4.934267 7.236731 0.020000
6.308713 -1.703207 1.350892 2.836000
13.021535 6.566926 1.369157 0.010000
13.079927 4.572930 1.296896 0.040000
19.255245 4.575171 1.593027 0.000000
11.039528 1.208955 1.089063 0.690000
13.032816 -1.303607 1.164927 0.230000
6.334887 -1.690779 0.826001 1.424000
8.763324 3.989245 0.168447 0.080000
9.178204 2.957045 0.155693 0.050000
9.447331 1.962042 0.147697 0.080000
9.695217 1.031643 0.139885 0.030000
9.643829 0.060506 0.131141 0.030000
9.466577 -0.868071 0.132227 0.020000
9.244454 -1.802472 0.123173 0.020000
6.648947 -1.822770 0.276324 0.110000
47.234482 18.991817 9.014729 0.010000
11.156694 1.212386 2.129393 0.240000
40.050594 0.108524 6.845759 0.260000
51.991688 -6.371061 8.797862 0.020000
6.319120 -1.722975 1.340845 2.836000
13.067288 6.532924 1.334150 0.020000
13.162043 2.909520 1.205926 0.000000
11.045180 1.179168 1.058967 0.380000
13.048671 -1.343182 1.129821 0.210000
13.428854 -2.916216 1.134966 0.010000
6.350402 -1.715431 0.810950 1.741000
8.501931 3.799224 0.162059 0.100000
8.915853 2.817014 0.149488 0.050000
9.184214 1.862003 0.141638 0.080000
9.381438 0.965640 0.133821 0.030000
9.379275 0.035453 0.125357 0.030000
9.106165 -0.849971 0.131353 0.020000
8.928377 -1.748498 0.117549 0.020000
47.865810 27.442871 9.737800 0.030000
45.012600 17.846207 8.419664 0.010000
11.187329 1.183060 2.104363 0.230000
51.624752 -6.502268 8.566414 0.020000
6.304354 -1.733204 1.325769 2.919000
13.101844 4.483609 1.221621 0.020000
30.398399 7.327545 2.047350 0.040000
11.170592 1.161640 1.039229 0.220000
16.388203 0.000572 1.263535 0.020000
13.054515 -1.382968 1.099688 0.150000
13.409716 -2.956461 1.099766 0.020000
6.330637 -1.725756 0.795859 2.010000
8.250345 3.619392 0.155733 0.100000
8.638588 2.671679 0.148224 0.050000
8.866285 1.750895 0.140395 0.080000
9.072646 0.899715 0.132770 0.030000
9.054815 0.004234 0.124394 0.030000
8.886124 -0.849166 0.125782 0.030000
8.637377 -1.699062 0.116973 0.020000
8.162593 -2.498314 0.117763 0.070000
46.295227 26.224428 9.224165 0.020000
46.098236 18.081985 8.438375 0.030000
11.198090 1.148388 2.069262 0.190000
44.910892 -0.190224 7.342340 0.290000
51.448208 -6.654907 8.355384 0.020000
39.682053 -10.124737 6.641755 0.000000
6.314870 -1.757952 1.310704 3.004000
13.020420 6.382348 1.238467 0.040000
15.057932 5.221018 1.279469 0.020000
30.425873 7.213436 1.941996 0.050000
13.263847 -0.038648 1.085232 0.010000
6.351247 -1.755312 0.780803 1.692000
7.984036 3.424257 0.154313 0.090000
8.386140 2.536838 0.142064 0.050000
8.588062 1.655550 0.139315 0.080000
8.763854 0.833789 0.131719 0.030000
8.790165 -0.015820 0.118629 0.030000
8.580797 -0.835011 0.125037 0.020000
8.366469 -1.654242 0.116432 0.020000
7.906121 -2.423195 0.112372 0.070000
46.518589 26.074284 9.059188 0.040000
44.243095 17.098116 7.929870 0.040000
11.258718 1.119636 2.044313 0.120000
44.909458 -0.354713 7.186724 0.340000
40.505817 -5.332509 6.496717 0.020000
39.605225 -10.270702 6.496010 0.020000
6.290119 -1.768355 1.290600 2.836000
14.950108 5.114136 1.223789 0.060000
13.135140 2.764419 1.085316 0.010000
11.097322 1.080479 0.968735 0.100000
13.431946 -3.060742 1.014436 0.010000
6.321496 -1.765810 0.760686 1.424000
7.776963 3.270283 0.148200 0.100000
8.103780 2.396406 0.140805 0.040000
8.329753 1.565605 0.133306 0.090000
8.509955 0.773916 0.130833 0.030000
8.485592 -0.041676 0.122738 0.030000
8.295563 -0.825472 0.124328 0.030000
8.075470 -1.604807 0.115857 0.030000
7.710021 -2.366922 0.107070 0.080000
44.933067 24.850500 8.560495 0.030000
44.059513 16.790297 7.723244 0.070000
39.206047 -5.311206 6.168401 0.020000
39.518414 -10.416841 6.345239 0.030000
6.305730 -1.798006 1.275531 2.919000
13.048059 6.258204 1.143076 0.040000
14.877086 5.017922 1.168240 0.090000
30.510908 6.980793 1.731351 0.020000
11.083182 1.040330 0.933549 0.110000
15.381461 -0.153057 1.075334 0.020000
13.308122 -1.552719 0.984718 0.060000
13.402931 -3.106141 0.969191 0.010000
6.337108 -1.795461 0.745617 0.630000
7.540182 3.100736 0.141952 0.090000
7.876122 2.272024 0.139748 0.060000
8.071527 1.470643 0.132279 0.090000
8.240977 0.718773 0.124926 0.030000
8.225942 -0.061634 0.116986 0.040000
8.065331 -0.814861 0.118767 0.030000
7.864852 -1.573817 0.110422 0.030000
7.478723 -2.301340 0.106710 0.070000
44.869934 24.525112 8.319118 0.040000
44.134018 16.582384 7.532664 0.100000
42.757339 -0.698698 6.554821 0.170000
39.244747 -5.485001 6.032854 0.030000
39.627945 -10.634305 6.214715 0.030000
6.291072 -1.813216 1.255436 1.424000
14.843864 4.932472 1.112835 0.060000
13.152275 2.665042 0.999990 0.000000
11.103940 1.005850 0.898474 0.100000
15.367661 -0.208130 1.020092 0.110000
13.364378 -1.611487 0.939646 0.130000
15.817389 -3.840085 0.987765 0.060000
6.322450 -1.810671 0.725522 0.730000
7.333109 2.946762 0.135839 0.100000
7.653298 2.157773 0.128741 0.050000
7.853017 1.391462 0.126414 0.090000
7.991995 0.664014 0.119073 0.030000
7.951376 -0.086897 0.116175 0.030000
7.890390 -0.818176 0.108298 0.020000
7.659328 -1.547730 0.104982 0.030000
6.177768 -1.756544 0.210340 0.110000
45.004658 24.308407 8.113663 0.030000
44.253300 16.385294 7.352241 0.110000
42.985893 -0.863874 6.424802 0.180000
39.563904 -5.683520 5.922948 0.030000
39.118931 -10.658215 5.983295 0.010000
6.286496 -1.833252 1.240349 2.678000
13.036196 6.108317 1.042487 0.020000
14.830353 4.862403 1.057539 0.130000
13.252949 2.637130 0.955149 0.020000
11.129781 0.966447 0.868395 0.100000
13.340350 -1.656808 0.899414 0.100000
6.328063 -1.840514 0.710425 1.741000
7.116024 2.792577 0.134699 0.100000
7.445445 2.043772 0.127775 0.050000
7.639508 1.312378 0.120563 0.090000
7.777897 0.614905 0.118331 0.030000
7.751810 -0.110705 0.110566 0.040000
7.650148 -0.807775 0.107709 0.020000
7.428522 -1.507125 0.099531 0.040000
6.132815 -1.757350 0.195219 0.180000
45.273266 24.149220 7.923770 0.030000
44.511459 16.245817 7.187394 0.060000
11.182300 0.953711 1.888495 0.020000
46.956017 -1.144209 6.794127 0.150000
39.412071 -5.825811 5.747021 0.030000
39.067532 -10.823623 5.817544 0.020000
6.281932 -1.853270 1.220263 3.004000
13.052486 6.048820 0.987308 0.040000
14.846751 4.797925 0.997342 0.180000
13.194419 2.566161 0.909731 0.020000
11.175534 0.932446 0.833388 0.110000
12.749659 -1.617894 0.838016 0.080000
15.513621 -3.890471 0.866783 0.120000
6.318501 -1.860627 0.690325 1.792000
6.933549 2.659059 0.133726 0.100000
7.252315 1.945074 0.121904 0.070000
7.425889 1.238273 0.119730 0.100000
7.573811 0.566006 0.112617 0.040000
7.517045 -0.125203 0.109899 0.040000
7.429997 -0.801990 0.107156 0.030000
7.197703 -1.466538 0.099079 0.040000
6.108147 -1.772771 0.180098 0.190000
46.857803 24.704517 7.969971 0.020000
45.424995 16.338531 7.135123 0.040000
57.124802 12.622142 8.461862 0.090000
11.208248 0.909328 1.853398 0.060000
49.621670 -1.438851 6.974991 0.090000
39.526318 -6.028183 5.616566 0.040000
38.106213 -10.726027 5.545395 0.030000
6.292544 -1.883017 1.205180 2.678000
14.828419 4.717743 0.946995 0.250000
11.171406 0.892507 0.793228 0.100000
14.881153 -0.371871 0.853212 0.010000
12.520011 -1.632130 0.792363 0.080000
13.397740 -3.330583 0.778341 0.030000
6.324127 -1.890452 0.670229 1.741000
6.750992 2.530558 0.127772 0.110000
7.069074 1.851548 0.121078 0.050000
7.247181 1.169857 0.114009 0.090000
7.374519 0.527182 0.111952 0.040000
7.322369 -0.143935 0.109321 0.040000
7.209751 -0.791206 0.106621 0.030000
6.986976 -1.430567 0.098663 0.040000
6.128866 -1.807307 0.160023 0.150000
46.028259 23.939796 7.609959 0.050000
44.109962 15.599647 6.738939 0.080000
57.155788 12.343566 8.220904 0.150000
11.144336 0.858260 1.808041 0.100000
35.719246 -1.167852 4.974689 0.190000
38.827938 -6.085688 5.374527 0.020000
38.024643 -10.881993 5.374600 0.040000
6.277983 -1.903226 1.185066 2.602000
13.120035 5.930459 0.887043 0.030000
14.859802 4.653535 0.891838 0.220000
11.247250 0.854081 0.758283 0.090000
12.705619 -0.353239 0.767602 0.030000
11.658290 -1.543434 0.740443 0.150000
6.299375 -1.900854 0.650125 1.692000
6.598225 2.412611 0.126935 0.110000
6.876026 1.747833 0.120189 0.050000
7.048464 1.101039 0.113234 0.110000
7.185334 0.483570 0.106296 0.030000
7.092604 -0.158338 0.108668 0.040000
7.054698 -0.789157 0.101224 0.020000
6.801340 -1.399117 0.098295 0.040000
42.259872 21.585180 6.781361 0.040000
44.165073 15.361393 6.538196 0.050000
57.231739 12.065815 7.990067 0.070000
11.185173 0.819146 1.778002 0.110000
35.732674 -1.327110 4.834131 0.320000
38.606144 -6.229282 5.188412 0.030000
38.215038 -11.142898 5.239126 0.020000
6.278610 -1.933146 1.164957 2.756000
14.861396 4.578772 0.831563 0.270000
13.222941 2.402192 0.769195 0.010000
11.238205 0.809028 0.723091 0.090000
12.686686 -0.403464 0.727365 0.040000
11.624167 -1.583948 0.700203 0.240000
13.430473 -3.459631 0.682945 0.050000
6.325189 -1.940293 0.630046 0.640000
6.430460 2.294378 0.126057 0.110000
6.727505 1.669993 0.114511 0.060000
6.884549 1.042890 0.112590 0.110000
6.986138 0.439747 0.105613 0.040000
6.937933 -0.176285 0.103197 0.050000
