# This PCD file was generated using the MATLAB® pcwrite function
# from Computer Vision Toolbox®.
# .PCD v.7 - Point Cloud Data file format
VERSION .7
FIELDS x y z intensity
SIZE 4 4 4 4
TYPE F F F F
COUNT 1 1 1 1
WIDTH 1286
HEIGHT 1
VIEWPOINT 0 0 0 1 0 0 0
POINTS 1286
DATA ascii
4.675826 1.112888 0.847093 0.020000
30.304016 7.926901 3.124343 0.030000
11.111375 1.334308 1.374720 0.260000
31.471056 0.538295 3.004922 0.090000
11.917346 -1.060771 1.392920 0.030000
17.778875 -3.760714 1.868189 0.000000
11.300699 -3.587972 1.366916 0.670000
11.552404 5.872535 0.307730 0.090000
14.468817 3.488243 0.231479 0.010000
10.954420 1.320132 0.329247 0.070000
14.770715 0.263528 0.200279 0.010000
13.092454 -1.154029 0.235629 0.020000
13.135736 -2.623295 0.185280 0.030000
11.081609 -3.477969 0.226741 0.360000
5.039083 1.832686 0.110709 0.030000
5.242752 1.381488 0.114563 0.030000
5.391157 0.944253 0.113325 0.110000
5.534110 0.531955 0.102166 0.020000
5.562537 0.092421 0.100606 0.040000
5.515786 -0.338550 0.098882 0.040000
5.494453 -0.788983 0.082152 0.030000
5.277448 -1.208213 0.080027 0.110000
28.968512 16.792358 3.298814 0.010000
4.616260 1.091799 0.831859 0.020000
30.298044 7.992184 3.019569 0.040000
11.145967 1.360085 1.344906 0.330000
31.524965 0.609707 2.905327 0.040000
11.871883 -1.031490 1.352910 0.030000
17.903791 -3.748136 1.818561 0.000000
11.305311 -3.562751 1.332022 0.520000
11.453007 5.845773 0.267371 0.070000
13.483435 3.239364 0.217981 0.010000
10.964030 1.345448 0.294365 0.100000
13.860336 0.276132 0.187949 0.020000
12.019671 -1.019569 0.238329 0.050000
12.446961 -2.431415 0.174195 0.030000
11.171984 -3.491093 0.186928 0.240000
4.989380 1.816731 0.110520 0.040000
5.168149 1.360056 0.114289 0.020000
5.331277 0.938123 0.108146 0.090000
5.469121 0.530710 0.101992 0.020000
5.482456 0.095888 0.100410 0.040000
5.465521 -0.324492 0.093803 0.030000
5.423892 -0.760330 0.082074 0.030000
5.211789 -1.174465 0.079981 0.130000
28.952486 16.862505 3.179032 0.040000
4.606192 1.096643 0.821850 0.020000
30.277256 8.047162 2.919718 0.070000
11.155661 1.380385 1.315006 0.250000
31.489193 0.664416 2.800436 0.060000
11.796510 -1.007801 1.317801 0.040000
17.973717 -3.736611 1.768786 0.000000
11.358690 5.814090 0.232006 0.110000
12.294510 4.476812 0.219478 0.050000
12.761854 3.055548 0.205414 0.010000
10.948811 1.360251 0.269380 0.110000
13.060115 0.280825 0.180878 0.020000
11.964198 -0.990498 0.203292 0.050000
11.873933 -2.277326 0.163272 0.030000
4.934882 1.790701 0.105281 0.030000
5.108557 1.338929 0.109055 0.020000
5.276479 0.927072 0.107962 0.090000
5.409133 0.529561 0.101831 0.020000
5.407278 0.104450 0.100246 0.040000
5.370143 -0.306334 0.098622 0.060000
5.338428 -0.736962 0.081938 0.030000
5.161223 -1.145428 0.079957 0.120000
28.911823 16.912138 3.069109 0.070000
4.650814 1.117520 0.817044 0.020000
30.266464 8.102331 2.819894 0.030000
11.150453 1.395398 1.285048 0.250000
31.393417 0.717958 2.700384 0.220000
11.856290 -0.991543 1.288017 0.050000
17.938004 -3.692086 1.713858 0.000000
11.689056 4.235211 0.206999 0.040000
12.184588 2.909522 0.188364 0.010000
10.923702 1.369882 0.239350 0.110000
12.415057 0.278489 0.174186 0.020000
11.964002 -0.975371 0.168347 0.130000
11.351182 -2.137276 0.152428 0.030000
4.860567 1.754271 0.104951 0.030000
5.068769 1.328183 0.103911 0.020000
5.196781 0.910543 0.107693 0.090000
5.334243 0.523125 0.101611 0.010000
5.342195 0.108204 0.100090 0.030000
5.375168 -0.306201 0.088635 0.130000
5.257856 -0.708519 0.086833 0.030000
5.110767 -1.121372 0.074915 0.120000
28.895950 16.972229 2.964290 0.100000
4.735031 1.159140 0.817419 0.020000
18.307138 4.696191 1.821005 0.000000
11.130260 1.410142 1.250050 0.260000
31.402826 0.763531 2.595577 0.220000
11.831099 -0.976895 1.253006 0.100000
17.932587 -3.661964 1.653955 0.000000
10.280730 5.178406 0.206829 0.050000
11.093699 3.988802 0.194529 0.040000
11.577494 2.752886 0.181197 0.010000
11.113005 1.413662 0.200007 0.090000
11.894894 0.283565 0.162846 0.020000
10.903788 -2.015804 0.146712 0.030000
10.299516 -3.102551 0.136095 0.060000
4.815958 1.733413 0.104757 0.030000
5.004164 1.306942 0.103663 0.020000
5.141996 0.899510 0.102509 0.090000
5.264352 0.516786 0.101405 0.010000
5.277207 0.106959 0.099915 0.030000
5.289896 -0.292832 0.088462 0.070000
5.207591 -0.694460 0.081754 0.040000
5.040205 -1.092718 0.074837 0.110000
28.895292 17.022648 2.849475 0.090000
4.764668 1.179748 0.807573 0.040000
11.120162 1.420078 1.215060 0.260000
31.397432 0.798819 2.490693 0.270000
11.805811 -0.957247 1.218012 0.110000
18.037794 -3.664766 1.604219 0.000000
33.391891 -11.960770 2.593469 0.110000
10.562835 3.768615 0.187325 0.050000
11.015295 2.602111 0.174169 0.010000
11.349926 0.278164 0.151404 0.020000
10.936441 -0.849991 0.156131 0.050000
10.421399 -1.895003 0.140902 0.040000
9.936530 -2.949457 0.130716 0.050000
4.761652 1.697385 0.099482 0.020000
4.949558 1.285893 0.103443 0.020000
5.062285 0.882962 0.107239 0.060000
5.204472 0.510656 0.096226 0.010000
5.202125 0.110522 0.099733 0.030000
5.199613 -0.279577 0.093276 0.030000
5.132208 -0.675919 0.086626 0.040000
4.999829 -1.073488 0.074803 0.110000
28.890018 17.052973 2.734572 0.060000
4.764694 1.179785 0.797573 0.030000
13.160627 3.224017 1.352093 0.000000
11.130142 1.425380 1.185105 0.170000
31.402416 0.814302 2.385762 0.230000
11.805806 -0.952118 1.183031 0.130000
17.068483 -3.432868 1.487550 0.000000
13.480175 -4.311048 1.284916 0.060000
9.316957 4.584880 0.192107 0.050000
10.121490 3.575165 0.175453 0.050000
10.532889 2.462865 0.167393 0.010000
10.880027 0.269181 0.145144 0.020000
10.550581 -0.807337 0.145282 0.050000
10.064767 -1.811782 0.130280 0.040000
9.573845 -2.811342 0.120283 0.060000
4.717140 1.671528 0.099269 0.020000
4.870148 1.254366 0.103118 0.020000
5.022593 0.867218 0.102077 0.050000
5.144674 0.499509 0.096029 0.010000
5.147148 0.109487 0.094585 0.020000
5.139528 -0.275727 0.093133 0.020000
5.061838 -0.657264 0.086512 0.040000
4.944374 -1.049528 0.069747 0.120000
28.905233 17.058706 2.614632 0.030000
4.754818 1.174632 0.787528 0.040000
13.195534 3.234834 1.312224 0.010000
11.080338 1.419554 1.149953 0.220000
13.296524 0.321455 1.246657 0.170000
11.811006 -0.956872 1.143026 0.120000
17.083735 -3.437356 1.427572 0.010000
8.941448 4.347665 0.185245 0.040000
9.734833 3.397747 0.168785 0.050000
10.115281 2.334863 0.160827 0.010000
10.395007 1.310094 0.142747 0.010000
10.475403 0.246446 0.139003 0.020000
10.190004 -0.779201 0.134445 0.050000
9.743499 -1.747905 0.124679 0.040000
9.241621 -2.697666 0.114838 0.060000
4.667820 1.635577 0.099007 0.020000
4.835633 1.228701 0.102933 0.010000
4.948073 0.840767 0.106784 0.040000
5.094971 0.483554 0.095840 0.010000
5.092350 0.098436 0.094401 0.020000
5.069446 -0.272068 0.092964 0.020000
5.011752 -0.653222 0.086396 0.040000
4.889179 -1.040601 0.074636 0.110000
4.769842 1.174956 0.777568 0.040000
13.111791 3.173348 1.276777 0.050000
11.110865 1.395208 1.129942 0.270000
31.399599 0.724874 2.210421 0.240000
11.806634 -0.986888 1.122903 0.120000
13.377945 -2.617377 1.200945 0.010000
11.365530 -3.540732 1.097258 0.050000
8.749467 4.188978 0.179154 0.040000
9.497369 3.263175 0.167665 0.050000
9.896963 2.245685 0.154925 0.020000
10.146286 1.240300 0.146838 0.010000
10.236022 0.211856 0.138250 0.020000
10.005230 -0.792742 0.133913 0.060000
9.573243 -1.736163 0.124278 0.040000
9.075981 -2.665833 0.114524 0.060000
4.673024 1.625693 0.093984 0.020000
4.816020 1.208322 0.102806 0.010000
4.953277 0.830884 0.101761 0.040000
5.075263 0.468174 0.095731 0.010000
5.077532 0.088132 0.099324 0.020000
5.069733 -0.287065 0.092909 0.020000
5.001958 -0.663393 0.081333 0.050000
4.884385 -1.050677 0.069586 0.100000
13.016731 6.816859 1.375074 0.000000
4.780031 1.165150 0.777558 0.040000
13.092766 3.122993 1.271540 0.030000
11.091660 1.354869 1.119742 0.180000
13.233065 0.245355 1.211208 0.080000
13.383915 -2.667253 1.195775 0.000000
11.270657 -3.547532 1.091985 0.190000
8.770039 4.159367 0.179098 0.050000
9.513049 3.228487 0.162576 0.050000
9.897635 2.210691 0.154797 0.020000
10.136972 1.205134 0.141683 0.010000
10.196700 0.176096 0.138014 0.020000
9.980810 -0.823215 0.133736 0.060000
9.548822 -1.766637 0.124101 0.040000
9.056560 -2.696210 0.114360 0.070000
4.668408 1.605601 0.093897 0.020000
4.811308 1.193229 0.102737 0.010000
4.968466 0.821173 0.101764 0.030000
5.080453 0.458272 0.095708 0.010000
5.057727 0.077751 0.099234 0.030000
5.059927 -0.297255 0.092845 0.020000
5.012244 -0.678199 0.081305 0.050000
4.884673 -1.065674 0.069531 0.110000
13.023071 6.746968 1.374830 0.000000
4.760418 1.144771 0.777431 0.050000
13.118624 3.078480 1.271442 0.040000
11.017537 1.308442 1.119376 0.410000
16.363102 0.249696 1.384396 0.100000
12.995771 -1.199353 1.180218 0.140000
11.236334 -3.583196 1.091763 1.000000
8.859843 4.171107 0.174376 0.050000
9.617947 3.235516 0.157876 0.050000
9.982905 2.197322 0.154970 0.020000
10.232337 1.186957 0.141865 0.010000
10.312254 0.148304 0.138212 0.020000
10.041565 -0.862058 0.133750 0.060000
9.629766 -1.815095 0.124132 0.040000
9.107604 -2.750242 0.114293 0.070000
4.668778 1.585587 0.098824 0.020000
4.841399 1.188804 0.102799 0.010000
4.978656 0.811366 0.101755 0.030000
5.105640 0.448752 0.095738 0.010000
5.118016 0.063921 0.094340 0.020000
5.070212 -0.312061 0.092817 0.020000
5.022625 -0.698003 0.081258 0.040000
4.879961 -1.080767 0.069463 0.110000
16.024094 8.518986 1.599253 0.000000
4.765705 1.129869 0.777390 0.050000
13.119555 3.028452 1.281258 0.040000
11.023276 1.268508 1.129243 0.630000
13.249843 0.150604 1.225900 0.160000
12.996594 -1.244401 1.195053 0.140000
13.436057 -2.781348 1.215487 0.010000
11.277533 -3.647473 1.106632 0.250000
9.028757 4.229352 0.175033 0.060000
9.797242 3.273957 0.158487 0.050000
10.107882 2.199716 0.155305 0.020000
10.402497 1.180215 0.142284 0.010000
10.447803 0.120895 0.138464 0.020000
10.157393 -0.904866 0.138893 0.050000
9.761083 -1.882592 0.124224 0.040000
9.199011 -2.823523 0.119259 0.070000
4.708579 1.596351 0.098968 0.020000
4.876297 1.194474 0.102912 0.010000
4.993749 0.806654 0.101776 0.030000
5.125828 0.439137 0.095755 0.010000
5.133205 0.054211 0.094343 0.020000
5.090400 -0.321676 0.092834 0.020000
5.053016 -0.717407 0.076265 0.050000
4.910434 -1.105187 0.069452 0.120000
16.055283 8.454498 1.619095 0.000000
4.785784 1.125234 0.782425 0.050000
13.100574 2.973024 1.296003 0.030000
11.018922 1.233382 1.139101 0.660000
13.265568 0.110843 1.240793 0.280000
13.007416 -1.289256 1.209915 0.160000
11.318718 -3.711769 1.126500 0.340000
9.217367 4.302959 0.180799 0.060000
9.986524 3.312570 0.164125 0.050000
10.342455 2.224213 0.156008 0.020000
10.577739 1.168551 0.147698 0.010000
10.643437 0.089637 0.138859 0.020000
10.318417 -0.956791 0.139120 0.060000
9.882306 -1.945282 0.124307 0.040000
9.355898 -2.920535 0.119308 0.070000
4.718673 1.591543 0.098976 0.020000
4.906386 1.190049 0.102974 0.010000
5.028838 0.802326 0.101852 0.030000
5.170928 0.435019 0.090857 0.010000
5.158392 0.044691 0.094374 0.020000
5.120682 -0.336098 0.092860 0.020000
5.073287 -0.732039 0.081264 0.040000
4.915708 -1.120107 0.074410 0.130000
29.056866 16.191439 2.616804 0.020000
4.776060 1.110027 0.787343 0.060000
30.378494 7.530824 2.423058 0.170000
11.064341 1.209174 1.159130 0.270000
13.043220 -1.333652 1.229843 0.100000
13.417694 -2.871844 1.250103 0.010000
11.274179 -3.737663 1.136288 0.150000
9.445600 4.397347 0.181746 0.060000
4.871315 1.143049 0.462711 0.010000
10.572016 2.248595 0.161698 0.020000
10.787891 1.162574 0.148224 0.010000
10.849057 0.058551 0.144280 0.020000
10.524515 -1.012872 0.144450 0.060000
10.038701 -2.017317 0.129448 0.040000
9.502679 -3.012759 0.124348 0.070000
4.768472 1.602499 0.099147 0.020000
4.926478 1.185433 0.103009 0.020000
5.083841 0.803398 0.096999 0.030000
5.181105 0.425193 0.095847 0.010000
5.188674 0.030269 0.094399 0.020000
5.161057 -0.355328 0.092894 0.020000
5.108772 -0.756346 0.076266 0.050000
4.956288 -1.149317 0.069407 0.120000
29.089207 16.061832 2.671407 0.030000
4.806028 1.110565 0.797423 0.050000
30.390648 7.410834 2.477644 0.260000
11.159749 1.185924 1.179292 0.400000
12.973851 -1.370060 1.249527 0.070000
13.393496 -2.917407 1.274871 0.010000
11.189348 -3.749345 1.151023 0.360000
9.688734 4.497021 0.182751 0.070000
4.945919 1.164482 0.462985 0.030000
10.846390 2.283856 0.162545 0.020000
10.948123 1.150604 0.158598 0.010000
11.094777 0.023250 0.144790 0.020000
10.740720 -1.073743 0.144788 0.060000
10.225282 -2.098777 0.134632 0.040000
9.654758 -3.119865 0.124347 0.070000
4.798466 1.603073 0.099227 0.020000
4.966375 1.191198 0.103134 0.010000
5.104015 0.793764 0.102016 0.040000
5.236191 0.421248 0.095977 0.010000
5.223859 0.020941 0.094456 0.020000
5.191339 -0.369751 0.092919 0.030000
5.164241 -0.780287 0.076322 0.040000
4.971655 -1.169044 0.074374 0.120000
29.107100 15.901909 2.735860 0.020000
4.806303 1.095549 0.802368 0.050000
30.417595 7.301111 2.537307 0.270000
12.989658 -1.414839 1.269402 0.070000
11.180064 -3.789603 1.170850 0.240000
10.001184 4.633029 0.184072 0.070000
4.876768 1.118112 0.472633 0.060000
11.175562 2.330168 0.163577 0.020000
11.168260 1.144801 0.164151 0.040000
11.415471 -0.010632 0.150501 0.010000
11.032186 -1.148192 0.150272 0.050000
10.472331 -2.204082 0.139886 0.040000
9.887384 -3.255452 0.129450 0.060000
4.754202 1.562163 0.113960 0.020000
5.168921 0.800026 0.097209 0.040000
5.266376 0.411824 0.096020 0.010000
5.254128 0.006500 0.099482 0.030000
5.251820 -0.393579 0.087988 0.030000
5.179621 -0.799996 0.076289 0.050000
5.017331 -1.203157 0.069367 0.150000
29.075457 15.715995 2.810087 0.030000
4.806481 1.085532 0.807332 0.050000
30.449789 7.176431 2.611928 0.300000
11.131184 1.105216 1.218918 0.210000
11.211226 -3.854128 1.200691 0.160000
10.343328 4.784590 0.190529 0.070000
4.906832 1.113651 0.482695 0.110000
11.534619 2.382036 0.169707 0.020000
11.104165 1.093473 0.188793 0.080000
10.911010 -0.050484 0.199037 0.020000
11.323748 -1.227640 0.155738 0.060000
10.739568 -2.319003 0.145156 0.040000
10.190681 -3.424674 0.129613 0.070000
4.690203 1.505836 0.138584 0.020000
4.947093 1.150748 0.122934 0.020000
5.194095 0.790488 0.102239 0.050000
5.321558 0.402879 0.096131 0.010000
5.319416 -0.007234 0.094601 0.030000
5.282089 -0.408020 0.093014 0.040000
5.260386 -0.838438 0.071357 0.030000
5.032794 -1.227884 0.074315 0.140000
29.128124 15.566703 2.884670 0.030000
4.831546 1.080975 0.817380 0.050000
30.447290 7.036101 2.681401 0.240000
11.186778 1.071183 1.243937 0.220000
12.684396 -0.105619 1.318473 0.020000
13.151758 -1.531993 1.334390 0.050000
11.297856 -3.942594 1.230589 0.220000
10.779688 4.977963 0.197386 0.070000
4.862389 1.082757 0.492464 0.090000
11.973565 2.440434 0.176070 0.020000
11.119864 1.053675 0.213687 0.100000
12.142322 -0.101764 0.162060 0.020000
11.710578 -1.320267 0.161403 0.050000
11.082270 -2.457482 0.150536 0.040000
10.514441 -3.618526 0.134738 0.080000
4.695463 1.490898 0.148542 0.010000
4.917634 1.120124 0.137743 0.040000
5.298909 0.802535 0.092558 0.100000
5.351731 0.393437 0.101175 0.010000
5.374693 -0.021178 0.094693 0.030000
5.342570 -0.431847 0.088083 0.040000
5.295858 -0.862763 0.071359 0.040000
5.083551 -1.266919 0.074302 0.130000
29.126257 15.391324 2.969015 0.040000
4.831820 1.065959 0.822325 0.060000
30.499357 6.916766 2.766094 0.110000
12.650200 -0.151373 1.343213 0.080000
13.072461 -1.573629 1.364029 0.050000
19.585611 -4.871125 1.818777 0.000000
4.882468 1.078123 0.497499 0.110000
12.502099 2.520534 0.187747 0.010000
11.100569 1.013206 0.238486 0.100000
12.653459 -0.157003 0.168189 0.020000
11.595987 -1.347594 0.196003 0.060000
11.505435 -2.619425 0.156038 0.040000
10.631284 -3.716379 0.154679 0.170000
4.735456 1.491664 0.148649 0.060000
4.937714 1.115489 0.142779 0.050000
5.309169 0.787692 0.102529 0.210000
5.426921 0.384894 0.096339 0.020000
5.425067 -0.040216 0.094754 0.040000
5.388027 -0.455999 0.093112 0.040000
5.331318 -0.887107 0.076361 0.040000
5.104013 -1.291550 0.079264 0.130000
29.198978 15.237360 3.058633 0.040000
4.832082 1.050925 0.832270 0.040000
30.447250 6.755483 2.835359 0.050000
12.591008 -0.197607 1.367887 0.160000
11.644270 -1.410696 1.290906 0.040000
19.361137 -4.905558 1.853063 0.000000
11.934863 5.500142 0.212343 0.070000
4.877826 1.057994 0.507412 0.100000
13.095537 2.606896 0.194617 0.010000
11.081356 0.967720 0.268267 0.090000
11.641968 -1.401815 0.220922 0.200000
11.948885 -2.795982 0.161540 0.030000
10.627177 -3.766558 0.179482 0.200000
4.715899 1.466230 0.163504 0.040000
4.908242 1.084846 0.162588 0.040000
5.394153 0.789320 0.102757 0.090000
5.492101 0.376141 0.096477 0.020000
5.485343 -0.054065 0.094860 0.050000
5.473599 -0.484347 0.088230 0.040000
5.366873 -0.916449 0.081345 0.050000
5.159865 -1.335488 0.079247 0.140000
29.236778 15.077689 3.158139 0.010000
4.817455 1.030623 0.837156 0.050000
30.494473 6.625998 2.935002 0.040000
12.636853 -0.246884 1.407824 0.640000
11.609964 -1.451470 1.320665 0.060000
12.624055 5.808359 0.225288 0.060000
4.888085 1.043151 0.517384 0.100000
11.037148 0.921756 0.297981 0.080000
14.156313 -0.293282 0.181605 0.020000
11.607662 -1.442589 0.250681 0.140000
12.578545 -3.033983 0.167299 0.040000
10.623045 -3.816774 0.214285 0.200000
5.102425 1.658868 0.110228 0.060000
4.928417 1.075212 0.167605 0.050000
5.444226 0.785260 0.107873 0.080000
5.557267 0.367369 0.101614 0.030000
5.565711 -0.072529 0.095001 0.050000
5.524056 -0.508403 0.093272 0.040000
5.422534 -0.950389 0.081364 0.050000
5.205623 -1.374618 0.079221 0.130000
29.235228 14.882221 3.267410 0.010000
4.837604 1.020952 0.852173 0.050000
30.631460 6.508197 3.044923 0.020000
12.582743 -0.298039 1.437493 0.590000
11.545568 -1.487820 1.350362 0.080000
17.292595 -4.474988 1.819264 0.000000
4.898249 1.033307 0.527374 0.090000
14.984779 2.923079 0.215724 0.010000
11.092826 0.882705 0.327982 0.080000
11.583451 -1.488171 0.280449 0.240000
10.629020 -3.871779 0.244096 0.190000
5.196846 1.690700 0.105593 0.050000
4.918763 1.054969 0.182505 0.080000
5.534223 0.787002 0.103114 0.100000
5.642443 0.358999 0.101806 0.030000
5.626070 -0.091394 0.100089 0.060000
5.594617 -0.537057 0.093350 0.040000
5.473182 -0.984443 0.086370 0.050000
5.271569 -1.423364 0.079212 0.130000
48.541645 25.151562 5.326000 0.010000
4.847863 1.006109 0.862145 0.030000
30.614199 6.352509 3.134300 0.030000
31.099247 2.706282 3.087011 0.020000
12.598594 -0.347891 1.477350 0.790000
11.481282 -1.529150 1.375041 0.140000
17.470158 -4.616869 1.889201 0.000000
52.817284 -23.614565 4.990878 0.040000
14.621464 6.741686 0.258972 0.040000
4.903510 1.018369 0.537332 0.100000
11.113606 0.837985 0.357870 0.090000
12.702012 -0.361623 0.307556 0.000000
11.559117 -1.528791 0.320235 0.320000
14.270934 -3.666738 0.184364 0.030000
10.640267 -3.941705 0.278866 0.180000
5.256726 1.696830 0.110772 0.050000
4.943923 1.045412 0.192535 0.100000
5.619194 0.788611 0.108342 0.100000
5.717717 0.345438 0.101952 0.030000
5.716533 -0.114666 0.100238 0.060000
5.660167 -0.565825 0.098414 0.050000
5.548934 -1.023000 0.086424 0.060000
5.322505 -1.472415 0.084162 0.130000
47.548054 24.272011 5.420138 0.050000
4.902718 1.012106 0.877311 0.030000
43.069210 8.907001 4.401320 0.050000
51.521191 4.360813 5.021489 0.040000
12.654533 -0.401976 1.517295 0.510000
11.537221 -1.583235 1.414986 0.140000
38.480103 -11.202534 3.794581 0.020000
51.218685 -23.195492 5.093264 0.160000
4.894765 1.473245 0.549001 0.010000
4.928575 1.013811 0.547381 0.080000
15.584828 2.914258 0.302259 0.000000
11.214167 0.804777 0.393009 0.080000
12.727848 -0.411302 0.352440 0.020000
11.559972 -1.578930 0.360051 0.280000
15.479580 -4.108724 0.200876 0.030000
5.375937 1.739120 0.111240 0.080000
4.934269 1.025169 0.207435 0.090000
5.714176 0.790431 0.108597 0.100000
5.832887 0.337642 0.102223 0.030000
5.791902 -0.133226 0.100366 0.060000
5.765831 -0.598789 0.093567 0.050000
5.599678 -1.062053 0.091411 0.070000
5.408638 -1.530776 0.084170 0.120000
47.301403 23.811619 5.577785 0.050000
42.111954 8.483319 4.472247 0.110000
53.647091 4.280101 5.411742 0.010000
12.735538 -0.460619 1.567289 0.560000
11.493001 -1.629218 1.449700 0.150000
39.489910 -11.739187 4.040225 0.030000
51.825405 -23.839994 5.367455 0.080000
4.875413 1.437831 0.558819 0.020000
4.973636 1.009637 0.557483 0.050000
13.230069 2.343693 0.393992 0.010000
11.229948 0.759961 0.422884 0.110000
11.540759 -1.624416 0.389832 0.290000
11.268068 -4.349937 0.328988 0.350000
5.465537 1.760840 0.111555 0.070000
5.804255 0.787155 0.108820 0.130000
5.928061 0.329464 0.102441 0.030000
5.907359 -0.156019 0.100583 0.060000
5.841475 -0.632365 0.098640 0.050000
5.695619 -1.110224 0.091483 0.070000
5.474680 -1.584521 0.084143 0.140000
47.361088 23.536907 5.796922 0.050000
43.763702 8.623804 4.797084 0.020000
57.415497 4.320226 5.981734 0.060000
11.448588 -1.665203 1.484451 0.170000
39.493408 -11.944761 4.204472 0.020000
51.705124 -24.118153 5.586109 0.040000
4.895466 1.433159 0.573854 1.000000
13.235991 2.288613 0.443803 0.020000
11.591795 -1.683596 0.429745 0.110000
19.085396 -5.424973 0.225396 0.010000
11.249009 -4.405477 0.373732 0.280000
5.569929 1.792827 0.116947 0.080000
5.759859 1.276373 0.115522 0.040000
5.964046 0.800236 0.104285 0.100000
6.028316 0.316363 0.107654 0.030000
6.002808 -0.179213 0.105746 0.060000
5.957220 -0.670155 0.098802 0.050000
5.771453 -1.153798 0.096519 0.060000
5.560897 -1.647899 0.089132 0.130000
4.840316 1.390794 0.928556 0.000000
41.297237 7.906771 4.697979 0.040000
57.390415 4.033925 6.190606 0.060000
11.454536 -1.720246 1.524262 0.160000
39.955452 -12.336734 4.409223 0.010000
51.959351 -24.634348 5.849856 0.070000
4.871115 1.397650 0.583658 0.120000
13.341362 -0.605008 0.468322 0.020000
13.440323 -3.673453 0.402173 0.010000
11.239961 -4.460806 0.413503 0.280000
5.684333 1.825023 0.117365 0.080000
5.899354 1.304049 0.115989 0.040000
6.103924 0.807916 0.104679 0.060000
6.138583 0.303473 0.107894 0.030000
6.133371 -0.206699 0.100984 0.050000
6.068061 -0.713039 0.098931 0.040000
5.902688 -1.216277 0.091629 0.050000
5.652221 -1.716162 0.089117 0.120000
4.805967 1.355093 0.938334 0.010000
44.338043 14.323703 5.394778 0.120000
41.300941 7.691217 4.857190 0.020000
57.385017 3.762967 6.409587 0.060000
11.455390 -1.770385 1.564079 0.150000
40.407078 -12.708957 4.629020 0.010000
52.288391 -25.144218 6.143823 0.040000
4.891264 1.387979 0.598675 0.100000
15.166217 4.370636 0.541582 0.140000
11.314783 1.796329 0.546960 0.010000
11.759059 -1.810690 0.504710 0.030000
13.416265 -3.729089 0.446904 0.020000
5.823636 1.862698 0.117869 0.090000
6.029042 1.321536 0.116393 0.050000
6.253813 0.815807 0.100100 0.060000
6.298758 0.296557 0.103287 0.030000
6.253923 -0.234395 0.101196 0.060000
6.188901 -0.755733 0.099088 0.040000
5.988617 -1.264658 0.096674 0.060000
5.753640 -1.789233 0.089110 0.120000
4.781521 1.324583 0.948157 1.000000
41.493271 7.544159 5.052147 0.080000
57.369102 3.516757 6.643632 0.040000
11.928137 -0.616439 1.654603 0.030000
11.516412 -1.829392 1.609019 0.120000
40.229839 -12.877986 4.792931 0.020000
44.974140 -21.776520 5.542243 0.130000
4.906427 1.378231 0.608678 0.110000
13.100136 3.615696 0.598384 0.080000
11.235939 1.729660 0.586506 0.020000
14.960476 -0.814293 0.541771 0.010000
11.764912 -1.860733 0.544540 0.170000
11.776340 -3.235647 0.509459 0.010000
5.957748 1.910275 0.118395 0.110000
6.208351 1.359995 0.112004 0.040000
6.368779 0.817990 0.105408 0.090000
6.459015 0.284624 0.103661 0.030000
6.444571 -0.265731 0.096577 0.050000
6.329833 -0.803042 0.099280 0.040000
6.135040 -1.336848 0.091787 0.050000
5.880354 -1.876803 0.084115 0.110000
4.791684 1.314739 0.958147 1.000000
44.922043 14.058208 5.840320 0.070000
42.497761 7.542407 5.324765 0.050000
50.232357 2.837028 6.057471 0.030000
11.592403 -1.888149 1.663999 0.070000
40.439644 -13.154750 4.992452 0.020000
44.842434 -21.979868 5.756146 0.100000
4.901772 1.358084 0.623592 0.110000
11.226604 1.689328 0.626333 0.090000
30.735912 1.658232 0.602141 0.030000
13.288907 -0.756516 0.597623 0.010000
11.690396 -1.892313 0.584229 0.240000
11.711809 -3.267054 0.554174 0.030000
6.146576 1.973921 0.114125 0.110000
6.382757 1.393360 0.107583 0.050000
6.523654 0.825958 0.105842 0.100000
6.634187 0.277996 0.099093 0.040000
6.570110 -0.293350 0.101802 0.060000
6.495869 -0.854853 0.094521 0.040000
6.276451 -1.409153 0.091888 0.060000
6.027339 -1.979006 0.084119 0.110000
4.767238 1.284229 0.967969 1.000000
44.389305 13.657495 5.957441 0.060000
41.126038 7.096020 5.329525 0.100000
57.327969 2.989189 7.101569 0.040000
11.854584 -0.703138 1.729089 0.020000
45.478809 -22.608871 6.050472 0.030000
4.907019 1.343127 0.638550 0.120000
11.177480 1.638250 0.661015 0.130000
14.897309 -0.925926 0.651193 0.040000
11.711246 -1.942069 0.624098 0.200000
11.611916 -3.279116 0.593869 0.070000
6.310492 2.032070 0.114769 0.120000
6.562039 1.431782 0.113194 0.050000
6.683528 0.834021 0.106289 0.100000
6.779434 0.265758 0.104427 0.040000
6.755759 -0.324782 0.097170 0.060000
6.631789 -0.902276 0.099700 0.030000
6.417862 -1.481457 0.091988 0.060000
6.164147 -2.071384 0.079133 0.100000
4.708015 1.243088 0.967662 0.080000
46.757835 14.211194 6.445687 0.070000
42.464172 7.160468 5.658261 0.040000
57.326733 2.763356 7.310728 0.060000
11.885336 -0.747704 1.769005 0.070000
45.362373 -22.821817 6.234378 0.150000
4.887476 1.317711 0.648404 0.110000
13.137816 3.455858 0.742889 0.030000
11.173251 1.593032 0.695836 0.170000
30.795078 1.408459 0.836370 0.000000
11.612769 -3.329255 0.633685 0.230000
13.533497 -5.957916 0.623927 0.020000
6.504305 2.095793 0.115512 0.130000
6.726529 1.459937 0.113728 0.050000
6.883299 0.847850 0.106862 0.130000
6.984696 0.254705 0.099922 0.040000
6.881393 -0.357400 0.102377 0.050000
6.792909 -0.959201 0.099908 0.040000
6.554165 -1.548877 0.097093 0.050000
6.311131 -2.173587 0.079136 0.110000
4.708264 1.228035 0.982607 0.080000
45.086628 13.479150 6.413603 0.060000
42.975105 7.084396 5.889315 0.030000
57.245308 2.545969 7.524710 0.110000
11.840828 -0.778690 1.803774 0.070000
45.270966 -23.039377 6.443333 0.060000
4.867919 1.292277 0.663259 0.130000
16.076714 4.311982 0.838744 0.060000
11.238601 1.569115 0.740918 0.120000
13.284204 0.513105 0.742332 0.000000
12.079190 -0.800150 0.719305 0.090000
11.492578 -3.326721 0.678381 0.170000
15.722257 -7.186453 0.690074 0.040000
6.648416 2.143562 0.116065 0.120000
6.930737 1.503874 0.109424 0.050000
7.058075 0.861199 0.107368 0.120000
7.154939 0.242945 0.105322 0.040000
7.092134 -0.393352 0.097793 0.050000
6.898738 -1.002200 0.105025 0.050000
6.735868 -1.635394 0.092246 0.060000
6.427726 -2.256387 0.084133 0.100000
4.688624 1.207618 0.992480 0.080000
57.116611 16.993546 8.263088 0.090000
11.176202 1.543992 1.810673 0.010000
11.836491 -0.818927 1.843613 0.050000
45.422138 -15.774722 6.340732 0.010000
46.386368 -23.884521 6.813107 0.040000
4.882986 1.287528 0.673281 0.140000
13.129487 3.355332 0.837495 0.030000
12.029671 -0.831251 0.759060 0.080000
13.355348 -2.421180 0.766611 0.050000
11.392697 -3.338765 0.713076 0.240000
15.672972 -7.232625 0.749774 0.020000
6.862035 2.217666 0.116899 0.120000
7.100214 1.532106 0.114972 0.050000
7.247931 0.869818 0.112895 0.130000
7.345191 0.231587 0.105777 0.040000
7.242654 -0.420511 0.108085 0.050000
7.094851 -1.058454 0.105328 0.050000
6.892264 -1.707430 0.097386 0.050000
6.564507 -2.348802 0.089147 0.110000
4.693789 1.197679 1.002456 0.080000
45.286346 13.181529 6.793022 0.100000
11.176673 1.513849 1.850563 0.030000
11.842056 -0.853973 1.883498 0.050000
11.350168 -3.368819 1.867865 0.000000
46.051834 -23.936579 6.987042 0.060000
4.868333 1.267189 0.688167 0.130000
16.536001 4.335306 0.970031 0.070000
11.125068 1.481668 0.810297 0.060000
13.250412 0.437114 0.831962 0.010000
12.005145 -0.861873 0.798883 0.070000
11.337891 -3.354964 0.752873 0.250000
13.577000 -6.162705 0.783281 0.020000
7.035935 2.275989 0.122569 0.130000
7.324309 1.581407 0.115740 0.050000
7.457700 0.883838 0.113495 0.110000
7.550440 0.220516 0.106271 0.030000
7.438384 -0.456768 0.108461 0.060000
7.265956 -1.115205 0.110563 0.040000
7.084048 -1.798773 0.097547 0.050000
6.726681 -2.460716 0.089154 0.120000
4.693954 1.187644 1.012420 0.110000
45.557407 13.095843 7.028413 0.110000
44.620117 -9.684244 6.426280 0.010000
11.391180 -3.428228 1.917752 0.010000
44.782604 -23.470915 7.015460 0.030000
4.898302 1.267726 0.698247 0.120000
16.700993 4.328226 1.035436 0.070000
11.095654 1.445970 0.845088 0.080000
11.870462 -0.884584 0.833447 0.080000
13.366739 -2.506306 0.856325 0.010000
11.313270 -3.380586 0.792714 0.270000
13.557722 -6.208284 0.838062 0.020000
7.289258 2.365856 0.123565 0.120000
7.543489 1.625594 0.121476 0.040000
7.672372 0.902953 0.114126 0.110000
7.785575 0.214999 0.111865 0.030000
7.684214 -0.497049 0.103953 0.050000
7.522455 -1.190288 0.105954 0.040000
7.250646 -1.880597 0.097678 0.040000
6.888746 -2.567650 0.094179 0.110000
4.684218 1.172418 1.022338 0.100000
45.231728 12.849086 7.156647 0.080000
11.217606 1.454329 1.930449 0.100000
44.093212 1.357286 6.555951 0.010000
40.541054 -3.704603 5.972856 0.320000
44.527004 -9.806654 6.590583 0.020000
44.796089 -23.681446 7.219715 0.030000
4.888552 1.252482 0.713165 0.150000
13.131421 3.234835 0.977053 0.030000
11.101040 1.420941 0.880010 0.060000
11.850854 -0.910093 0.868302 0.090000
13.402382 -2.545796 0.901271 0.060000
11.298742 -3.411017 0.832563 0.320000
13.593926 -6.277787 0.887898 0.030000
7.497865 2.439846 0.129384 0.120000
7.767680 1.669896 0.122226 0.050000
7.902029 0.922336 0.119798 0.110000
7.965816 0.203431 0.117292 0.040000
7.884930 -0.533230 0.109343 0.040000
7.718650 -1.251560 0.111238 0.040000
7.447417 -1.971863 0.102853 0.040000
7.106497 -2.708486 0.089224 0.070000
4.679384 1.162287 1.032287 0.130000
40.707664 1.138600 6.221297 0.030000
40.643013 -3.828259 6.132664 0.240000
44.438915 -9.928931 6.744900 0.020000
11.367139 -3.488974 1.992464 0.030000
48.038071 -25.682367 7.945747 0.010000
4.888717 1.242447 0.723129 0.140000
17.130188 4.355974 1.166661 0.070000
11.071528 1.390242 0.914819 0.080000
11.831232 -0.935620 0.908156 0.090000
13.564281 -6.303543 0.937726 0.030000
7.996666 1.724272 0.128026 0.040000
8.101787 0.936146 0.125371 0.090000
8.265964 0.199197 0.113060 0.030000
8.095644 -0.569219 0.114759 0.040000
7.884660 -1.303408 0.116479 0.030000
7.644201 -2.063111 0.103027 0.040000
7.263467 -2.810516 0.094255 0.070000
4.664744 1.141966 1.042174 0.080000
45.499180 12.667709 7.556675 0.060000
40.679085 1.042467 6.375866 0.070000
44.375511 -10.035769 6.909339 0.010000
4.859080 1.221839 0.732975 0.090000
17.349581 4.379923 1.237323 0.060000
11.146615 1.381550 0.949983 0.110000
13.282358 0.312081 1.001583 0.000000
11.826525 -0.955842 0.943069 0.100000
13.378219 -2.601580 0.986002 0.030000
13.605388 -6.367950 0.987594 0.040000
8.014223 2.634769 0.131457 0.110000
8.270561 1.784528 0.128965 0.040000
8.421165 0.972288 0.121339 0.090000
8.521191 0.189065 0.118688 0.030000
8.366456 -0.609040 0.115318 0.040000
8.111042 -1.374103 0.121807 0.030000
7.840972 -2.154377 0.108201 0.040000
7.460908 -2.936775 0.099301 0.070000
4.560748 1.090002 1.031709 0.050000
50.282944 13.951124 8.508943 0.120000
11.248463 1.394506 2.040308 0.070000
39.955853 0.938470 6.408592 0.020000
45.599785 -4.542287 7.187959 0.070000
11.408334 -3.563528 2.082295 0.020000
4.809638 1.190850 0.742731 0.080000
13.122999 3.134179 1.106659 0.040000
11.132019 1.356156 0.979851 0.100000
31.451092 0.712563 1.745505 0.050000
11.836911 -0.980776 0.978004 0.070000
13.383675 -2.631646 1.030905 0.020000
11.254709 -3.477275 0.942203 0.110000
8.322044 2.750667 0.137691 0.100000
8.554358 1.849975 0.129949 0.040000
8.700729 0.997646 0.122163 0.080000
8.836336 0.185118 0.114496 0.030000
8.617271 -0.649243 0.115823 0.040000
8.377539 -1.448994 0.117224 0.030000
8.042742 -2.245547 0.113389 0.030000
7.633163 -3.053515 0.104317 0.060000
4.575706 1.090233 1.046749 0.060000
11.223868 1.368920 2.070149 0.100000
39.957047 0.858002 6.538298 0.030000
43.607578 -4.424870 7.033194 0.080000
11.358374 -3.569578 2.107143 0.030000
4.799805 1.180623 0.752667 0.080000
11.142213 1.341220 1.014822 0.080000
13.389049 -2.656694 1.070826 0.060000
11.255014 -3.497383 0.972130 0.190000
13.631751 -6.452826 1.087348 0.020000
8.575259 2.845515 0.143705 0.100000
8.990183 1.028177 0.128032 0.080000
9.096562 0.175082 0.120138 0.030000
8.978367 -0.702319 0.111568 0.030000
8.639010 -1.524018 0.122628 0.030000
8.294898 -2.355737 0.113638 0.030000
7.830509 -3.174776 0.109381 0.060000
4.545986 1.074643 1.051614 0.070000
11.169292 1.342779 2.094910 0.330000
43.080982 0.855538 7.171449 0.050000
42.120872 -4.338016 6.944635 0.040000
11.368746 -3.594530 2.147077 0.050000
4.785069 1.165301 0.762572 0.090000
11.067640 1.314696 1.039529 0.110000
13.263390 0.241265 1.121271 0.000000
11.235119 -3.507894 1.007039 0.240000
9.176641 1.996900 0.137120 0.040000
9.359444 1.070256 0.129152 0.080000
9.456686 0.171978 0.121067 0.030000
9.254165 -0.742062 0.117140 0.030000
8.940679 -1.608256 0.123102 0.030000
8.587431 -2.485157 0.113920 0.030000
8.028046 -3.306034 0.114409 0.070000
4.560957 1.074893 1.061654 0.090000
11.049864 1.310449 2.104478 0.360000
42.912041 0.781849 7.290736 0.020000
42.953449 -4.503108 7.221197 0.080000
11.333770 -3.600311 2.176965 0.050000
4.750446 1.144616 0.767405 0.110000
13.153734 3.079318 1.226536 0.010000
11.082834 1.299856 1.074514 0.310000
13.298579 0.226808 1.156310 0.010000
13.020214 -1.163714 1.135414 0.030000
11.225316 -3.523213 1.041957 0.250000
11.246581 -5.158186 1.060935 0.010000
9.175918 3.077041 0.151133 0.100000
9.510128 2.078283 0.143293 0.030000
9.708803 1.106953 0.130201 0.080000
9.761904 0.162803 0.126830 0.030000
9.469865 -0.777974 0.127570 0.030000
9.252332 -1.692320 0.128603 0.030000
8.864761 -2.604886 0.119199 0.030000
8.260768 -3.446620 0.119494 0.060000
4.551029 1.069665 1.071609 0.100000
11.059975 1.300531 2.134468 0.480000
39.699699 0.666719 6.896919 0.040000
42.328175 -4.500229 7.259576 0.170000
11.329063 -3.620533 2.211878 0.050000
11.325768 -5.291313 2.320660 0.010000
4.765417 1.144866 0.777445 0.120000
13.134126 3.053809 1.261390 0.030000
11.028162 1.278713 1.099293 0.380000
16.407969 0.260649 1.359554 0.010000
13.015398 -1.178956 1.175345 0.070000
11.215514 -3.538532 1.076875 0.260000
11.256859 -5.178139 1.100888 0.010000
9.803802 2.148883 0.154322 0.030000
10.033250 1.138154 0.136164 0.090000
10.062014 0.158514 0.137597 0.030000
9.865940 -0.830398 0.128409 0.030000
9.513899 -1.772343 0.133989 0.030000
9.172278 -2.734037 0.124522 0.030000
8.620027 -3.664760 0.114620 0.060000
4.551207 1.059649 1.076572 0.090000
11.060171 1.285404 2.169413 0.480000
39.810341 0.613279 7.047010 0.050000
42.133404 -4.529368 7.368960 0.220000
11.304085 -3.626122 2.241792 0.050000
4.750490 1.139543 0.787386 0.130000
13.099411 3.032994 1.301223 0.040000
11.023263 1.268489 1.134243 0.460000
13.239065 0.190387 1.231020 0.010000
13.000596 -1.194370 1.210250 0.090000
13.405161 -2.736986 1.230571 0.010000
11.240897 -3.563178 1.111850 0.230000
13.628377 -6.563589 1.271930 0.020000
9.955091 3.386981 0.164320 0.100000
10.387487 1.179909 0.147244 0.080000
10.472128 0.156368 0.138660 0.030000
10.166816 -0.874680 0.139030 0.030000
9.860641 -1.860736 0.139565 0.030000
9.464702 -2.858477 0.129823 0.030000
8.903301 -3.834401 0.124729 0.060000
4.561070 1.064783 1.091617 0.080000
11.065270 1.275372 2.204389 0.370000
40.385471 0.578407 7.288384 0.070000
42.284245 -4.597151 7.549104 0.200000
11.279095 -3.631730 2.276706 0.040000
4.740657 1.129316 0.797322 0.160000
30.344103 7.749948 2.493783 0.060000
11.018377 1.258284 1.164192 0.470000
13.224060 0.184952 1.270961 0.000000
13.020680 -1.204134 1.250266 0.090000
13.460608 -2.766095 1.275608 0.020000
11.261186 -3.582922 1.146829 0.170000
13.618440 -6.573965 1.321866 0.010000
10.535575 3.628141 0.166731 0.040000
10.605081 2.349228 0.167159 0.030000
10.816531 1.233117 0.153561 0.080000
10.857126 0.158705 0.149673 0.030000
10.537775 -0.922621 0.149820 0.030000
10.167283 -1.944915 0.150053 0.030000
9.827687 -3.011571 0.135201 0.030000
9.237250 -4.038060 0.129844 0.050000
4.575946 1.070033 1.101675 0.080000
11.050291 1.269974 2.234330 0.440000
40.310719 0.546493 7.418072 0.070000
42.199364 -4.624313 7.693783 0.260000
11.269100 -3.637051 2.311661 0.040000
4.740631 1.129279 0.807322 0.120000
30.334295 7.724352 2.603663 0.250000
11.033392 1.253461 1.194214 0.500000
31.484571 0.430515 2.464551 0.010000
12.995676 -1.209760 1.290180 0.060000
11.311551 -3.607108 1.186872 0.220000
10.843070 3.758980 0.188020 0.090000
10.946250 1.245512 0.178946 0.270000
11.292114 0.161999 0.160821 0.030000
10.953738 -0.969681 0.155731 0.030000
10.569290 -2.047271 0.160722 0.020000
10.205657 -3.164396 0.145620 0.020000
9.616478 -4.255854 0.135024 0.050000
4.561114 1.059710 1.111598 0.100000
11.070195 1.270227 2.269383 0.360000
39.885712 0.533095 7.486914 0.050000
42.003811 -4.613478 7.808314 0.160000
11.269092 -3.642199 2.351642 0.040000
4.745604 1.129337 0.817336 0.130000
30.319107 7.718657 2.713604 0.280000
11.023303 1.253139 1.229187 0.530000
31.503815 0.455503 2.569695 0.010000
12.965302 -1.195468 1.325155 0.080000
11.291080 -3.587625 1.221891 0.280000
20.104204 -10.282406 1.870016 0.000000
11.579780 2.632890 0.185757 0.030000
10.990602 1.276275 0.204177 0.390000
11.359224 -0.991938 0.161707 0.020000
10.905377 -2.100844 0.161400 0.020000
10.507312 -3.248652 0.151094 0.020000
9.934294 -4.399793 0.135319 0.050000
4.560813 1.074689 1.116653 0.080000
11.069472 1.305146 2.289511 0.270000
38.643681 0.649915 7.324104 0.040000
42.401566 -4.511337 7.944734 0.180000
43.757637 -10.347773 8.301581 0.000000
11.308554 -3.616512 2.371841 0.050000
4.710598 1.128649 0.822242 0.110000
30.291748 7.838062 2.738976 0.120000
11.022619 1.288114 1.234315 0.380000
31.561644 0.566556 2.590259 0.000000
12.959441 -1.150572 1.325306 0.050000
11.270042 -3.533000 1.217039 0.300000
34.493870 -18.356859 2.862571 0.010000
11.193967 3.975720 0.194742 0.090000
11.464610 2.640686 0.185486 0.030000
11.044851 1.317358 0.194471 0.430000
11.615999 0.223213 0.161894 0.030000
11.223304 -0.944514 0.156528 0.030000
10.769061 -2.033442 0.161295 0.020000
10.390718 -3.165852 0.146097 0.020000
9.766642 -4.262980 0.135390 0.050000
4.565525 1.089782 1.116722 0.050000
11.163580 1.351938 2.294931 0.470000
38.860901 0.799157 7.310225 0.050000
42.253281 -4.328815 7.855024 0.160000
43.779461 -10.172067 8.232290 0.010000
11.337916 -3.580888 2.357050 0.050000
11.268785 -5.207903 2.460822 0.000000
31.409830 0.668905 2.525243 0.010000
11.831438 -0.991817 1.232951 0.040000
17.893822 -3.722607 1.623628 0.000000
34.470528 -18.171997 2.788197 0.010000
10.900568 3.890104 0.188658 0.080000
11.230159 2.611227 0.174764 0.030000
11.094140 1.358401 0.169752 0.360000
11.360390 0.253341 0.156339 0.020000
10.932017 -0.880081 0.156007 0.030000
10.517301 -1.943230 0.155973 0.020000
10.143190 -3.035551 0.140936 0.030000
9.523251 -4.087592 0.130406 0.060000
4.560456 1.094722 1.106727 0.040000
38.728897 0.917034 7.205318 0.030000
44.554832 -4.430873 8.165655 0.060000
43.867081 -10.035053 8.148027 0.010000
11.347296 -3.545629 2.337205 0.030000
11.313350 -5.181972 2.441035 0.010000
4.611052 1.106812 0.801901 0.070000
11.116147 1.370029 1.204863 0.170000
31.458061 0.770067 2.465744 0.000000
11.800825 -0.957324 1.212999 0.090000
17.079227 -3.477835 1.532411 0.000000
10.622262 3.799777 0.182596 0.090000
10.861474 2.539154 0.173534 0.030000
11.054980 0.272514 0.150613 0.030000
10.696020 -0.829574 0.150579 0.030000
10.305724 -1.862249 0.150722 0.020000
9.971319 -2.938807 0.135847 0.020000
9.350709 -3.955854 0.125446 0.060000
4.659345 1.151571 1.122196 0.090000
50.444099 14.229420 9.830412 0.120000
39.451180 1.060764 7.242738 0.030000
42.539021 -4.082749 7.706683 0.230000
43.924675 -9.893521 8.038703 0.020000
4.754574 1.184556 0.807564 0.080000
11.130526 1.405384 1.185032 0.160000
31.466242 0.875517 2.391157 0.000000
11.785222 -0.922525 1.188087 0.120000
18.328789 -3.709073 1.569813 0.000000
13.443853 -4.241713 1.280079 0.050000
13.578094 -6.294670 1.317799 0.010000
10.244741 3.667542 0.176119 0.090000
10.527699 2.472768 0.167416 0.040000
10.794563 0.292548 0.145008 0.020000
10.445026 -0.779353 0.145111 0.020000
10.064154 -1.781843 0.145390 0.020000
9.728982 -2.818409 0.130661 0.030000
9.087308 -3.780868 0.125409 0.060000
4.674055 1.166855 1.122291 0.080000
50.361279 14.393321 9.705804 0.070000
39.598915 1.188836 7.183599 0.030000
42.937218 -3.979976 7.673104 0.260000
43.977062 -9.742106 7.934402 0.020000
11.360999 -3.470151 2.282521 0.020000
44.662472 -23.719933 8.834240 0.020000
4.789102 1.210240 0.802750 0.090000
13.224670 3.275271 1.347451 0.010000
11.159902 1.441027 1.165241 0.150000
13.260342 0.380718 1.261783 0.000000
11.799710 -0.892151 1.163238 0.120000
13.371008 -2.522658 1.246279 0.010000
13.566846 -6.224744 1.283029 0.030000
9.916828 3.556260 0.169849 0.090000
10.218728 2.416859 0.161401 0.030000
10.354618 1.329306 0.147713 0.080000
10.449162 0.310955 0.139174 0.030000
10.148849 -0.719997 0.139558 0.030000
9.852673 -1.705862 0.140120 0.020000
9.491739 -2.702914 0.125471 0.020000
8.864284 -3.625112 0.125406 0.060000
4.683778 1.182063 1.117373 0.080000
11.196291 1.482881 2.215502 0.130000
39.172234 1.296307 7.012883 0.030000
42.919907 -3.844899 7.568560 0.130000
44.054886 -9.615264 7.845075 0.010000
11.229430 -3.382473 2.232503 0.040000
44.774784 -23.562332 8.720118 0.070000
4.793827 1.225351 0.797818 0.140000
13.179183 3.304515 1.317441 0.030000
13.234755 0.415344 1.231845 0.000000
11.814184 -0.861795 1.143388 0.130000
13.375305 -2.482476 1.221439 0.010000
13.570966 -6.174547 1.253226 0.030000
9.579000 3.439770 0.168534 0.080000
9.924754 2.361237 0.155427 0.040000
10.099775 1.319442 0.142011 0.070000
10.133838 0.324919 0.138403 0.030000
9.958035 -0.678626 0.134214 0.030000
9.606007 -1.620552 0.134793 0.030000
9.269482 -2.587150 0.125322 0.030000
8.666554 -3.483855 0.120414 0.060000
4.688503 1.197174 1.112442 0.080000
11.250553 1.523982 2.200797 0.170000
41.252838 1.510275 7.269112 0.030000
42.191250 -3.627954 7.332462 0.110000
11.284088 -3.361349 2.212724 0.050000
44.760410 -23.311977 8.561009 0.080000
4.788662 1.235291 0.787842 0.110000
16.360182 4.305063 1.479465 0.050000
31.366291 1.164479 2.166968 0.040000
11.833575 -0.826325 1.118570 0.090000
13.364524 -2.437565 1.191578 0.020000
13.519367 -6.085354 1.208422 0.020000
9.645778 2.305903 0.149493 0.040000
9.790216 1.293509 0.141107 0.070000
9.893513 0.340337 0.132833 0.030000
9.687045 -0.628788 0.128692 0.030000
9.379529 -1.544858 0.129484 0.020000
8.966759 -2.447923 0.125049 0.020000
8.372955 -3.299464 0.125334 0.060000
4.727934 1.227953 1.107659 0.060000
11.235046 1.553782 2.175867 0.430000
39.797108 1.583692 6.915582 0.030000
42.634460 -3.524282 7.289004 0.050000
11.293399 -3.321053 2.182898 0.030000
44.892578 -23.143921 8.426977 0.070000
4.823093 1.265974 0.783045 0.120000
16.334249 4.359741 1.434600 0.100000
31.339493 1.269278 2.087286 0.020000
11.873058 -0.795472 1.093788 0.090000
13.378845 -2.397155 1.156765 0.010000
13.450454 -4.046075 1.150822 0.010000
4.898227 1.308704 0.433397 0.010000
9.346888 2.245168 0.148487 0.040000
9.480561 1.272575 0.140221 0.080000
9.633095 0.360371 0.127228 0.030000
9.451048 -0.578281 0.123263 0.020000
9.112854 -1.459950 0.129103 0.030000
8.709412 -2.327830 0.124824 0.030000
8.180225 -3.158112 0.120356 0.070000
4.737658 1.243160 1.102741 0.100000
47.958385 14.395841 8.734530 0.020000
40.154228 1.745780 6.857116 0.030000
51.418671 -4.100828 8.584804 0.050000
45.090073 -22.994673 8.308046 0.060000
4.847636 1.291485 0.773204 0.140000
31.327429 1.389398 1.997701 0.040000
11.912458 -0.759601 1.064024 0.070000
15.488549 -4.717344 1.203648 0.010000
13.547450 -5.974522 1.133907 0.020000
4.932684 1.339424 0.418601 0.020000
9.008210 2.173688 0.142337 0.040000
9.146021 1.246181 0.134249 0.080000
9.327768 0.374526 0.126483 0.030000
9.124959 -0.524517 0.122612 0.030000
8.826087 -1.370427 0.128687 0.030000
8.472169 -2.212335 0.119634 0.030000
7.962405 -3.012239 0.115330 0.070000
4.757188 1.268557 1.097886 0.160000
42.098179 -3.153223 6.943980 0.070000
44.237228 -22.284634 7.968456 0.090000
4.842472 1.301425 0.763228 0.120000
16.093418 4.415524 1.329178 0.100000
15.203408 2.333459 1.224114 0.010000
31.300491 1.504269 1.898056 0.040000
11.765601 -1.962461 1.014169 0.010000
13.448555 -3.935799 1.071227 0.000000
4.897717 1.338791 0.408507 0.050000
8.674518 2.102284 0.141201 0.040000
8.846364 1.225439 0.133390 0.080000
8.957455 0.387437 0.125565 0.030000
8.884059 -0.479104 0.117152 0.030000
8.544415 -1.285806 0.128267 0.030000
8.250007 -2.101570 0.119466 0.030000
7.840537 -2.914519 0.105375 0.070000
4.732123 1.273115 1.087838 0.180000
46.152603 14.243448 8.124245 0.080000
42.125160 -2.977198 6.814703 0.050000
44.151703 -21.970520 7.779399 0.080000
4.866918 1.331935 0.753405 0.090000
15.809011 4.390292 1.268341 0.050000
15.057978 2.360843 1.178835 0.010000
13.236077 0.631030 1.062648 0.010000
11.779910 -1.922070 0.984356 0.050000
15.481129 -4.577095 1.104149 0.010000
13.539921 -5.829292 1.039426 0.020000
4.902359 1.358920 0.398594 1.000000
8.370629 2.041454 0.140182 0.040000
8.541804 1.199601 0.132499 0.080000
8.687135 0.402281 0.119914 0.030000
8.557970 -0.425339 0.116500 0.030000
8.327949 -1.209902 0.117984 0.030000
7.997672 -1.981363 0.114254 0.030000
7.622703 -2.768665 0.105348 0.060000
4.756665 1.298626 1.077996 0.140000
44.638435 13.980869 7.719312 0.090000
40.645245 -2.684169 6.451926 0.080000
44.292809 -21.742153 7.610614 0.080000
4.876559 1.352160 0.743505 0.120000
13.124305 3.589321 1.098354 0.070000
31.256147 1.759216 1.693886 0.030000
12.696358 -0.684300 0.991349 0.040000
11.713878 -1.863178 0.944402 0.090000
15.565477 -4.535289 1.054524 0.020000
13.533506 -5.749236 0.994706 0.020000
4.842588 1.347810 0.388396 0.140000
8.106637 1.986388 0.139288 0.040000
8.297054 1.184930 0.126805 0.070000
8.401901 0.411820 0.119205 0.030000
8.297061 -0.380328 0.115987 0.030000
8.031170 -1.120588 0.122541 0.030000
7.805791 -1.885021 0.114111 0.030000
7.440355 -2.647118 0.100324 0.080000
4.731600 1.303183 1.067948 0.170000
46.402870 14.794402 7.836943 0.060000
49.466595 -3.089404 7.593457 0.060000
39.999283 -12.813238 6.387586 0.010000
43.601028 -21.089113 7.291233 0.100000
15.364134 4.397232 1.142204 0.090000
13.247184 2.146713 1.013311 0.010000
12.660415 -0.629832 0.951457 0.070000
11.738102 -1.817577 0.909634 0.300000
13.460347 -3.750063 0.941947 0.040000
4.837327 1.362749 0.378438 0.160000
7.867461 1.941818 0.133498 0.050000
8.032392 1.164858 0.126040 0.060000
8.126569 0.426549 0.118541 0.030000
8.021058 -0.330605 0.115451 0.040000
7.844877 -1.054126 0.117302 0.030000
7.629112 -1.798371 0.108972 0.040000
7.252802 -2.515687 0.100323 0.080000
4.746144 1.328503 1.058080 0.120000
45.012691 14.584170 7.442528 0.070000
40.867737 7.626950 6.480837 0.070000
51.986835 3.403928 7.919177 0.010000
49.577515 -2.851615 7.424629 0.120000
11.690208 -1.817436 1.984521 0.000000
39.975132 -12.573035 6.218414 0.020000
43.575817 -20.788792 7.087281 0.110000
31.296253 2.045842 1.475054 0.020000
12.674654 -0.584405 0.911663 0.060000
11.601808 -1.745010 0.864548 0.190000
13.464314 -3.689812 0.897180 1.000000
13.561079 -5.608316 0.895301 0.020000
4.807263 1.367210 0.368376 0.180000
7.822636 1.150856 0.120440 0.060000
7.881328 0.436854 0.117939 0.030000
7.805332 -0.294731 0.115021 0.030000
7.683866 -1.002182 0.112074 0.030000
7.437340 -1.707009 0.103811 0.040000
7.095641 -2.403658 0.095329 0.100000
4.775577 1.359090 1.053270 0.110000
45.669044 15.052098 7.370980 0.060000
41.213058 7.888995 6.377711 0.060000
51.408627 3.603880 7.648408 0.020000
51.670330 -2.731879 7.530538 0.090000
11.659182 -1.757855 1.939661 0.020000
39.921192 -12.343386 6.044125 0.020000
43.661602 -20.541409 6.898423 0.100000
5.008538 0.994771 0.702521 0.010000
13.230301 2.256721 0.928675 0.000000
30.634787 2.133647 1.348652 0.000000
12.598637 -0.525685 0.866682 0.090000
11.560757 -1.685657 0.829661 0.310000
13.432917 -3.610216 0.847394 0.050000
13.489032 -5.494474 0.840536 0.010000
4.802016 1.382167 0.353418 0.170000
