# This PCD file was generated using the MATLAB® pcwrite function
# from Computer Vision Toolbox®.
# .PCD v.7 - Point Cloud Data file format
VERSION .7
FIELDS x y z intensity
SIZE 4 4 4 4
TYPE F F F F
COUNT 1 1 1 1
WIDTH 1284
HEIGHT 1
VIEWPOINT 0 0 0 1 0 0 0
POINTS 1284
DATA ascii
5.329889 -0.292065 0.088569 0.090000
5.222575 -0.694192 0.086794 0.040000
5.080389 -1.101950 0.074907 0.110000
28.894684 17.047457 2.899566 0.090000
29.581266 12.295317 2.733691 0.080000
5.541780 0.549373 0.847258 0.120000
31.382113 0.808344 2.540689 0.240000
11.820769 -0.957016 1.233052 0.140000
17.952278 -3.641473 1.624082 0.000000
33.406651 -11.955688 2.648527 0.170000
9.924630 4.971550 0.205131 0.050000
10.810777 3.878382 0.188380 0.050000
11.244089 2.666485 0.180006 0.010000
5.627616 0.562486 0.447527 0.150000
11.544876 0.281880 0.156927 0.020000
11.141787 -0.866061 0.156607 0.050000
10.567030 -1.927238 0.146162 0.040000
10.052454 -2.997264 0.135841 0.060000
4.776445 1.707652 0.104559 0.020000
4.979265 1.301464 0.103578 0.020000
5.102087 0.893726 0.107383 0.080000
5.234466 0.511231 0.096307 0.010000
5.252129 0.111498 0.094867 0.020000
5.167311 -0.680229 0.081702 0.040000
5.019921 -1.078104 0.074838 0.120000
28.899790 17.057978 2.784617 0.070000
29.571459 12.300532 2.623684 0.070000
5.536820 0.549333 0.832245 0.110000
31.397287 0.814021 2.435749 0.250000
11.825859 -0.956790 1.198066 0.120000
17.098509 -3.437385 1.512611 0.000000
13.490230 -4.315911 1.299925 0.010000
9.529329 4.723972 0.193178 0.050000
10.354529 3.679646 0.176450 0.050000
10.706899 2.516207 0.168045 0.010000
5.627656 0.562542 0.432527 0.150000
11.054980 0.272514 0.150613 0.020000
10.710921 -0.824287 0.150638 0.040000
10.205399 -1.844113 0.135527 0.040000
9.709861 -2.863765 0.125443 0.050000
4.722044 1.676623 0.099301 0.020000
4.909853 1.270130 0.103280 0.020000
5.032483 0.872389 0.107122 0.040000
5.179572 0.505178 0.096141 0.010000
5.167131 0.109852 0.099639 0.020000
5.159524 -0.275344 0.093187 0.020000
5.107131 -0.671380 0.081578 0.040000
4.969656 -1.064046 0.069759 0.120000
28.900391 17.043427 2.664563 0.040000
29.611738 12.301707 2.513792 0.030000
13.210466 3.235029 1.337264 0.010000
5.551843 0.549657 0.822285 0.110000
13.241591 0.315347 1.261491 0.100000
11.806064 -0.962023 1.157995 0.140000
17.063768 -3.442831 1.452500 0.000000
13.490539 -4.325742 1.254889 0.050000
9.109595 4.445902 0.186049 0.050000
9.948164 3.486848 0.169673 0.050000
10.289386 2.383206 0.161461 0.010000
5.617779 0.557388 0.422482 0.150000
10.630374 0.249415 0.139419 0.020000
10.295246 -0.792224 0.144672 0.050000
9.889238 -1.785120 0.124921 0.040000
9.347450 -2.740665 0.119954 0.060000
4.697444 1.656166 0.094161 0.020000
4.845535 1.233891 0.102978 0.010000
4.992791 0.856645 0.101960 0.040000
5.124870 0.489128 0.095938 0.010000
5.107334 0.098705 0.099441 0.020000
5.094537 -0.276588 0.093013 0.020000
5.041951 -0.662627 0.081440 0.050000
4.924473 -1.054910 0.069675 0.120000
13.059378 4.857458 1.332901 0.010000
13.131543 3.183655 1.296867 0.030000
5.552061 0.539696 0.812249 0.120000
13.242244 0.285464 1.231382 0.140000
11.821688 -0.991656 1.137925 0.090000
13.403092 -2.626951 1.215975 0.000000
11.335318 -3.531346 1.107214 0.070000
8.887908 4.271644 0.179823 0.050000
9.646191 3.326036 0.168287 0.050000
10.016462 2.272978 0.155338 0.010000
5.642897 0.552905 0.412531 0.170000
10.336003 0.213771 0.138518 0.020000
10.095405 -0.801016 0.134117 0.050000
9.648612 -1.754723 0.124406 0.040000
9.166635 -2.699103 0.114637 0.060000
4.663108 1.620484 0.098939 0.020000
4.820923 1.213416 0.102837 0.010000
4.958276 0.830979 0.101774 0.030000
5.085165 0.473365 0.095776 0.010000
5.097541 0.088534 0.094378 0.020000
5.069733 -0.287065 0.092909 0.020000
5.022050 -0.668009 0.081368 0.050000
4.889480 -1.055580 0.069581 0.100000
13.001913 6.806555 1.379997 0.000000
13.065387 4.807638 1.312731 0.020000
13.107655 3.128261 1.276598 0.030000
5.557265 0.529813 0.807226 0.140000
13.243050 0.245528 1.216235 0.070000
13.388996 -2.672174 1.200770 0.010000
11.280833 -3.557357 1.096975 0.240000
8.799746 4.174939 0.179233 0.050000
9.522939 3.233660 0.167622 0.050000
9.897635 2.210691 0.154797 0.010000
5.643197 0.537927 0.407476 0.160000
10.226599 0.181670 0.138113 0.020000
9.975702 -0.818330 0.138741 0.060000
9.558821 -1.766445 0.124128 0.040000
9.071544 -2.695941 0.119401 0.060000
4.653589 1.595297 0.098820 0.020000
4.831113 1.203610 0.102828 0.010000
4.958468 0.820981 0.101738 0.030000
5.095355 0.463558 0.095766 0.010000
5.067725 0.077942 0.099261 0.020000
5.069924 -0.297063 0.092872 0.020000
5.017243 -0.678103 0.081318 0.050000
4.889671 -1.065578 0.069545 0.100000
13.003171 6.741586 1.374758 0.000000
13.056552 4.747476 1.307484 0.030000
13.113625 3.078384 1.271428 0.040000
5.557552 0.514816 0.807171 0.130000
16.363007 0.254695 1.384415 0.130000
12.975679 -1.194737 1.180183 0.120000
11.216242 -3.578580 1.091728 0.390000
8.805415 4.140041 0.179118 0.050000
9.538619 3.198972 0.162533 0.050000
9.903304 2.175794 0.154682 0.020000
10.237267 0.146868 0.138011 0.020000
9.986383 -0.853114 0.133639 0.040000
9.564490 -1.801343 0.124013 0.040000
9.047123 -2.726414 0.119223 0.060000
4.658780 1.585395 0.098797 0.020000
4.826402 1.188517 0.102759 0.010000
4.973657 0.811270 0.101741 0.030000
5.095642 0.448561 0.095711 0.010000
5.068013 0.062945 0.099206 0.020000
5.055119 -0.307349 0.092795 0.020000
5.007533 -0.693292 0.081236 0.040000
4.864759 -1.071074 0.074459 0.120000
12.994623 6.666428 1.369457 0.000000
13.052715 4.687410 1.302251 0.030000
13.129484 3.033680 1.271304 0.040000
5.547841 0.499627 0.807089 0.100000
16.344160 0.194323 1.384141 0.270000
12.991526 -1.239460 1.185058 0.130000
13.411005 -2.776772 1.200438 0.010000
11.252385 -3.637898 1.091602 0.260000
8.885413 4.141592 0.174333 0.060000
9.648516 3.206096 0.157847 0.050000
9.998587 2.162635 0.149882 0.020000
10.287833 0.117831 0.138035 0.020000
10.032142 -0.892244 0.133613 0.060000
9.575159 -1.836145 0.123911 0.040000
9.093182 -2.780524 0.114143 0.060000
4.688787 1.585988 0.093877 0.020000
4.851492 1.183997 0.102808 0.010000
4.988858 0.801578 0.096745 0.040000
5.085835 0.438371 0.095648 0.010000
5.103210 0.053636 0.094263 0.020000
5.100507 -0.326465 0.087843 0.020000
5.027829 -0.707887 0.076235 0.040000
4.875154 -1.090860 0.069413 0.130000
15.956529 8.392706 1.588608 0.000000
13.073644 4.637766 1.312121 0.030000
13.120526 2.978481 1.276075 0.040000
5.528228 0.479248 0.806962 0.090000
13.225627 0.110152 1.220686 0.140000
13.017467 -1.288990 1.189942 0.140000
11.313688 -3.706773 1.101506 0.300000
9.019622 4.184170 0.174841 0.060000
9.768302 3.218393 0.158205 0.060000
10.123550 2.165010 0.155217 0.020000
10.423491 0.085442 0.133269 0.020000
10.132985 -0.935320 0.133716 0.060000
9.691383 -1.898930 0.123981 0.040000
9.179507 -2.848882 0.114114 0.070000
4.713783 1.586467 0.093944 0.020000
4.856779 1.169095 0.102766 0.010000
5.008937 0.796944 0.101780 0.040000
5.111022 0.428852 0.095678 0.010000
5.113400 0.043829 0.094253 0.020000
5.110696 -0.336271 0.087833 0.020000
5.043210 -0.727596 0.076202 0.050000
4.895533 -1.110474 0.069393 0.120000
16.017328 8.348789 1.608603 0.000000
13.111351 2.933242 1.290883 0.040000
5.503520 0.463772 0.806840 0.070000
13.256445 0.065679 1.235602 0.240000
13.023289 -1.333942 1.204790 0.110000
11.269150 -3.732667 1.111293 0.150000
9.183537 4.242319 0.175485 0.060000
9.937682 3.251624 0.163771 0.060000
10.263524 2.167691 0.155592 0.020000
10.554125 0.052920 0.138489 0.020000
10.258907 -0.982936 0.138868 0.060000
9.792514 -1.957003 0.124029 0.040000
9.291115 -2.931760 0.114097 0.070000
4.733875 1.581851 0.093980 0.020000
4.906687 1.175070 0.097919 0.010000
5.029125 0.787328 0.101797 0.040000
5.166121 0.424925 0.090807 0.010000
5.133684 0.029215 0.094252 0.030000
5.125981 -0.350981 0.087818 0.020000
5.053482 -0.742420 0.081174 0.050000
4.900819 -1.125375 0.069352 0.130000
16.162415 8.341456 1.638955 0.000000
30.376122 7.395810 2.407549 0.210000
5.488798 0.448469 0.811745 0.050000
13.227178 0.025056 1.250374 0.220000
13.494117 -2.945393 1.250029 0.000000
11.179319 -3.744444 1.126015 0.370000
9.421767 4.336898 0.176459 0.060000
10.136974 3.290448 0.164435 0.060000
10.498096 2.192188 0.156295 0.020000
10.743679 1.121739 0.142957 0.010000
10.769852 0.017045 0.138919 0.020000
10.424930 -1.034765 0.139109 0.050000
9.938911 -2.029231 0.129143 0.050000
9.432992 -3.029078 0.119106 0.070000
4.763856 1.582407 0.099060 0.020000
4.921767 1.170340 0.102940 0.010000
5.069214 0.783095 0.101886 0.030000
5.186405 0.410311 0.090806 0.010000
5.173868 0.019983 0.094322 0.020000
5.161358 -0.370307 0.087839 0.020000
5.093966 -0.766631 0.076189 0.040000
4.951576 -1.164410 0.069339 0.130000
16.262674 8.323227 1.679149 0.000000
30.413092 7.286315 2.457239 0.270000
5.279521 0.409472 0.806053 0.040000
13.040002 -1.428785 1.244481 0.060000
13.434759 -2.981591 1.264740 0.020000
11.195414 -3.804220 1.145835 0.270000
9.580957 4.379937 0.182034 0.070000
10.405679 3.360606 0.165398 0.060000
10.737656 2.216762 0.162012 0.020000
10.889022 1.104501 0.148272 0.010000
10.985469 -0.013850 0.144367 0.020000
10.601130 -1.096420 0.144339 0.060000
10.110508 -2.110959 0.129287 0.050000
9.569774 -3.121493 0.124119 0.080000
4.783948 1.577791 0.099095 0.030000
4.961760 1.171106 0.103048 0.010000
5.089306 0.778479 0.101921 0.030000
5.216482 0.405868 0.095868 0.010000
5.209149 0.005656 0.094361 0.030000
5.181628 -0.384940 0.092837 0.040000
5.134438 -0.790860 0.076205 0.040000
4.961958 -1.184215 0.069292 0.130000
29.101000 15.701849 2.710100 0.020000
30.430519 7.151405 2.516784 0.300000
5.294696 0.399743 0.811057 0.030000
13.251404 -1.504878 1.279751 0.090000
11.226602 -3.868708 1.165677 0.150000
9.898312 4.521039 0.183387 0.070000
10.654660 3.415366 0.171251 0.060000
11.027122 2.247311 0.162881 0.020000
11.089246 1.093297 0.158754 0.040000
10.911101 -0.050354 0.164037 0.030000
10.862505 -1.166445 0.149761 0.060000
10.332370 -2.206745 0.134510 0.050000
9.772324 -3.252637 0.124160 0.070000
4.838747 1.588842 0.099279 0.030000
5.001752 1.171872 0.103155 0.020000
5.149308 0.779647 0.097082 0.040000
5.241765 0.391349 0.095880 0.010000
5.239431 -0.008766 0.094386 0.020000
5.217018 -0.404247 0.087858 0.040000
5.159817 -0.810378 0.076199 0.040000
4.992431 -1.208635 0.069281 0.160000
29.123848 15.547094 2.754585 0.030000
30.447781 7.026531 2.566365 0.260000
5.270071 0.379249 0.815916 0.050000
12.629524 -0.106505 1.273326 0.100000
13.182049 -1.541268 1.294435 0.100000
11.328325 -3.961886 1.195597 0.230000
10.210940 4.647030 0.189672 0.080000
11.012856 3.512225 0.177546 0.060000
11.386275 2.294179 0.168993 0.020000
11.159851 1.059570 0.178813 0.070000
10.881808 -0.091013 0.188810 0.020000
11.139070 -1.246181 0.155187 0.050000
10.564422 -2.312338 0.139724 0.040000
10.000047 -3.393319 0.129232 0.070000
4.873740 1.589513 0.099373 0.030000
5.046743 1.172734 0.103276 0.010000
5.174481 0.770109 0.102112 0.050000
5.291851 0.387308 0.095996 0.010000
5.274699 -0.023112 0.099425 0.030000
5.252286 -0.418592 0.092897 0.050000
5.225488 -0.844107 0.071245 0.040000
5.007895 -1.233362 0.074230 0.150000
29.141811 15.382133 2.829020 0.050000
30.475098 6.896792 2.630955 0.100000
5.285234 0.369501 0.825920 0.050000
12.640415 -0.156397 1.298169 0.270000
13.117762 -1.582598 1.319113 0.120000
11.334312 -4.016872 1.220408 0.290000
10.617689 4.819833 0.196376 0.070000
11.406044 3.609754 0.183935 0.060000
11.760522 2.336336 0.175127 0.020000
11.135666 1.014025 0.198580 0.100000
11.495823 -1.334364 0.155790 0.060000
10.856845 -2.436778 0.145024 0.040000
10.278336 -3.563038 0.134327 0.070000
4.923539 1.600468 0.099544 0.040000
5.091735 1.173596 0.103396 0.020000
5.244482 0.771468 0.097300 0.060000
5.337130 0.373172 0.096061 0.010000
5.319991 -0.037228 0.094491 0.030000
5.317862 -0.447323 0.087961 0.050000
5.240856 -0.863835 0.076211 0.040000
5.053665 -1.272474 0.069204 0.130000
29.194851 15.212827 2.908530 0.110000
30.492569 6.756809 2.710481 0.050000
5.285508 0.354485 0.830865 0.070000
12.576224 -0.202726 1.322829 0.510000
12.938222 -1.611115 1.338539 0.070000
19.476969 -4.938089 1.783244 0.000000
11.044242 5.003016 0.203170 0.080000
11.868741 3.733619 0.190603 0.050000
12.229367 2.400308 0.181588 0.020000
11.151364 0.974227 0.223474 0.050000
12.359280 -0.202646 0.167251 0.020000
11.586987 -1.397721 0.180793 0.080000
11.245018 -2.599391 0.150433 0.040000
10.587002 -3.752178 0.139430 0.100000
4.953616 1.596025 0.104606 0.040000
5.166530 1.185030 0.103634 0.020000
5.349379 0.778497 0.092600 0.240000
5.402309 0.364419 0.096199 0.020000
5.395360 -0.055788 0.094619 0.040000
5.353225 -0.466668 0.092981 0.050000
5.286422 -0.892967 0.076222 0.040000
5.064116 -1.297315 0.079139 0.150000
29.217966 15.037909 2.997941 0.070000
30.475142 6.611156 2.789895 0.040000
5.285769 0.339451 0.840810 0.060000
12.592101 -0.252540 1.352686 0.740000
11.560008 -1.447243 1.270550 0.090000
19.272573 -4.977157 1.822566 0.000000
11.664047 5.279935 0.205817 0.080000
12.411039 3.879012 0.197560 0.060000
12.797906 2.481192 0.188373 0.020000
5.641190 0.372621 0.471857 0.030000
12.970590 -0.265967 0.173612 0.020000
11.592783 -1.442709 0.205641 0.130000
11.673374 -2.771235 0.155913 0.040000
10.618272 -3.821683 0.164254 0.170000
5.033122 1.622553 0.104912 0.050000
5.196702 1.175588 0.108678 0.020000
5.359638 0.763654 0.102572 0.090000
5.457491 0.355474 0.096310 0.030000
5.450637 -0.069732 0.094711 0.040000
5.428799 -0.495207 0.088072 0.050000
5.321977 -0.922310 0.081206 0.050000
5.145168 -1.350754 0.074152 0.150000
29.226070 14.862684 3.092311 0.030000
16.726967 5.471010 1.834760 0.010000
30.587255 6.487915 2.889730 0.030000
5.455672 0.342614 0.866265 0.090000
12.597966 -0.302565 1.387516 0.730000
11.520717 -1.488094 1.295296 0.150000
18.927355 -4.973896 1.856677 0.000000
13.067728 4.056583 0.209934 0.060000
13.575831 2.596093 0.195831 0.010000
5.576642 0.346325 0.486591 0.040000
13.807363 -0.349938 0.170484 0.020000
11.588663 -1.492907 0.235444 0.250000
12.207561 -2.986080 0.166508 0.040000
10.629341 -3.881592 0.194060 0.170000
5.078101 1.623396 0.110033 0.050000
5.296410 1.192519 0.104001 0.020000
5.399809 0.754404 0.107642 0.110000
5.537667 0.347008 0.096488 0.020000
5.505997 -0.088693 0.099785 0.050000
5.484255 -0.519168 0.093128 0.040000
5.392731 -0.960962 0.081247 0.040000
5.155632 -1.375576 0.079087 0.140000
29.288933 14.698456 3.201866 0.020000
16.812862 5.417444 1.889786 0.010000
30.594894 6.337705 2.979193 0.030000
5.470931 0.327867 0.876250 0.160000
12.573742 -0.348166 1.422283 0.820000
11.516489 -1.533311 1.330117 0.140000
12.918864 5.818952 0.241097 0.070000
13.967730 4.323812 0.228277 0.060000
14.523136 2.744225 0.208854 0.010000
5.596900 0.331673 0.496589 0.070000
12.667163 -0.362089 0.252463 0.020000
11.574437 -1.538316 0.270239 0.340000
12.792216 -3.224962 0.177147 0.040000
10.640507 -3.946499 0.223848 0.170000
5.162702 1.645020 0.110334 0.060000
5.341484 1.188363 0.109103 0.030000
5.504707 0.761432 0.102942 0.100000
5.592931 0.333046 0.101580 0.030000
5.591473 -0.112042 0.094922 0.060000
5.544818 -0.548013 0.093179 0.060000
5.428286 -0.990304 0.086231 0.060000
5.236767 -1.434032 0.079081 0.160000
55.027386 28.234467 5.859396 0.040000
29.962465 10.090706 3.141495 0.030000
30.587605 6.182171 3.078597 0.040000
5.451292 0.307451 0.886123 0.140000
12.619792 -0.407422 1.457183 0.750000
11.437192 -1.574947 1.359755 0.150000
17.331329 -4.674409 1.853624 0.000000
51.280678 -23.258251 4.803190 0.060000
15.131257 4.671120 0.242605 0.060000
5.567249 0.311047 0.511435 0.200000
12.647924 -0.407612 0.292244 0.040000
11.565114 -1.578630 0.305065 0.310000
11.236994 -4.280153 0.229165 0.100000
5.242303 1.666548 0.110622 0.070000
5.441082 1.210275 0.109445 0.030000
5.554876 0.752373 0.108039 0.110000
5.678107 0.324676 0.101771 0.030000
5.666829 -0.130621 0.100049 0.060000
5.625379 -0.576475 0.093284 0.060000
5.499039 -1.028956 0.086272 0.070000
5.287620 -1.478066 0.079050 0.130000
57.212059 28.994864 6.297929 0.030000
44.733627 15.184162 4.654001 0.070000
42.386600 8.534376 4.258152 0.050000
5.501435 0.298354 0.901220 0.230000
12.670732 -0.461603 1.497115 0.450000
11.478051 -1.624302 1.394679 0.130000
17.594233 -4.834696 1.933715 0.000000
51.392223 -23.626915 5.002112 0.110000
13.065245 5.736429 0.326173 0.050000
17.099895 5.283967 0.240022 0.050000
15.586439 2.834385 0.271966 0.010000
5.557512 0.295821 0.521353 0.200000
13.009324 -0.480795 0.317916 0.050000
11.596180 -1.638155 0.334925 0.250000
14.671199 -3.939157 0.194397 0.030000
11.268417 -4.359712 0.268952 0.380000
5.321905 1.688076 0.110910 0.070000
5.520958 1.216787 0.114677 0.030000
5.664760 0.759479 0.108353 0.110000
5.757291 -0.153892 0.100199 0.060000
5.696023 -0.610146 0.098343 0.060000
5.549783 -1.068009 0.091259 0.070000
5.363660 -1.531619 0.079050 0.120000
57.218616 28.619043 6.536552 0.040000
44.072372 14.706010 4.760499 0.050000
42.489807 8.345733 4.417721 0.080000
5.511777 0.278494 0.916174 0.210000
11.468920 -1.674614 1.429469 0.170000
39.333431 -11.911884 3.949173 0.010000
51.726788 -24.156481 5.241020 0.080000
17.513762 7.952255 0.281022 0.040000
19.277580 5.945754 0.258167 0.040000
13.171460 2.272613 0.378575 0.010000
5.572758 0.281055 0.536339 0.110000
11.228991 -4.395620 0.308716 0.360000
5.436309 1.720273 0.111328 0.070000
5.625760 1.228815 0.109996 0.030000
5.555469 0.717268 0.137911 0.080000
5.778624 0.296541 0.116929 0.040000
5.827649 -0.172566 0.105313 0.060000
5.811781 -0.647918 0.093505 0.050000
5.635725 -1.116372 0.091304 0.070000
5.419691 -1.585574 0.083995 0.120000
45.937576 22.440458 5.514127 0.040000
45.363403 14.884704 5.054536 0.040000
42.543785 8.116139 4.577011 0.040000
5.586998 0.264859 0.936320 0.120000
11.454776 -1.725041 1.469244 0.190000
39.901211 -12.341857 4.159059 0.020000
45.353477 -21.381674 4.859694 0.070000
13.078034 5.576261 0.430612 0.080000
13.118168 3.741669 0.433897 0.060000
5.568116 0.260926 0.546252 0.210000
13.246467 -0.601568 0.398087 0.040000
18.010462 -5.175460 0.208517 0.030000
11.240321 -4.470563 0.348467 0.190000
5.525896 1.741974 0.116643 0.080000
5.725536 1.240709 0.115300 0.040000
5.530900 0.691720 0.157752 0.050000
5.709051 0.270112 0.141649 0.100000
5.933204 -0.200550 0.105485 0.070000
5.887424 -0.681493 0.098577 0.050000
5.721559 -1.159754 0.096366 0.070000
5.510919 -1.648838 0.083998 0.150000
54.196445 26.335228 6.665175 0.030000
44.244846 14.267934 5.114325 0.140000
43.279171 8.069335 4.818758 0.100000
5.547267 0.249058 0.946157 0.100000
11.440454 -1.765450 1.504057 0.180000
39.773911 -12.504873 4.308123 0.010000
51.885487 -24.940432 5.743525 0.060000
21.807116 9.894548 0.374449 0.060000
15.216155 4.386926 0.451772 0.040000
11.270127 1.785673 0.491803 0.010000
5.578362 0.246065 0.561223 0.140000
13.411557 -3.733905 0.371873 0.040000
5.640299 1.774171 0.117061 0.080000
5.840228 1.257909 0.115664 0.040000
5.576070 0.682565 0.162836 0.250000
5.684304 0.254580 0.156527 0.100000
6.033664 -0.223630 0.105661 0.050000
6.008264 -0.724186 0.098734 0.060000
5.827702 -1.217713 0.091428 0.060000
5.582043 -1.707505 0.088966 0.130000
45.794010 21.791256 5.876343 0.080000
44.363148 14.069449 5.308897 0.110000
42.510502 7.719222 4.905451 0.060000
11.938400 -0.621005 1.589612 0.130000
11.471398 -1.820014 1.543936 0.130000
41.055893 -13.161574 4.619031 0.000000
45.090832 -21.823231 5.252371 0.120000
13.100356 5.441298 0.530170 0.030000
13.125218 3.621434 0.528470 0.120000
11.236083 1.729865 0.531507 0.010000
5.598607 0.231395 0.576222 0.120000
14.795607 -0.812175 0.466348 0.010000
11.800363 -1.874818 0.479580 0.100000
11.766594 -3.240615 0.449414 0.040000
5.759702 1.806464 0.117493 0.090000
5.969820 1.280395 0.116085 0.040000
5.556405 0.662111 0.182709 0.200000
5.694551 0.239719 0.171499 0.060000
6.189223 -0.250637 0.100967 0.050000
6.104013 -0.762359 0.098842 0.050000
5.933736 -1.270692 0.091508 0.050000
5.693568 -1.785364 0.083968 0.100000
45.937557 21.578197 6.085927 0.070000
44.680035 13.944727 5.519263 0.040000
42.503822 7.523472 5.064708 0.100000
11.884072 -0.662199 1.629318 0.210000
40.249371 -13.102340 4.707147 0.010000
44.909119 -22.022425 5.436159 0.100000
26.617579 11.981477 0.549766 0.050000
11.221857 1.684456 0.566301 0.060000
5.623850 0.216821 0.591234 0.150000
12.122449 -0.683641 0.539849 0.020000
11.695648 -1.896993 0.524224 0.130000
11.696981 -3.267099 0.489134 0.100000
13.541595 -5.832042 0.434414 0.030000
5.908716 1.859327 0.118078 0.090000
6.124325 1.308377 0.111593 0.040000
6.324772 -0.278046 0.101219 0.050000
6.244945 -0.809669 0.099034 0.040000
6.044948 -1.333592 0.096564 0.050000
5.779881 -1.853742 0.088939 0.100000
47.328899 21.988487 6.481089 0.060000
45.264915 13.919971 5.780701 0.080000
50.747379 8.827565 6.186085 0.030000
11.829758 -0.703375 1.664023 0.380000
40.298134 -13.322068 4.876459 0.010000
45.510052 -22.627068 5.720482 0.050000
14.990655 6.212270 0.637971 0.060000
15.846168 4.368365 0.623350 0.030000
11.217533 1.644238 0.601141 0.130000
5.624112 0.201787 0.601179 0.180000
12.103127 -0.724147 0.574648 0.050000
11.711416 -1.941827 0.559099 0.220000
11.617180 -3.283777 0.528864 0.220000
6.062742 1.912304 0.113677 0.110000
6.288719 1.341531 0.112145 0.040000
6.449339 0.789528 0.105512 0.110000
6.574677 0.251852 0.098841 0.030000
6.500423 -0.309669 0.096559 0.050000
6.385877 -0.856978 0.099226 0.040000
6.171170 -1.396185 0.096661 0.060000
5.941971 -1.960638 0.083964 0.130000
44.014179 20.150578 6.220602 0.020000
44.741707 13.544462 5.892940 0.090000
42.739231 7.191566 5.434093 0.040000
11.840418 -0.743325 1.703903 0.430000
45.353008 -22.810841 5.919392 0.130000
14.981937 6.136869 0.697669 0.030000
13.128110 3.450946 0.667845 0.050000
11.173395 1.593237 0.640837 0.170000
12.043692 -0.760456 0.619359 0.080000
11.572659 -3.314782 0.568633 0.300000
13.538814 -5.962503 0.538923 0.020000
6.241654 1.970741 0.114361 0.100000
6.468015 1.379972 0.112756 0.040000
6.604214 0.797496 0.105946 0.100000
6.709927 0.239422 0.104148 0.040000
6.625962 -0.337288 0.101785 0.060000
6.551900 -0.908808 0.099467 0.030000
6.297392 -1.458779 0.096758 0.050000
6.063578 -2.043324 0.083975 0.120000
51.300529 23.376385 7.426625 0.050000
45.082962 13.450138 6.123483 0.090000
41.361881 6.780133 5.423968 0.070000
11.831081 -0.783657 1.743729 0.400000
45.332035 -23.052092 6.138442 0.100000
14.814591 5.988418 0.756681 0.030000
16.131651 4.328367 0.748948 0.050000
11.198860 1.563573 0.680793 0.150000
12.049257 -0.795503 0.659243 0.090000
11.467656 -3.321959 0.613333 0.200000
6.400666 2.023796 0.114974 0.120000
6.657322 1.418623 0.108394 0.040000
6.764075 0.805540 0.111393 0.120000
6.865185 0.227393 0.104508 0.040000
6.821705 -0.373527 0.097161 0.060000
6.682834 -0.956308 0.099632 0.040000
6.464003 -1.540584 0.091889 0.050000
6.205467 -2.140623 0.083983 0.100000
44.715477 20.022226 6.701960 0.080000
47.794704 14.095298 6.647964 0.050000
42.939041 6.894075 5.778512 0.100000
57.290104 2.312208 7.408957 0.060000
11.856739 -0.823320 1.783649 0.240000
45.473064 -15.782702 6.055832 0.000000
46.553650 -23.960232 6.513259 0.020000
14.800875 5.912922 0.816365 0.140000
13.124766 3.350497 0.767464 0.030000
11.244335 1.534310 0.715804 0.060000
14.865007 -1.076828 0.720548 0.450000
13.365637 -2.425708 0.691620 0.060000
11.392854 -3.338542 0.653077 0.250000
13.546029 -6.092773 0.643458 0.020000
6.579579 2.082233 0.115658 0.130000
6.806898 1.441473 0.113869 0.050000
6.963763 0.824386 0.106985 0.120000
7.045343 0.220842 0.104954 0.040000
6.952242 -0.401051 0.102399 0.060000
6.838858 -1.008330 0.099846 0.040000
6.620507 -1.617601 0.092011 0.060000
6.342263 -2.233020 0.083997 0.110000
44.362007 19.659916 6.829692 0.070000
45.615707 13.253784 6.539147 0.120000
5.630435 0.590290 1.062644 0.000000
57.203117 2.124739 7.618035 0.050000
11.867304 -0.858270 1.823547 0.170000
11.400686 -3.387654 1.812926 0.000000
46.310238 -24.070572 6.692215 0.050000
14.752286 5.831794 0.865937 0.080000
16.546356 4.330870 0.870041 0.070000
11.160135 1.487579 0.745410 0.070000
11.338060 -3.354722 0.687874 0.250000
13.582412 -6.172292 0.698258 0.030000
6.728580 2.135077 0.121243 0.130000
7.016092 1.485487 0.114579 0.050000
7.128624 0.832527 0.112445 0.130000
7.245593 0.209675 0.105435 0.040000
7.127867 -0.432711 0.107740 0.060000
6.954577 -1.046157 0.110007 0.050000
6.797103 -1.699233 0.092168 0.050000
6.458857 -2.315820 0.088993 0.100000
44.240978 19.426914 7.003511 0.090000
45.304958 13.007221 6.692421 0.080000
5.605701 0.574777 1.072522 0.030000
44.676113 -9.697165 6.151375 0.010000
11.376162 -3.418275 1.852749 0.010000
45.990788 -24.127361 6.871172 0.070000
14.768181 5.776869 0.925775 0.210000
16.701349 4.323598 0.935419 0.070000
11.095810 1.446193 0.785089 0.080000
11.855622 -0.884649 0.773408 0.100000
13.392026 -2.510548 0.781374 0.010000
11.293334 -3.375747 0.732679 0.320000
13.563039 -6.212872 0.753058 0.020000
6.976917 2.224868 0.117225 0.120000
7.210385 1.524215 0.115230 0.040000
7.343296 0.851642 0.113077 0.130000
7.440748 0.203412 0.105921 0.040000
7.323502 -0.463970 0.108134 0.060000
7.175986 -1.116910 0.105322 0.050000
6.953498 -1.771269 0.097309 0.060000
6.626029 -2.427638 0.089014 0.110000
44.164234 19.229713 7.192580 0.060000
45.665237 12.963251 6.928201 0.130000
5.635739 0.570278 1.092584 0.100000
44.123966 1.353809 6.301015 0.030000
44.577976 -9.819709 6.325665 0.020000
11.306288 -3.429726 1.882524 0.010000
46.019424 -24.347658 7.090430 0.030000
13.156503 3.240573 0.907139 0.030000
11.076297 1.415686 0.819925 0.070000
30.883530 0.913636 1.224765 0.010000
11.855996 -0.909792 0.813316 0.110000
13.382568 -2.545919 0.831219 0.070000
11.313993 -3.415505 0.772586 0.300000
13.594135 -6.277489 0.807899 0.030000
7.165623 2.293475 0.122973 0.120000
7.434481 1.573516 0.115998 0.040000
7.533056 0.865260 0.118623 0.110000
7.670992 0.192819 0.106483 0.040000
7.559333 -0.504442 0.103600 0.050000
7.372099 -1.173164 0.105625 0.050000
7.140188 -1.857709 0.097475 0.050000
6.793106 -2.534457 0.089053 0.100000
44.295578 19.131441 7.402560 0.090000
5.645890 0.560415 1.107574 1.000000
44.080845 1.232357 6.465453 0.030000
40.673687 -3.831847 5.907728 0.270000
44.514748 -9.936563 6.495067 0.020000
11.316935 -3.469694 1.927404 0.030000
17.105633 4.345850 1.071558 0.070000
11.086670 1.390733 0.859860 0.080000
30.889750 0.833301 1.344484 0.000000
11.831388 -0.935397 0.848157 0.100000
11.329569 -3.450342 0.807497 0.330000
13.569584 -6.308148 0.857722 0.020000
7.379229 2.367561 0.128806 0.130000
7.643661 1.617511 0.121708 0.040000
7.762725 0.884662 0.119294 0.120000
7.876132 0.186729 0.111996 0.030000
7.780045 -0.540240 0.109043 0.040000
7.623490 -1.243362 0.106020 0.040000
7.316771 -1.939360 0.102632 0.040000
6.985562 -2.660794 0.089086 0.090000
50.968449 22.000143 8.685655 0.080000
50.242664 14.037256 7.994153 0.080000
5.566275 0.538869 1.112286 0.290000
40.674809 1.038265 6.135837 0.070000
40.685200 -3.932213 6.062387 0.200000
44.456516 -10.053323 6.664483 0.010000
11.337484 -3.504471 1.972329 0.030000
13.074679 4.883856 1.033036 0.030000
17.285225 4.359035 1.142077 0.070000
5.776857 0.564318 0.727926 0.030000
13.252629 0.306749 0.936485 0.010000
11.846761 -0.960253 0.888105 0.080000
13.378497 -2.606319 0.915984 0.020000
11.340037 -3.480293 0.847414 0.260000
13.600597 -6.367748 0.907581 0.040000
7.602654 2.451855 0.129702 0.110000
7.902559 1.677480 0.122607 0.040000
7.977398 0.903777 0.119926 0.100000
8.101378 0.176041 0.112544 0.030000
7.975679 -0.571499 0.109437 0.040000
7.804593 -1.299922 0.111283 0.030000
7.523649 -2.035414 0.102815 0.040000
7.157721 -2.772534 0.094120 0.080000
50.985073 21.884634 8.905272 0.040000
50.244251 13.926534 8.193748 0.140000
5.501562 0.522608 1.117057 0.320000
40.701015 0.953165 6.295591 0.040000
41.620518 -9.471635 6.414240 0.010000
11.388220 -3.548672 2.017298 0.030000
42.904549 -23.097586 7.221948 0.020000
14.825349 5.632094 1.155388 0.090000
13.118183 3.134343 1.036646 0.050000
5.776927 0.559281 0.737908 0.050000
31.441536 0.713004 1.575480 0.040000
11.832055 -0.980667 0.922991 0.070000
13.414043 -2.640809 0.960949 0.100000
11.249771 -3.472149 0.882209 0.110000
7.900490 2.567579 0.130910 0.110000
8.096744 1.721188 0.128276 0.040000
8.281862 0.934613 0.120835 0.100000
8.381517 0.171405 0.113258 0.030000
8.191393 -0.607392 0.114867 0.040000
7.975698 -1.356674 0.116519 0.030000
7.700136 -2.112066 0.107991 0.040000
7.329879 -2.884275 0.099154 0.070000
43.770496 18.544596 7.859012 0.070000
50.300541 13.831861 8.393544 0.040000
5.541515 0.523318 1.132164 0.400000
43.435490 0.928495 6.857643 0.030000
45.611824 -4.636761 7.102638 0.150000
11.368515 -3.569182 2.052170 0.030000
42.740189 -23.156368 7.391302 0.020000
14.855582 5.612468 1.210395 0.070000
17.823418 4.438843 1.283780 0.020000
5.692300 0.537620 0.747606 0.040000
13.384219 -2.656548 1.005813 0.050000
11.234970 -3.487563 0.917113 0.250000
13.621866 -6.447722 1.007341 0.030000
8.168619 2.667732 0.131982 0.110000
8.360627 1.781234 0.134188 0.040000
8.531432 0.959397 0.121579 0.100000
8.646646 0.166463 0.118932 0.030000
8.442100 -0.642615 0.120390 0.040000
8.201983 -1.422370 0.121865 0.030000
7.916998 -2.207948 0.113201 0.030000
7.512049 -2.995806 0.099215 0.070000
42.012192 17.676281 7.711193 0.020000
5.506687 0.512613 1.142033 0.430000
43.206493 0.858694 6.966787 0.060000
43.478821 -4.476978 6.932662 0.140000
11.358796 -3.589518 2.092070 0.050000
42.514458 -23.141239 7.540771 0.020000
17.978027 4.451568 1.349231 0.030000
5.682359 0.532374 0.762561 0.060000
31.477968 0.607876 1.795186 0.010000
11.205076 -3.498266 0.951996 0.370000
13.637486 -6.487631 1.062234 0.010000
8.649327 1.851776 0.135204 0.040000
8.840799 0.995328 0.122520 0.080000
8.946782 0.162211 0.119700 0.030000
8.753013 -0.686650 0.116038 0.040000
8.488463 -1.496897 0.122336 0.030000
8.118781 -2.299100 0.113389 0.030000
7.709490 -3.122066 0.104261 0.060000
41.259827 17.266689 7.737707 0.080000
5.486856 0.502194 1.151943 0.340000
43.077629 0.780754 7.091162 0.030000
11.348993 -3.604837 2.126987 0.050000
42.329247 -23.150263 7.670255 0.030000
13.051431 4.767748 1.207545 0.030000
5.652530 0.521764 0.772444 0.060000
13.323718 0.227491 1.101377 0.010000
13.010263 -1.158702 1.080406 0.030000
11.215366 -3.518201 0.986949 0.310000
13.607566 -6.498371 1.107116 0.030000
8.699757 2.872904 0.144132 0.100000
8.962927 1.927795 0.136305 0.030000
9.100354 1.020285 0.128290 0.090000
9.246918 0.157958 0.120467 0.030000
9.053914 -0.730895 0.116659 0.030000
8.760041 -1.576710 0.122748 0.030000
8.381020 -2.414116 0.118646 0.030000
7.896838 -3.243517 0.109299 0.060000
41.518803 17.295958 7.928494 0.100000
5.486926 0.497158 1.161924 0.770000
40.514854 0.677626 6.819086 0.030000
42.854553 -4.549698 7.135765 0.070000
11.324099 -3.615444 2.161883 0.060000
42.204128 -23.168268 7.834863 0.030000
13.061585 4.752757 1.257517 0.020000
13.129271 3.053918 1.206378 0.020000
5.607704 0.510867 0.782287 0.090000
13.010459 -1.173829 1.115351 0.060000
11.205468 -3.528521 1.021885 0.180000
13.658397 -6.547571 1.152066 0.020000
9.514524 1.068244 0.124550 0.080000
9.587046 0.154472 0.121342 0.030000
9.379811 -0.774662 0.117347 0.030000
9.071708 -1.660755 0.123249 0.030000
8.673456 -2.538538 0.118947 0.030000
8.149748 -3.393719 0.114400 0.060000
41.425083 17.208633 8.067926 0.100000
5.501884 0.497390 1.176964 0.630000
40.420311 0.635350 6.943684 0.040000
42.339096 -4.539807 7.199457 0.120000
11.299121 -3.621033 2.191798 0.060000
11.371552 -5.330407 2.310634 0.010000
13.056865 4.732516 1.297429 0.030000
13.134452 3.038868 1.246336 0.030000
5.587860 0.500430 0.797196 0.110000
16.358330 0.244787 1.334365 0.010000
13.025723 -1.193706 1.160317 0.080000
13.405317 -2.736763 1.170572 0.010000
11.220744 -3.548378 1.061852 0.210000
9.374717 3.140841 0.156889 0.100000
9.669703 2.101325 0.148795 0.040000
9.917162 0.150775 0.127190 0.030000
9.670593 -0.814136 0.127960 0.030000
9.383362 -1.744820 0.128750 0.030000
9.021265 -2.681902 0.119321 0.030000
8.412861 -3.553708 0.114493 0.060000
41.460220 17.178698 8.232908 0.080000
5.506939 0.492431 1.191959 0.360000
40.320866 0.587978 7.068249 0.040000
42.094154 -4.559886 7.303744 0.280000
11.294209 -3.631276 2.231747 0.050000
11.306007 -5.306767 2.340551 0.000000
13.046941 4.722159 1.342366 0.030000
13.124541 3.028530 1.286272 0.050000
5.557935 0.494819 0.807097 0.100000
16.358391 0.234603 1.384328 0.020000
13.005731 -1.199218 1.195245 0.090000
13.395298 -2.742121 1.215526 0.010000
11.230938 -3.563314 1.096823 0.180000
11.267475 -5.213016 1.120786 0.010000
10.062795 2.203853 0.155202 0.030000
10.138205 1.140128 0.146445 0.040000
10.302160 0.153112 0.138204 0.030000
10.056658 -0.866770 0.133772 0.030000
9.715107 -1.833501 0.134287 0.030000
9.348970 -2.820669 0.124661 0.030000
8.766915 -3.761964 0.114643 0.060000
43.596920 18.072649 8.821815 0.070000
40.371025 0.558365 7.223271 0.070000
42.239723 -4.612750 7.478929 0.230000
11.279229 -3.636674 2.261688 0.040000
30.294790 7.719145 2.453539 0.060000
5.538009 0.489400 0.817025 0.070000
13.264187 0.180774 1.256050 0.020000
13.015816 -1.209173 1.235234 0.100000
13.415477 -2.756884 1.255525 0.030000
11.276413 -3.592577 1.131833 0.180000
13.623587 -6.578794 1.301861 0.010000
10.213210 3.486924 0.170365 0.090000
10.662258 0.149971 0.149132 0.030000
10.382434 -0.905575 0.144478 0.030000
10.031651 -1.912489 0.144819 0.030000
9.676579 -2.954437 0.130019 0.030000
9.090674 -3.955816 0.119767 0.060000
43.874229 18.182100 9.062948 0.080000
5.377347 0.469945 1.191537 0.230000
40.315887 0.546831 7.353086 0.070000
42.204533 -4.623976 7.628797 0.240000
11.264141 -3.637091 2.296648 0.040000
30.324497 7.719310 2.563619 0.190000
5.542982 0.489459 0.827038 0.040000
13.005713 -1.209513 1.275207 0.060000
11.291402 -3.597437 1.171855 0.210000
10.649652 3.675279 0.182204 0.080000
10.933473 2.435514 0.173337 0.030000
5.718501 0.519274 0.432603 0.020000
11.107162 0.158475 0.155325 0.030000
10.778387 -0.953036 0.155335 0.030000
10.408471 -2.005325 0.155458 0.020000
10.049454 -3.102358 0.140443 0.020000
9.474889 -4.173533 0.129961 0.060000
44.815327 18.603842 9.436976 0.060000
5.362324 0.469620 1.201497 0.260000
40.240551 0.544893 7.487884 0.030000
42.364510 -4.646576 7.809133 0.250000
11.279129 -3.641952 2.336669 0.040000
16.379250 6.144818 1.741356 0.020000
30.294134 7.723344 2.668555 0.250000
5.512948 0.488828 0.841958 0.070000
12.960343 -1.195508 1.310141 0.080000
11.265932 -3.578050 1.206861 0.200000
11.480387 2.600999 0.180379 0.020000
5.728377 0.524427 0.442648 0.060000
11.651855 0.178892 0.161823 0.030000
11.193967 -0.980101 0.161319 0.030000
10.815106 -2.087570 0.161214 0.020000
10.416863 -3.225362 0.145944 0.020000
9.843556 -4.361506 0.130224 0.050000
41.550842 17.312963 8.913651 0.060000
39.708706 0.634686 7.496829 0.020000
42.432186 -4.540683 7.924704 0.220000
11.293582 -3.616762 2.361801 0.050000
29.666565 12.001421 2.862823 0.170000
30.296869 7.833196 2.728972 0.170000
5.512743 0.498808 0.846994 0.070000
31.516857 0.555715 2.585102 0.000000
12.954525 -1.155686 1.330274 0.060000
11.270139 -3.537999 1.217021 0.270000
34.484203 -18.377121 2.882471 0.010000
11.308179 4.017915 0.195197 0.090000
11.574123 2.667806 0.180872 0.030000
5.683181 0.533545 0.447564 1.000000
11.746071 0.220704 0.162224 0.020000
11.328559 -0.957519 0.161755 0.030000
10.899803 -2.070945 0.161497 0.020000
10.501739 -3.218753 0.151191 0.020000
9.903341 -4.350377 0.135422 0.060000
41.601196 17.548786 8.964660 0.040000
5.511425 0.512337 1.242045 0.380000
38.731529 0.761581 7.334749 0.050000
42.343945 -4.372343 7.925099 0.150000
43.734627 -10.188111 8.282114 0.010000
11.347971 -3.585752 2.372058 0.050000
29.643898 12.141030 2.858282 0.120000
5.517455 0.513901 0.847063 0.110000
31.439718 0.669331 2.565323 0.010000
11.851478 -0.996508 1.252986 0.060000
17.858490 -3.708354 1.643589 0.000000
34.455387 -18.172489 2.843156 0.010000
11.133691 3.989568 0.194636 0.080000
11.404251 2.659552 0.180398 0.030000
5.623096 0.537395 0.447422 0.240000
11.600428 0.252920 0.161964 0.030000
11.192639 -0.910095 0.156576 0.030000
10.748394 -1.998832 0.161369 0.020000
10.344755 -3.116742 0.151160 0.020000
9.771066 -4.232889 0.135513 0.050000
41.562775 17.733248 8.920244 0.060000
5.481265 0.521797 1.232002 0.450000
38.953720 0.910881 7.330884 0.040000
42.295975 -4.207976 7.855585 0.090000
43.841957 -10.040847 8.232942 0.010000
11.342149 -3.540800 2.357210 0.030000
11.293109 -5.172431 2.461018 0.010000
29.636621 12.266078 2.813728 0.050000
5.547175 0.529491 0.842198 0.100000
31.432838 0.774401 2.515695 0.000000
11.795787 -0.957476 1.227985 0.120000
18.058313 -3.694452 1.624162 0.000000
10.909717 3.935306 0.183850 0.090000
5.597922 0.546933 0.442392 0.250000
11.359911 0.278337 0.156431 0.030000
10.941441 -0.849895 0.156144 0.030000
10.521711 -1.913158 0.161096 0.020000
10.177788 -3.014903 0.146103 0.030000
9.568038 -4.076750 0.135564 0.060000
40.989517 17.662933 8.733485 0.090000
50.448734 14.228995 9.970424 0.120000
5.520970 0.537561 1.232164 0.450000
39.381054 1.054090 7.332531 0.020000
43.059715 -4.143558 7.917819 0.120000
43.884174 -9.884736 8.158631 0.020000
11.302311 -5.127155 2.436210 0.010000
29.639055 12.406315 2.769255 0.030000
5.556899 0.544698 0.837280 0.050000
31.465950 0.880238 2.466174 0.000000
11.775064 -0.917811 1.213079 0.110000
18.338587 -3.704031 1.609858 0.000000
10.656118 3.860454 0.177910 0.090000
10.865706 2.579242 0.173694 0.040000
5.582747 0.556662 0.437388 0.270000
11.059405 0.302604 0.150736 0.030000
10.705443 -0.799388 0.150716 0.030000
10.330227 -1.836794 0.155880 0.020000
9.990823 -2.913448 0.140992 0.020000
9.405685 -3.954819 0.130593 0.060000
41.199505 17.932150 8.695033 0.060000
50.385677 14.403221 9.860906 0.070000
5.525695 0.552672 1.227232 0.370000
39.613514 1.193695 7.298657 0.040000
42.481102 -3.933905 7.727086 0.180000
43.921528 -9.733664 8.069289 0.020000
11.355826 -3.465360 2.312526 0.020000
29.602221 12.510866 2.704547 0.050000
31.469177 0.980519 2.411555 0.020000
11.814533 -0.886976 1.193296 0.140000
13.395912 -2.522309 1.281346 0.000000
13.447785 -4.186646 1.285294 0.050000
13.576836 -6.229701 1.323037 0.010000
10.328193 3.749154 0.176640 0.080000
10.566733 2.523524 0.167706 0.030000
5.582581 0.566697 0.427425 0.340000
10.813876 0.327906 0.150189 0.030000
10.489429 -0.748516 0.150341 0.030000
10.113652 -1.755909 0.150615 0.020000
9.808858 -2.811896 0.135894 0.030000
9.172471 -3.789257 0.130600 0.060000
41.107029 18.075808 8.585325 0.050000
5.590286 0.573895 1.232480 0.280000
39.995827 1.341135 7.275202 0.020000
42.283234 -3.767170 7.592187 0.170000
43.983807 -9.577077 7.970033 0.010000
11.239337 -3.382411 2.267529 0.040000
44.718266 -23.503937 8.865189 0.060000
29.580120 12.630738 2.629934 0.080000
13.178995 3.309384 1.352459 0.000000
13.239566 0.420308 1.266876 0.010000
11.814011 -0.856907 1.173406 0.130000
13.415290 -2.486858 1.261528 0.010000
13.606129 -6.189041 1.298264 0.020000
10.084593 3.674494 0.170726 0.100000
10.307562 2.478571 0.161863 0.040000
5.572309 0.581522 0.422453 0.440000
10.553458 0.347941 0.144584 0.030000
10.278537 -0.702510 0.139962 0.030000
9.922359 -1.689543 0.145363 0.020000
9.591707 -2.701017 0.130740 0.030000
8.959554 -3.638289 0.125605 0.070000
40.969986 18.198664 8.460423 0.090000
5.654782 0.600116 1.237746 0.200000
40.038246 1.487266 7.195856 0.040000
42.385754 -3.624870 7.507983 0.070000
11.278902 -3.356575 2.247729 0.050000
44.668766 -23.249308 8.721004 0.080000
29.627420 12.781928 2.560619 0.040000
13.213000 3.365137 1.327754 0.010000
13.223881 0.460125 1.236983 0.010000
11.843399 -0.821246 1.148615 0.130000
13.369240 -2.427601 1.226628 0.040000
13.451025 -4.086347 1.225675 0.010000
13.534139 -6.080254 1.258480 0.020000
9.746681 3.563021 0.164430 0.100000
9.998578 2.422644 0.160848 0.040000
5.557146 0.591270 0.412450 0.650000
10.268045 0.367496 0.138912 0.030000
10.047540 -0.651907 0.134547 0.030000
9.715795 -1.608448 0.135125 0.020000
9.374461 -2.585139 0.125603 0.030000
8.776917 -3.501745 0.120636 0.070000
40.778168 18.310505 8.325336 0.070000
39.711113 1.616574 7.045481 0.040000
42.177792 -3.453328 7.373076 0.090000
11.283200 -3.316394 2.222889 0.030000
44.719891 -23.027794 8.586960 0.080000
29.600128 12.911703 2.486029 0.140000
13.117726 3.383444 1.292573 0.040000
13.228083 0.505305 1.212162 0.000000
11.887869 -0.790316 1.128846 0.100000
9.428766 3.451931 0.158187 0.110000
9.729517 2.372519 0.149959 0.040000
5.546969 0.601095 0.407460 0.670000
9.987728 0.382149 0.133234 0.030000
9.811556 -0.601381 0.124118 0.030000
9.449133 -1.523521 0.129745 0.020000
9.127221 -2.469835 0.120386 0.030000
8.498424 -3.322047 0.120577 0.060000
40.656078 18.438721 8.180492 0.050000
39.748577 1.762666 6.951121 0.040000
47.617119 -3.737066 8.166228 0.050000
45.098881 -22.960230 8.508200 0.100000
13.072694 5.207812 1.324238 0.050000
13.136746 3.438928 1.262829 0.020000
11.927256 -0.754464 1.104082 0.070000
32.495743 -6.360128 2.116944 0.020000
13.434090 -3.976413 1.161039 0.010000
13.542033 -5.959806 1.183948 0.030000
9.120740 3.346013 0.156989 0.120000
9.415629 2.311496 0.148913 0.040000
5.551707 0.616225 0.397528 0.600000
9.747307 0.402566 0.127683 0.020000
9.560549 -0.551179 0.123650 0.030000
9.232640 -1.447654 0.129461 0.020000
8.824390 -2.325628 0.125132 0.030000
8.275399 -3.166290 0.120574 0.070000
41.771484 19.194794 8.301216 0.050000
47.918095 14.659803 8.820408 0.050000
42.747864 -3.171865 7.240610 0.050000
45.351997 -22.844978 8.404287 0.050000
29.510620 13.170676 2.311756 0.150000
16.013456 4.403752 1.393926 0.050000
5.653636 0.201692 0.781257 0.000000
11.750308 -1.952899 1.054165 0.020000
15.507070 -4.642031 1.218976 0.010000
13.510419 -5.870249 1.144198 0.020000
8.802908 3.229906 0.155728 0.120000
9.126750 2.250972 0.142934 0.040000
5.546447 0.631163 0.387570 0.620000
5.669499 0.213483 0.376338 0.000000
9.224448 -0.497625 0.127972 0.030000
8.940874 -1.358226 0.129032 0.030000
8.577136 -2.210343 0.124915 0.030000
8.062565 -3.020341 0.120561 0.070000
41.782249 19.435556 8.162138 0.070000
45.142262 13.983870 8.170643 0.070000
42.158989 -2.942241 7.004923 0.120000
44.104713 -21.897194 7.994551 0.090000
13.080397 5.338257 1.249742 0.030000
15.863148 4.426079 1.338616 0.060000
15.256800 2.414404 1.249554 0.000000
5.623394 0.216170 0.766232 0.000000
12.701901 -0.724513 1.076215 0.020000
11.714339 -1.898468 1.024273 0.070000
13.421892 -3.851350 1.086471 0.010000
8.509796 3.129293 0.149589 0.100000
8.763147 2.173976 0.146699 0.040000
5.571098 0.651694 0.372710 0.800000
5.719241 0.229493 0.361527 0.020000
8.973454 -0.447404 0.122503 0.030000
8.679198 -1.273222 0.128665 0.030000
8.354987 -2.099559 0.119747 0.030000
7.905416 -2.908294 0.110567 0.080000
53.250557 25.359053 10.174113 0.050000
45.123631 14.194099 8.021374 0.060000
5.692036 0.231003 1.171470 0.000000
42.180885 -2.761294 6.870652 0.050000
44.140179 -21.635828 7.820613 0.110000
13.113972 3.598923 1.153363 0.070000
15.146185 2.452476 1.199407 0.010000
5.588234 0.225535 0.756175 0.010000
12.645949 -0.670446 1.041270 0.070000
11.618203 -1.835170 0.989257 0.120000
15.499431 -4.491821 1.129514 0.010000
13.543239 -5.744287 1.059751 0.030000
8.211768 3.023566 0.148418 0.110000
8.489169 2.118737 0.140778 0.040000
5.545841 0.666250 0.362698 0.830000
5.638982 0.242977 0.356368 0.060000
8.682467 -0.397950 0.116927 0.030000
8.402538 -1.188488 0.123258 0.030000
8.147931 -1.993488 0.114601 0.030000
7.702675 -2.767152 0.110563 0.070000
54.150913 26.136562 10.144354 0.040000
44.379395 14.185853 7.744398 0.050000
5.636811 0.245021 1.151378 0.000000
42.232368 -2.559814 6.746534 0.070000
40.101723 -7.465478 6.447733 0.010000
40.128906 -12.826656 6.632877 0.010000
43.675201 -21.083700 7.566449 0.110000
13.097728 5.488909 1.170347 0.010000
15.408341 4.427790 1.222434 0.090000
13.216937 2.150914 1.073248 0.010000
5.567894 0.245204 0.741195 1.000000
12.600008 -0.616170 1.001351 0.080000
11.662519 -1.794186 0.954524 0.190000
13.429812 -3.730865 1.001939 0.020000
7.938557 2.928335 0.142351 0.120000
8.180377 2.052812 0.139727 0.050000
5.520680 0.675806 0.352668 0.560000
5.658730 0.258413 0.341477 0.080000
8.401453 -0.348342 0.121378 0.030000
8.155955 -1.108196 0.122913 0.030000
7.855385 -1.864086 0.119318 0.030000
7.540419 -2.650220 0.105574 0.080000
52.144882 25.465023 9.591615 0.040000
45.919769 14.950141 7.846261 0.060000
5.801275 0.273139 1.161912 0.000000
51.132393 -2.898623 7.913518 0.060000
40.173447 -7.273539 6.303633 0.020000
40.220379 -12.619282 6.473885 0.020000
43.851723 -20.874603 7.382686 0.110000
13.076616 5.553699 1.120532 0.030000
13.111798 3.724215 1.068822 0.060000
15.168745 2.593281 1.104988 0.050000
5.522655 0.259395 0.726129 1.000000
12.634231 -0.570378 0.966610 0.120000
11.566382 -1.730887 0.919508 0.240000
13.438779 -3.670517 0.957186 0.030000
13.535422 -5.584060 0.965325 0.010000
7.685151 2.843486 0.136374 0.110000
7.936298 2.003147 0.133905 0.050000
5.490425 0.690266 0.342643 0.610000
5.598467 0.272280 0.336371 0.090000
8.130559 -0.303503 0.115838 0.030000
7.924562 -1.037615 0.122571 0.030000
7.749103 -1.796054 0.104294 0.040000
7.342786 -2.513963 0.100564 0.080000
54.910542 27.247370 9.860462 0.030000
44.877193 14.861404 7.503206 0.050000
41.051895 7.920181 6.577408 0.100000
5.661201 0.280586 1.126574 0.000000
51.283333 -2.660030 7.734797 0.080000
11.648861 -1.748234 1.989670 0.000000
40.392563 -12.450422 6.329961 0.020000
44.048294 -20.670179 7.213957 0.070000
15.241853 4.520040 1.107341 0.210000
5.512395 0.274238 0.716157 0.130000
12.603287 -0.515814 0.926732 0.110000
11.545341 -1.671133 0.879675 0.290000
13.427461 -3.595556 0.912435 0.050000
13.528829 -5.493987 0.915642 0.030000
7.421925 2.748428 0.135333 0.120000
7.697218 1.953578 0.128097 0.050000
5.490177 0.705319 0.327698 0.710000
5.588221 0.287141 0.321399 0.090000
7.904738 -0.262821 0.115399 0.030000
7.763468 -0.980654 0.112362 0.030000
7.557318 -1.704711 0.104133 0.030000
7.190719 -2.406838 0.095565 0.100000
41.863426 20.785118 7.412358 0.040000
44.733982 15.054393 7.313548 0.050000
5.596074 0.289413 1.106436 1.000000
51.243839 -2.400062 7.550659 0.140000
11.683071 -1.702461 1.959929 0.010000
40.594604 -12.276045 6.201135 0.010000
44.305393 -20.494656 7.060279 0.100000
13.083893 5.709215 1.026128 0.030000
15.061740 2.711637 1.000147 0.030000
5.547031 0.294942 0.706325 0.230000
12.597352 -0.460753 0.881921 0.130000
11.544475 -1.621013 0.844859 0.310000
15.368226 -4.138465 0.910482 0.060000
10.640635 -4.033620 0.798531 0.040000
7.163794 2.648466 0.134288 0.120000
7.473027 1.909276 0.127347 0.050000
5.602873 0.307480 0.306513 0.090000
7.704022 -0.226640 0.110010 0.040000
7.607360 -0.923615 0.107167 0.020000
7.350453 -1.608638 0.098950 0.030000
7.013370 -2.285195 0.090555 0.100000
49.503811 25.123287 8.518440 0.050000
44.228306 15.120655 7.057471 0.080000
5.580732 0.309178 1.091470 0.030000
51.559994 -2.173362 7.387325 0.100000
11.637060 -1.643148 1.910029 0.030000
37.990723 -11.238732 5.653188 0.030000
45.682732 -20.863306 7.052504 0.040000
14.951057 4.574902 0.991785 0.160000
15.120409 2.787940 0.955584 0.020000
5.556781 0.310186 0.691407 0.150000
12.601580 -0.415536 0.847099 0.120000
11.573794 -1.580316 0.810086 0.320000
15.412212 -4.077410 0.855824 0.170000
10.589298 -3.959462 0.763672 0.080000
6.955092 2.579475 0.128487 0.100000
7.248848 1.864993 0.121597 0.060000
5.617527 0.327819 0.291627 0.070000
7.488200 -0.185767 0.109599 0.040000
7.396071 -0.857631 0.101860 0.030000
7.143575 -1.512583 0.098767 0.040000
6.861386 -2.183087 0.090538 0.070000
54.025543 27.873482 9.055471 0.030000
43.871548 15.239650 6.836980 0.080000
43.022655 8.968788 6.401449 0.050000
5.530602 0.318293 1.071372 0.090000
35.771507 -1.302315 5.094327 0.080000
37.921650 -11.004427 5.493877 0.030000
45.848667 -20.624426 6.873823 0.030000
13.125683 5.890396 0.931910 0.110000
14.875161 4.628660 0.936786 0.130000
15.119225 2.858149 0.895841 0.030000
5.546535 0.325048 0.676435 0.120000
12.640635 -0.359613 0.802409 0.100000
11.628121 -1.539121 0.770381 0.230000
10.588170 -3.894307 0.718911 0.140000
6.736666 2.495277 0.127603 0.110000
7.069470 1.831571 0.116005 0.050000
5.514044 0.770953 0.283004 0.080000
5.642191 0.348369 0.271767 0.090000
