# This PCD file was generated using the MATLAB® pcwrite function
# from Computer Vision Toolbox®.
# .PCD v.7 - Point Cloud Data file format
VERSION .7
FIELDS x y z intensity
SIZE 4 4 4 4
TYPE F F F F
COUNT 1 1 1 1
WIDTH 1285
HEIGHT 1
VIEWPOINT 0 0 0 1 0 0 0
POINTS 1285
DATA ascii
53.489140 25.228172 11.654264 0.010000
45.596401 14.143653 9.247433 0.050000
39.833195 6.892314 7.755418 0.040000
6.416797 -0.300981 1.381387 0.010000
11.371394 -3.240187 2.358404 0.000000
42.889698 -21.503475 8.832851 0.060000
29.517763 13.238699 2.892034 0.240000
16.504393 4.577048 1.705855 0.010000
31.307949 1.541925 2.578223 0.050000
11.946068 -0.714683 1.264281 0.040000
11.221309 4.376333 0.191303 0.110000
11.592425 3.018237 0.177223 0.040000
11.159093 1.619618 0.190893 0.670000
11.825320 0.522293 0.158552 0.030000
6.264166 -0.290346 0.411018 0.010000
10.717399 -2.989564 0.147605 0.020000
10.124097 -4.126091 0.131832 0.070000
51.093037 23.768894 11.132581 0.030000
45.540951 13.907605 9.231411 0.070000
11.178337 1.622177 2.320974 0.010000
6.422166 -0.320900 1.386327 0.030000
11.321991 -3.271120 2.353160 0.000000
42.793907 -21.725386 8.841777 0.030000
29.525827 13.078825 2.891460 0.240000
16.530634 4.512539 1.705683 0.030000
31.350515 1.407698 2.582835 0.050000
11.941931 -0.759770 1.264102 0.080000
32.474823 -6.382366 2.616812 0.140000
17.149172 -5.312112 1.605776 0.000000
11.085052 1.568172 0.195508 0.530000
11.836084 0.482492 0.158432 0.020000
6.299639 -0.314671 0.411020 0.030000
11.040656 -1.853209 0.162674 0.020000
10.647699 -3.005902 0.147363 0.020000
10.074476 -4.147063 0.136624 0.060000
51.182728 23.525589 11.126910 0.060000
45.555000 13.697873 9.220668 0.020000
11.233875 1.593198 2.331012 0.060000
43.248779 1.875247 8.180689 0.020000
6.412564 -0.341069 1.381227 1.000000
11.342919 -3.320765 2.363030 0.020000
45.076260 -23.198694 9.322263 0.070000
29.558697 12.929428 2.890991 0.220000
18.369164 2.772241 1.759014 0.000000
31.352814 1.287721 2.582395 0.050000
11.882626 -0.795894 1.258813 0.100000
32.497490 -6.521975 2.621352 0.120000
17.070158 -5.363616 1.600378 0.000000
11.208406 4.266048 0.195859 0.100000
11.504728 2.896518 0.181541 0.040000
11.100720 1.533466 0.195420 0.390000
11.736953 0.435567 0.162999 0.020000
6.264837 -0.325339 0.410890 1.000000
10.951056 -1.874929 0.162359 0.020000
10.577987 -3.022258 0.152120 0.020000
10.014774 -4.163209 0.136408 0.060000
51.624199 23.443790 11.192759 0.040000
11.259542 1.558684 2.330950 0.090000
39.770985 1.555932 7.530416 0.010000
6.357792 -0.352083 1.371043 1.000000
43.988457 -9.343138 8.295918 0.000000
11.288447 -3.346758 2.347791 0.030000
45.050797 -23.434187 9.311320 0.020000
18.465212 2.719089 1.754067 0.000000
31.365068 1.173009 2.562000 0.050000
11.863314 -0.831252 1.253631 0.100000
33.300529 -11.377655 2.660398 0.040000
11.149855 4.189913 0.195423 0.090000
11.415991 2.829806 0.181062 0.030000
11.101500 1.493492 0.190273 0.400000
11.632738 0.393564 0.162571 0.030000
6.255126 -0.340528 0.410808 1.000000
10.851267 -1.886842 0.162054 0.020000
10.447833 -3.014731 0.146808 0.020000
9.879225 -4.135801 0.136157 0.050000
51.555428 23.132803 11.086422 0.030000
11.185578 1.507350 2.305566 0.230000
39.369331 1.393632 7.413764 0.040000
6.257959 -0.358923 1.350756 0.650000
43.941959 -9.518858 8.240143 0.010000
11.249069 -3.377462 2.332574 0.050000
29.559397 12.639591 2.834915 0.080000
11.248827 1.487463 1.240646 0.000000
31.367350 1.058142 2.531579 0.050000
11.798940 -0.862435 1.238347 0.090000
18.908941 -3.728405 1.691257 0.010000
33.258022 -11.503363 2.624820 0.020000
10.947589 4.046032 0.189360 0.090000
11.262649 2.741854 0.180335 0.030000
11.072202 1.457962 0.180065 0.340000
11.463550 0.350334 0.156969 0.020000
6.205340 -0.351465 0.405637 0.180000
10.641128 -1.880847 0.156528 0.020000
10.297491 -2.997589 0.141479 0.020000
9.672935 -4.069722 0.130864 0.060000
54.637085 24.305067 11.633830 0.070000
50.422543 14.548458 9.996543 0.020000
39.117241 1.254165 7.307586 0.040000
6.228195 -0.369440 1.335639 0.490000
43.890015 -9.669641 8.174446 0.020000
11.355556 -3.455473 2.342562 0.020000
29.611696 12.525720 2.794627 0.050000
11.174755 1.441109 1.220281 0.000000
31.419388 0.959305 2.481347 0.040000
6.544981 -0.396728 0.886360 0.050000
33.361515 -11.676191 2.564447 0.060000
10.740036 3.917053 0.183339 0.090000
10.994820 2.626723 0.174207 0.030000
11.174274 0.309787 0.156063 0.020000
6.215652 -0.366233 0.395609 0.220000
10.425784 -1.864969 0.156025 0.020000
10.091666 -2.956524 0.141095 0.020000
9.501818 -4.012989 0.130628 0.050000
41.195396 17.881971 8.719836 0.060000
50.421825 14.338774 9.895761 0.120000
39.459873 1.120721 7.302984 0.050000
6.188421 -0.380167 1.325496 0.680000
43.908466 -9.839043 8.098864 0.020000
11.371564 -3.505102 2.322419 0.010000
11.332510 -5.136560 2.431253 0.000000
29.648954 12.416635 2.734319 0.030000
11.220264 1.417032 1.205310 0.030000
6.555280 -0.411515 0.881332 0.050000
18.228577 -3.701046 1.584582 0.000000
13.519553 -4.280343 1.300133 0.020000
10.413643 3.725768 0.181776 0.100000
10.692094 2.505922 0.167968 0.030000
10.934920 0.275233 0.145310 0.030000
6.225964 -0.381002 0.385581 0.290000
10.190184 -1.834439 0.145523 0.020000
9.850492 -2.896096 0.130690 0.020000
9.239676 -3.902972 0.125353 0.050000
41.937496 18.036100 8.752347 0.080000
50.420605 14.159178 9.770088 0.070000
11.182639 1.407478 2.250187 0.050000
40.361572 1.032773 7.360012 0.010000
6.178653 -0.390301 1.310432 0.750000
43.926311 -9.973357 7.998410 0.010000
11.377286 -3.539925 2.302304 0.030000
11.323165 -5.166634 2.401117 0.000000
29.671185 12.312353 2.648988 0.030000
13.171475 3.179199 1.356955 0.000000
11.166024 1.381096 1.175034 0.090000
13.256754 0.305599 1.271495 0.000000
6.540610 -0.426744 0.866237 0.050000
17.099463 -3.482246 1.477447 0.010000
13.465038 -4.301263 1.264913 0.010000
13.655310 -6.408174 1.307578 0.010000
10.161304 3.585948 0.170597 0.100000
10.384273 2.390025 0.161734 0.030000
10.540446 1.287858 0.148044 0.070000
10.610460 0.244014 0.144347 0.020000
6.236275 -0.395770 0.375553 0.320000
9.914372 -1.794714 0.144951 0.020000
9.553823 -2.811762 0.130229 0.020000
8.941965 -3.763630 0.120093 0.060000
41.499695 17.688498 8.519909 0.080000
11.238065 1.388609 2.230261 0.130000
38.934860 0.896709 7.005778 0.020000
6.183966 -0.405165 1.300391 0.980000
43.954014 -10.097409 7.878020 0.010000
11.377831 -3.564828 2.277213 0.040000
11.318914 -5.201612 2.370976 0.000000
13.079244 4.857656 1.382954 0.010000
13.207026 3.154985 1.326958 0.010000
11.126575 1.355428 1.149836 0.120000
13.257311 0.280715 1.241403 0.010000
6.305336 -0.411155 0.840681 0.040000
13.398438 -2.647099 1.230888 0.010000
11.329923 -3.511464 1.112274 0.050000
13.600629 -6.419058 1.262394 0.020000
9.809832 3.399201 0.163986 0.110000
10.046539 2.268535 0.160401 0.030000
10.186853 1.211072 0.146836 0.080000
10.231024 0.211760 0.138236 0.030000
6.261501 -0.405234 0.360583 0.520000
9.648586 -1.754761 0.134406 0.020000
9.267069 -2.722220 0.124813 0.030000
8.654336 -3.629115 0.119843 0.050000
41.497852 17.543968 8.374366 0.080000
11.188740 1.357787 2.195017 0.270000
39.056702 0.814358 6.915789 0.030000
6.159105 -0.410587 1.285306 1.060000
11.368306 -3.584885 2.242113 0.050000
11.344742 -5.241033 2.345896 0.000000
13.050216 4.812238 1.342709 0.030000
13.118118 3.103438 1.281533 0.040000
11.097152 1.329988 1.114664 0.120000
6.270477 -0.416769 0.825569 0.060000
13.424099 -2.676485 1.195845 0.030000
11.295212 -3.522002 1.077144 0.110000
13.626687 -6.468421 1.222279 0.030000
9.428352 3.211863 0.162294 0.090000
9.718639 2.157272 0.149131 0.030000
9.887894 1.155373 0.135848 0.080000
9.911384 0.190653 0.132323 0.030000
6.296821 -0.419505 0.345622 0.310000
9.357504 -1.700307 0.128848 0.030000
8.965126 -2.622967 0.119394 0.020000
8.346327 -3.474987 0.119612 0.060000
41.272156 17.345345 8.173037 0.090000
11.084465 1.325968 2.144626 0.340000
39.712975 0.756989 6.897289 0.030000
6.159240 -0.415531 1.270288 0.650000
11.343690 -3.600231 2.206991 0.050000
13.055799 4.787487 1.302631 0.030000
11.037721 1.303956 1.084412 0.210000
13.233374 0.235524 1.166172 0.000000
6.275598 -0.421635 0.815564 0.060000
11.255311 -3.522638 1.042037 1.000000
11.256388 -5.147996 1.060998 0.010000
9.111204 3.060780 0.155904 0.100000
9.360718 2.045398 0.147781 0.030000
9.509211 1.083108 0.134591 0.070000
9.576734 0.169240 0.131370 0.030000
9.036222 -1.636449 0.128247 0.020000
8.617686 -2.499617 0.123946 0.030000
8.058424 -3.325456 0.114416 0.050000
41.453156 17.314320 8.033392 0.120000
11.064957 1.305738 2.104500 0.450000
40.494236 0.702034 6.874124 0.020000
6.144391 -0.420743 1.250229 0.750000
11.333988 -3.610272 2.166928 0.050000
42.248875 -23.157482 7.855020 0.020000
13.086198 4.773232 1.257657 0.020000
13.104192 3.058457 1.201329 0.010000
11.092980 1.295122 1.054523 0.350000
13.248750 0.220944 1.131158 0.000000
6.275733 -0.426578 0.800546 0.060000
11.205316 -3.518467 1.006922 0.220000
13.612704 -6.508348 1.127093 0.020000
8.774155 2.904316 0.149443 0.090000
9.002810 1.933542 0.141431 0.030000
9.150236 1.026223 0.133443 0.070000
9.242001 0.152845 0.125435 0.030000
8.704751 -1.562784 0.127655 0.020000
8.290352 -2.380865 0.123533 0.030000
7.831070 -3.204788 0.114271 0.060000
41.504524 17.265881 7.873344 0.100000
11.050242 1.295582 2.069423 0.480000
40.495270 0.667561 6.733997 0.050000
6.149512 -0.425609 1.240224 0.710000
11.339283 -3.620026 2.126905 0.060000
42.250317 -23.206785 7.669839 0.040000
13.076713 4.753230 1.207557 0.010000
13.109596 3.043723 1.156288 0.020000
11.048380 1.279412 1.014348 0.480000
6.270882 -0.431599 0.780514 0.090000
13.435477 -2.730818 1.070672 0.000000
11.190615 -3.528603 0.966845 0.200000
13.638500 -6.542676 1.077032 0.030000
8.427190 2.742642 0.147936 0.100000
8.669694 1.832144 0.140184 0.030000
8.786358 0.964243 0.132262 0.070000
8.877165 0.140855 0.124438 0.030000
8.363295 -1.489292 0.122037 0.020000
8.003311 -2.276326 0.118172 0.030000
7.573449 -3.069680 0.109101 0.060000
41.342400 17.143524 7.662464 0.060000
11.065522 1.286002 2.034427 0.490000
40.486320 0.632915 6.588843 0.070000
6.154646 -0.430456 1.225220 0.720000
11.304298 -3.615548 2.086830 0.060000
42.307365 -23.290102 7.504676 0.030000
14.907084 5.528275 1.255217 0.050000
13.134791 3.039351 1.116337 0.030000
11.058648 1.269717 0.984338 0.480000
6.296095 -0.441081 0.770545 0.080000
13.420693 -2.735937 1.025614 0.010000
11.160616 -3.524049 0.931784 0.170000
13.664201 -6.572006 1.026989 0.040000
8.174358 2.627798 0.141849 0.090000
8.401195 1.752006 0.134185 0.030000
8.507190 0.918907 0.126365 0.080000
8.592327 0.130417 0.118656 0.030000
8.352595 -0.669334 0.120057 0.040000
8.092100 -1.429476 0.121552 0.030000
7.827124 -2.214652 0.107941 0.030000
7.376390 -2.963417 0.103981 0.070000
44.100010 18.295422 7.978947 0.080000
11.075695 1.281306 2.004436 0.520000
40.477291 0.603287 6.438708 0.070000
6.159780 -0.435304 1.210215 0.750000
40.984425 -9.694187 6.501753 0.010000
11.304499 -3.620399 2.046813 0.050000
42.515278 -23.420630 7.364732 0.010000
14.828010 5.486955 1.199856 0.090000
13.130101 3.029425 1.071287 0.020000
11.063739 1.269943 0.949352 0.500000
6.311227 -0.445737 0.755567 0.080000
13.420894 -2.740787 0.985596 0.010000
11.155817 -3.528995 0.891752 0.180000
7.876905 2.492078 0.140568 0.090000
8.112685 1.671466 0.133133 0.030000
8.208013 0.873169 0.125414 0.080000
8.287372 0.124557 0.122838 0.030000
8.122063 -0.643745 0.119551 0.030000
7.881098 -1.378489 0.116190 0.030000
7.570160 -2.114556 0.107643 0.030000
7.204628 -2.871654 0.093874 0.060000
44.735741 18.538008 7.881507 0.040000
11.070896 1.276359 1.964405 0.520000
40.492992 0.589172 6.278695 0.070000
6.139836 -0.435612 1.190161 0.790000
40.965054 -9.703955 6.336665 0.030000
11.294604 -3.620441 2.006786 0.050000
14.778654 5.461225 1.139631 0.080000
18.373087 4.469596 1.225328 0.040000
11.058927 1.264978 0.914320 0.520000
31.426353 0.467835 1.529528 0.000000
6.311279 -0.445662 0.735567 0.110000
13.421120 -2.745600 0.935578 0.010000
11.135734 -3.519231 0.851736 0.140000
13.644479 -6.571999 0.921937 0.020000
7.653698 2.397823 0.129635 0.090000
7.849089 1.596423 0.127166 0.040000
7.973644 0.838693 0.119674 0.090000
8.027529 0.114597 0.117123 0.030000
7.871548 -0.618520 0.113991 0.030000
7.685286 -1.337214 0.110833 0.030000
7.388853 -2.048017 0.107417 0.030000
7.012556 -2.765313 0.093768 0.070000
44.816158 18.540152 7.716724 0.080000
11.061085 1.271299 1.929360 0.580000
40.518543 0.580173 6.138726 0.070000
6.164857 -0.435096 1.180228 0.740000
40.935501 -9.703897 6.166586 0.020000
11.314897 -3.629908 1.966804 0.050000
13.062882 4.718656 1.017391 0.040000
18.373463 4.459858 1.155292 0.040000
11.029119 1.259535 0.879222 0.700000
16.699402 0.237509 1.010225 0.000000
6.301321 -0.445798 0.720540 0.120000
13.406144 -2.740721 0.890557 0.020000
11.161107 -3.533619 0.816748 0.120000
13.644609 -6.571813 0.871937 0.020000
7.390842 2.282750 0.133521 0.100000
7.645182 1.537508 0.126414 0.040000
7.719267 0.803815 0.118880 0.090000
7.812582 0.110498 0.111547 0.030000
7.666121 -0.597432 0.108533 0.030000
7.489282 -1.285940 0.105512 0.030000
7.192369 -1.971748 0.102187 0.040000
6.785011 -2.634648 0.093660 0.080000
44.593838 18.431755 7.475738 0.090000
11.046288 1.266161 1.889302 0.600000
40.528946 0.580941 5.983755 0.070000
6.144914 -0.435405 1.160175 0.700000
38.851116 -9.172110 5.723117 0.030000
11.309894 -3.624874 1.931809 0.050000
13.082900 4.724205 0.972463 0.090000
18.303946 4.443780 1.085050 0.050000
11.024212 1.259569 0.844209 0.700000
16.649569 0.236775 0.950092 0.000000
6.316357 -0.445455 0.705581 0.260000
16.586704 -3.525002 0.910943 0.030000
11.125931 -3.519144 0.776710 0.110000
15.738131 -7.776858 0.852922 0.110000
7.192426 2.198954 0.127692 0.110000
7.411388 1.473037 0.120565 0.040000
7.529699 0.780199 0.113298 0.090000
7.577626 0.105998 0.110917 0.040000
7.440575 -0.571765 0.113039 0.040000
7.238070 -1.225759 0.110080 0.030000
6.995872 -1.895497 0.101958 0.040000
6.628220 -2.542635 0.093592 0.070000
44.306984 18.297081 7.244486 0.040000
56.994316 15.234554 8.621234 0.090000
11.036381 1.266100 1.854275 0.800000
40.509342 0.581115 5.833703 0.070000
6.159950 -0.435062 1.145216 0.670000
38.791149 -9.152686 5.568031 0.030000
11.309902 -3.619727 1.891828 0.070000
13.068130 4.719105 0.922405 0.070000
18.279215 4.438544 1.019966 0.040000
11.019318 1.259622 0.804196 0.770000
16.734695 0.238607 0.895320 0.000000
6.381588 -0.454134 0.685718 0.190000
16.586861 -3.524779 0.850944 0.030000
11.156221 -3.528419 0.736754 0.120000
15.733301 -7.776712 0.787910 0.700000
6.979190 2.104853 0.126785 0.110000
7.227298 1.424521 0.114904 0.040000
7.295304 0.745685 0.117558 0.090000
7.382566 0.107262 0.110412 0.040000
7.225053 -0.545870 0.107573 0.040000
7.016961 -1.169984 0.109710 0.040000
6.839669 -1.833460 0.096781 0.040000
6.436148 -2.436294 0.093486 0.080000
44.783607 18.496740 7.111471 0.070000
57.064888 15.241860 8.361443 0.090000
11.021502 1.265980 1.809236 0.820000
40.549767 0.582494 5.668812 0.070000
6.124913 -0.430659 1.125140 0.730000
38.680874 -9.114131 5.387885 0.030000
11.315019 -3.619463 1.846841 0.090000
13.092968 4.734766 0.872528 0.040000
13.125799 3.025185 0.841258 0.020000
11.029407 1.259944 0.769223 0.660000
13.325307 0.188670 0.786234 0.000000
6.376533 -0.449175 0.670723 0.190000
16.632092 -3.528712 0.796047 0.030000
11.136125 -3.518673 0.701737 0.140000
15.712982 -7.751877 0.727948 2.320000
6.815480 2.036724 0.121104 0.110000
7.008380 1.365300 0.119112 0.040000
7.130732 0.722548 0.112042 0.090000
7.177605 0.103336 0.109863 0.040000
7.044608 -0.524322 0.107182 0.040000
6.871235 -1.132750 0.104468 0.040000
6.653171 -1.757018 0.096578 0.040000
6.304652 -2.358781 0.088431 0.080000
44.570507 18.428509 6.875659 0.060000
57.094498 15.293243 8.141708 0.070000
11.046384 1.276568 1.779340 0.780000
40.509590 0.612280 5.518816 0.070000
6.170026 -0.434759 1.115243 0.550000
38.886559 -9.129718 5.258363 0.040000
11.345104 -3.618759 1.811922 0.060000
14.655188 5.419898 0.854152 0.180000
13.125738 3.035369 0.791295 0.030000
11.019404 1.264881 0.734215 0.670000
13.300250 0.198375 0.736204 0.000000
6.406662 -0.453544 0.655786 0.190000
16.677349 -3.532608 0.731150 0.020000
11.151239 -3.518219 0.656778 0.190000
15.702784 -7.731812 0.657996 8.685000
6.641771 1.968404 0.115397 0.110000
6.839096 1.327069 0.113528 0.040000
6.936055 0.703816 0.111464 0.100000
6.997556 0.104907 0.104398 0.040000
6.869162 -0.502678 0.106805 0.040000
6.705403 -1.090918 0.104190 0.030000
6.476671 -1.680385 0.096402 0.040000
6.157859 -2.266576 0.088391 0.080000
46.855694 19.467016 7.005486 0.050000
57.119148 15.344586 7.906961 0.070000
11.031395 1.281429 1.739318 0.740000
36.076492 0.569957 4.802080 0.030000
6.174982 -0.429590 1.095275 0.640000
38.956745 -9.117822 5.108589 0.030000
11.370204 -3.618131 1.771990 0.060000
14.660069 5.435233 0.789221 0.230000
13.125567 3.050533 0.746351 0.020000
11.024316 1.275124 0.694265 0.670000
13.345168 0.209402 0.691362 0.000000
6.426615 -0.448087 0.635858 0.200000
16.742493 -3.531140 0.671325 0.020000
11.156152 -3.507976 0.616828 0.230000
6.482951 1.905351 0.114748 0.110000
6.654993 1.278535 0.112867 0.040000
6.766375 0.685563 0.110953 0.090000
6.817493 0.106458 0.103934 0.040000
6.713711 -0.480651 0.106481 0.040000
6.534464 -1.044202 0.108918 0.030000
6.315359 -1.613462 0.096230 0.040000
6.021255 -2.184177 0.088340 0.080000
45.784328 19.052635 6.671145 0.040000
57.108685 15.400221 7.682138 0.050000
11.041293 1.291749 1.704382 0.800000
36.096157 0.605817 4.672263 0.040000
6.190005 -0.429265 1.085315 0.710000
39.654289 -9.234226 5.039976 0.040000
11.365022 -3.603081 1.732032 0.060000
84.551239 -47.353756 11.190530 0.060000
14.645024 5.445148 0.734218 0.070000
17.975483 4.408749 0.739059 0.060000
11.049115 1.290730 0.659388 0.480000
13.255111 0.217844 0.646158 0.010000
6.446650 -0.447648 0.620912 0.140000
13.391111 -2.699975 0.610666 0.010000
11.125770 -3.483426 0.581840 0.250000
6.314132 1.842106 0.114072 0.110000
6.505595 1.245668 0.112355 0.040000
6.591791 0.662216 0.110411 0.090000
6.642417 0.108087 0.108483 0.040000
6.568273 -0.458414 0.101184 0.040000
6.373536 -0.997276 0.108672 0.040000
6.174127 -1.551174 0.101093 0.040000
5.879544 -2.096894 0.093295 0.090000
46.814724 19.572699 6.610767 0.020000
50.136467 13.515355 6.566921 0.080000
11.036206 1.301800 1.664406 0.610000
36.110561 0.656615 4.532488 0.050000
6.219943 -0.423636 1.070414 0.720000
39.608315 -9.159452 4.865132 0.030000
11.369851 -3.587821 1.687101 0.040000
17.830967 4.391216 0.673616 0.050000
6.396411 -0.433553 0.605833 0.110000
13.416033 -2.689331 0.565770 0.030000
11.150773 -3.477799 0.541926 0.210000
6.165214 1.784244 0.113468 0.100000
6.326396 1.202228 0.111726 0.030000
6.422110 0.643963 0.109900 0.090000
6.497362 0.110328 0.103113 0.030000
6.387718 -0.431886 0.105811 0.040000
6.262899 -0.964371 0.103506 0.030000
6.022814 -1.484060 0.100947 0.050000
5.737846 -2.009593 0.093250 0.080000
44.077393 18.442127 6.039414 0.030000
50.006397 13.548676 6.346703 0.130000
11.170658 1.334454 1.644878 0.540000
36.130146 0.697492 4.397690 0.050000
6.169826 -0.414503 1.045317 0.510000
11.299132 -3.543984 1.637078 0.060000
84.110817 -46.693920 10.331824 0.050000
14.817897 5.573903 0.620147 0.020000
17.741070 4.394752 0.603394 0.050000
19.038397 0.379090 0.536852 0.000000
6.376276 -0.423864 0.585816 0.140000
13.390580 -2.659649 0.520813 0.030000
11.165587 -3.462366 0.502021 0.210000
5.976578 1.710600 0.117702 0.090000
6.162084 1.164056 0.116155 0.030000
6.282328 0.631283 0.109488 0.080000
6.302181 0.116554 0.112627 0.040000
6.247265 -0.409572 0.105527 0.040000
6.122159 -0.927059 0.103277 0.030000
5.911876 -1.436177 0.100836 0.050000
5.646726 -1.951309 0.088229 0.090000
51.085934 21.624533 6.719545 0.050000
50.010098 13.644498 6.147067 0.130000
11.170463 1.349581 1.609933 0.400000
40.671886 0.863275 4.745165 0.030000
6.184753 -0.409179 1.035375 0.600000
11.298745 -3.518859 1.602170 0.090000
14.708348 5.557004 0.564798 0.050000
13.134707 3.121399 0.561636 0.060000
10.978732 1.324773 0.554330 0.090000
27.191139 0.595853 0.398937 0.010000
6.366221 -0.419000 0.570808 0.180000
26.553125 -5.767252 0.308617 0.040000
11.261057 -3.480394 0.462203 0.260000
5.847465 1.663119 0.117189 0.090000
6.012783 1.126190 0.115624 0.030000
6.117550 0.618125 0.109009 0.080000
6.182120 0.119274 0.107323 0.040000
6.096815 -0.387449 0.105217 0.040000
6.011426 -0.889155 0.098129 0.020000
5.816045 -1.392986 0.095746 0.050000
5.535309 -1.878430 0.088209 0.100000
50.935440 21.682539 6.479365 0.110000
48.318165 13.263494 5.741230 0.030000
11.130300 1.363979 1.564881 0.310000
35.288681 0.817755 4.025937 0.030000
6.209596 -0.398646 1.020479 0.520000
11.293385 -3.493792 1.557249 0.090000
48.097904 -25.867676 5.605190 0.020000
14.707834 5.592220 0.504927 0.110000
13.114363 3.146197 0.511675 0.030000
11.018350 1.350683 0.514529 0.090000
13.254047 0.298498 0.466453 0.000000
6.340990 -0.404408 0.550796 0.190000
24.979883 -5.342051 0.236090 0.030000
11.275871 -3.464961 0.422299 0.340000
11.286899 -5.079925 0.386324 0.030000
5.718351 1.615638 0.116675 0.100000
5.878274 1.098591 0.120171 0.030000
6.007749 0.606002 0.113678 0.090000
6.051940 0.126764 0.112011 0.030000
5.996450 -0.369368 0.105022 0.050000
5.900763 -0.856287 0.102962 0.030000
5.710011 -1.340007 0.095666 0.050000
5.459365 -1.829876 0.088191 0.090000
50.864052 21.787052 6.244565 0.100000
57.211338 15.951666 6.489444 0.070000
11.160003 1.384680 1.530035 0.580000
35.102779 0.884774 3.870699 0.060000
6.249628 -0.397825 1.005587 0.550000
45.078209 -10.129426 4.755803 0.010000
11.328195 -3.477976 1.517398 0.050000
48.105427 -25.706676 5.380806 0.060000
11.033055 1.371096 0.479643 0.120000
13.233677 0.323258 0.426491 0.000000
6.355931 -0.399066 0.535855 0.190000
13.354419 -2.579814 0.381014 0.010000
11.290590 -3.444529 0.382413 0.340000
11.306629 -5.059379 0.341451 0.130000
5.609042 1.578538 0.116252 0.100000
5.778593 1.081697 0.114848 0.040000
5.882868 0.598609 0.113324 0.090000
5.961778 0.135057 0.106807 0.040000
5.885992 -0.346480 0.104819 0.050000
5.800111 -0.823209 0.102823 0.040000
5.614070 -1.291836 0.095595 0.050000
5.357947 -1.756805 0.088198 0.090000
51.218300 22.114519 6.076705 0.060000
57.248623 16.123180 6.280177 0.070000
11.119719 1.404040 1.495002 0.510000
35.071480 0.969648 3.745931 0.070000
6.269472 -0.387388 0.990677 0.590000
45.156696 -10.027318 4.596386 0.030000
47.870060 -25.395250 5.141346 0.060000
13.090132 4.946418 0.418302 0.050000
13.138361 3.212017 0.416981 0.050000
11.052567 1.401604 0.444807 0.150000
13.323202 0.355144 0.381843 0.010000
6.335686 -0.384396 0.520856 0.170000
13.434330 -2.568116 0.336266 0.030000
11.305212 -3.419098 0.342545 0.370000
11.260592 -5.000103 0.301551 0.100000
5.529453 1.557028 0.110964 0.100000
5.653999 1.059307 0.114439 0.030000
5.787899 0.596808 0.108069 0.090000
5.861714 0.138159 0.101557 0.030000
5.775629 -0.328590 0.104597 0.050000
5.719564 -0.794728 0.097718 0.040000
5.508132 -1.243857 0.095497 0.060000
5.302204 -1.717848 0.083197 0.100000
46.908791 20.314087 5.398757 0.060000
57.246349 16.274006 6.050729 0.080000
11.179223 1.435314 1.460273 0.260000
35.185158 1.057299 3.621552 0.040000
6.314394 -0.381490 0.980816 0.430000
45.255108 -9.919791 4.427041 0.020000
47.816235 -25.165434 4.922058 0.080000
19.095654 5.002140 0.244184 0.020000
11.022282 1.421156 0.409800 0.090000
6.350544 -0.374036 0.500933 0.200000
11.299730 -3.389069 0.307642 0.400000
11.259931 -4.959962 0.261698 0.300000
5.415145 1.519832 0.110528 0.090000
5.584204 1.047969 0.114215 0.040000
5.673003 0.589588 0.112743 0.080000
5.756529 0.146128 0.106312 0.030000
5.710271 -0.309820 0.099496 0.050000
5.618912 -0.761650 0.097578 0.040000
5.457580 -1.214801 0.090473 0.050000
5.215961 -1.654506 0.088207 0.090000
47.119076 20.583729 5.245306 0.070000
48.702805 13.908614 5.024624 0.050000
35.463531 1.157997 3.527653 0.060000
6.539543 -0.387179 0.981383 0.520000
52.479038 -11.423321 4.880313 0.030000
47.802639 -24.949923 4.722822 0.080000
15.195786 5.997499 0.272704 0.050000
11.081691 1.457428 0.375090 0.110000
6.330287 -0.359385 0.490935 0.230000
14.724136 -2.787958 0.203814 0.040000
11.344539 -3.373061 0.267818 0.240000
11.249174 -4.915013 0.221837 0.110000
5.350458 1.503609 0.105298 0.090000
5.489522 1.031171 0.108905 0.030000
5.608028 0.588362 0.107568 0.080000
5.676365 0.154612 0.101134 0.030000
5.619905 -0.291548 0.099328 0.060000
5.578549 -0.742401 0.092544 0.040000
5.371733 -1.171438 0.090410 0.060000
5.150028 -1.605742 0.083217 0.120000
30.183119 8.489557 3.161119 0.040000
30.855623 4.716898 3.113850 0.230000
31.334906 1.110569 3.066694 0.020000
52.431023 -11.238474 4.680872 0.040000
44.737343 -23.071590 4.256798 0.060000
14.005055 5.504662 0.252764 0.060000
15.001160 3.893528 0.229375 0.040000
11.131006 1.498508 0.340371 0.140000
15.025780 0.523459 0.201911 0.010000
6.340132 -0.349139 0.475998 0.140000
13.693688 -2.512626 0.197148 0.030000
11.419437 -3.361478 0.228056 0.190000
5.241137 1.466491 0.109875 0.090000
5.414632 1.024735 0.108686 0.030000
5.518045 0.586638 0.107327 0.080000
5.591190 0.162983 0.100943 0.030000
5.564641 -0.277585 0.094236 0.050000
5.472789 -0.704438 0.097410 0.050000
5.331179 -1.142191 0.085413 0.070000
5.099271 -1.566707 0.083229 0.110000
29.609863 12.824216 3.210737 0.020000
17.431688 4.693966 1.943712 0.010000
31.403059 1.222278 2.962287 0.010000
11.807749 -0.817717 1.363538 0.740000
32.539196 -6.657428 2.955961 0.010000
44.910152 -22.932652 4.092764 0.020000
13.091973 5.137165 0.234014 0.060000
13.777139 3.570029 0.224977 0.050000
11.060619 1.522274 0.310275 0.130000
14.070601 0.525203 0.189424 0.010000
12.934545 -2.302091 0.185949 0.040000
11.524509 -3.359337 0.193338 0.140000
10.954486 -4.665411 0.166995 0.070000
5.191255 1.460552 0.104723 0.090000
5.334839 1.013205 0.108435 0.030000
5.443059 0.585202 0.107126 0.080000
5.540925 0.177041 0.095864 0.030000
5.484163 -0.254141 0.099113 0.060000
5.422333 -0.680382 0.092367 0.050000
5.255318 -1.098655 0.090376 0.070000
5.048431 -1.522655 0.078260 0.160000
29.602634 12.954467 3.111201 0.020000
17.018042 4.631345 1.857399 0.030000
31.381216 1.332246 2.862637 0.050000
11.847149 -0.781846 1.333773 0.820000
32.547253 -6.541887 2.856410 0.010000
33.204655 -11.110452 2.936144 0.000000
17.598639 -8.179781 1.806291 0.000000
12.387222 4.858674 0.216139 0.070000
12.960958 3.364398 0.212082 0.060000
11.035223 1.546902 0.280300 0.140000
13.240386 0.529322 0.182272 0.010000
11.839057 -2.028078 0.199108 0.030000
10.594993 -4.432200 0.151923 0.060000
5.121555 1.444215 0.104480 0.080000
5.264948 1.006865 0.108229 0.030000
5.387987 0.589166 0.101997 0.060000
5.470746 0.185698 0.095713 0.030000
5.413793 -0.235485 0.098999 0.040000
5.346772 -0.651824 0.092276 0.050000
5.204765 -1.069599 0.085352 0.090000
5.012767 -1.488332 0.078295 0.120000
29.565519 13.079164 3.006567 0.030000
16.693886 4.595424 1.776418 0.050000
31.299274 1.446045 2.767846 0.120000
11.901533 -0.745706 1.309049 0.760000
32.469666 -6.392962 2.751760 0.030000
11.751749 4.616461 0.213580 0.070000
12.388200 3.243444 0.200137 0.060000
11.159142 1.609415 0.245855 0.240000
12.649839 0.553034 0.175819 0.010000
12.164517 -0.741544 0.184740 0.080000
11.707805 -1.960488 0.174016 0.050000
10.979157 -3.079585 0.152954 0.050000
10.270768 -4.213334 0.141890 0.070000
5.066757 1.433163 0.104296 0.080000
5.224968 1.006118 0.103121 0.030000
5.292992 0.587328 0.106742 0.050000
5.415565 0.194643 0.095602 0.020000
5.343519 -0.221829 0.098866 0.030000
5.286304 -0.627978 0.092207 0.050000
5.169197 -1.040275 0.085369 0.100000
4.956915 -1.444394 0.078312 0.150000
29.602451 13.250175 2.932298 0.080000
16.493876 4.601796 1.720919 0.040000
31.322166 1.566780 2.693353 0.120000
11.935935 -0.709931 1.279272 0.540000
32.467232 -6.252635 2.657274 0.030000
11.240417 4.421670 0.201521 0.070000
11.840615 3.112952 0.193223 0.060000
11.178341 1.654882 0.221074 0.180000
12.159560 0.563665 0.169579 0.010000
11.355584 -1.847195 0.168518 0.040000
10.625966 -2.916321 0.152639 0.050000
9.992083 -4.023638 0.141868 0.070000
5.016862 1.427207 0.104144 0.070000
5.150065 0.999664 0.107902 0.030000
5.267818 0.596866 0.101712 0.050000
5.320378 0.202803 0.100384 0.020000
5.303143 -0.202599 0.098832 0.040000
5.230823 -0.604055 0.097151 0.050000
5.113536 -1.006335 0.085349 0.100000
4.941452 -1.419667 0.073364 0.160000
29.500706 13.353594 2.837416 0.130000
31.285204 1.681422 2.603682 0.130000
11.693999 -1.909612 1.229180 0.010000
10.808398 4.263405 0.189805 0.080000
11.417157 3.029864 0.181809 0.060000
11.167642 1.694776 0.196194 0.130000
11.719081 0.585251 0.163509 0.010000
11.542099 -0.618369 0.163573 0.020000
10.378438 -2.786020 0.147477 0.050000
9.703221 -3.824116 0.136856 0.070000
4.966980 1.421269 0.098991 0.060000
5.124987 1.004203 0.102853 0.030000
5.217731 0.600908 0.101596 0.030000
5.310105 0.217627 0.095413 0.010000
5.252769 -0.183560 0.098772 0.030000
5.200362 -0.579615 0.092162 0.070000
5.093074 -0.981704 0.080388 0.090000
4.905788 -1.385344 0.073398 0.140000
29.487263 13.543645 2.763086 0.130000
31.292786 1.816830 2.539205 0.120000
6.172112 -0.768843 0.859003 0.010000
13.465217 -3.796372 1.321791 0.000000
10.445670 4.141437 0.188405 0.090000
11.043473 2.957695 0.180565 0.060000
11.338686 0.602987 0.157582 0.010000
11.185741 -0.550164 0.157896 0.020000
6.278498 -0.775102 0.394253 0.020000
10.110722 -2.646104 0.142299 0.050000
9.485113 -3.663247 0.131884 0.070000
4.926988 1.420503 0.098884 0.060000
5.064998 1.003054 0.102693 0.020000
5.192461 0.615445 0.096584 0.030000
5.254924 0.226572 0.095302 0.010000
5.212489 -0.169329 0.098719 0.030000
5.164985 -0.560289 0.092142 0.070000
5.047495 -0.952590 0.085377 0.100000
4.900419 -1.365425 0.068458 0.160000
29.449673 13.688208 2.693525 0.140000
16.648325 2.824953 1.574716 0.010000
31.245390 1.951203 2.469580 0.130000
12.679423 -0.620585 1.256545 0.470000
5.986049 -0.712323 0.838728 1.000000
13.499221 -3.740619 1.297087 0.000000
13.551039 -5.665058 1.315068 0.010000
10.137465 4.045536 0.182244 0.070000
10.739406 2.906881 0.174582 0.070000
11.063080 0.632733 0.151973 0.010000
10.929652 -0.495040 0.152433 0.020000
6.242942 -0.745759 0.389269 0.060000
9.948945 -2.554168 0.137218 0.050000
9.317666 -3.536413 0.126919 0.070000
4.882092 1.414642 0.098745 0.060000
5.039811 1.012573 0.102662 0.020000
5.142362 0.619467 0.101469 0.040000
5.219643 0.240899 0.095263 0.010000
5.187220 -0.154792 0.093707 0.030000
5.139607 -0.540772 0.092148 0.060000
5.047220 -0.937575 0.080432 0.110000
4.869741 -1.331025 0.073506 0.150000
29.426373 13.867994 2.639132 0.130000
16.612057 2.894362 1.549879 0.020000
31.247644 2.101456 2.420144 0.120000
12.613447 -0.566747 1.231572 0.600000
5.945590 -0.688075 0.833712 1.000000
13.437669 -3.656691 1.272238 0.010000
13.584948 -5.604306 1.290383 0.030000
9.888771 3.975779 0.176335 0.090000
10.475139 2.866831 0.168743 0.060000
10.746661 1.746851 0.160289 0.020000
10.837643 0.653419 0.151462 0.010000
10.688560 -0.439629 0.147009 0.020000
6.217494 -0.721206 0.379294 1.000000
9.776978 -2.452425 0.132147 0.060000
9.140112 -3.404790 0.126945 0.070000
4.861917 1.424275 0.093728 0.060000
4.979918 1.006425 0.102483 0.020000
5.112189 0.628910 0.096425 0.030000
5.204372 0.255627 0.090278 0.010000
5.136833 -0.135772 0.098647 0.030000
5.114228 -0.521255 0.092155 0.080000
5.021746 -0.913058 0.080457 0.100000
4.854278 -1.306298 0.068558 0.150000
29.403166 14.042783 2.584720 0.130000
30.650845 5.845761 2.412504 0.140000
31.200115 2.240772 2.365537 0.060000
12.587450 -0.512162 1.211707 0.760000
5.910048 -0.658714 0.823728 0.120000
13.426299 -3.581804 1.247486 0.010000
13.512822 -5.490576 1.265617 0.040000
9.664963 3.911481 0.175512 0.080000
10.250660 2.837527 0.168049 0.070000
10.546520 1.753038 0.154789 0.020000
10.637023 0.684601 0.146054 0.010000
10.527536 -0.387704 0.146782 0.020000
6.207126 -0.701382 0.374341 1.000000
9.635183 -2.360124 0.132120 0.050000
9.023039 -3.296995 0.122040 0.070000
4.807010 1.418204 0.098562 0.060000
4.964633 1.021135 0.102498 0.020000
5.087002 0.638429 0.096394 0.030000
5.169174 0.264937 0.095221 0.010000
5.146556 -0.120565 0.093728 0.030000
5.073757 -0.497025 0.092139 0.080000
5.031470 -0.897851 0.075538 0.090000
4.848896 -1.286398 0.068617 0.180000
29.360128 14.207152 2.540219 0.130000
13.182574 3.909668 1.324699 0.010000
13.168018 2.324201 1.293767 0.040000
13.230094 0.915233 1.263691 0.060000
12.581628 -0.467211 1.196859 0.800000
5.894681 -0.638987 0.818762 0.110000
13.455375 -3.531183 1.232750 0.000000
9.495583 3.878249 0.169946 0.090000
10.085896 2.824387 0.162570 0.060000
10.341463 1.754111 0.154258 0.020000
10.501390 0.717027 0.140820 0.010000
10.381618 -0.340472 0.141576 0.020000
6.156465 -0.667346 0.374335 0.270000
9.528684 -2.282132 0.127132 0.050000
8.911047 -3.194122 0.122130 0.070000
4.801737 1.433124 0.093604 0.050000
4.944446 1.030750 0.102481 0.020000
5.051804 0.647738 0.101337 0.040000
5.153902 0.279665 0.090235 0.010000
5.111180 -0.101239 0.093708 0.030000
5.068470 -0.482124 0.092181 0.070000
5.005995 -0.873335 0.075563 0.080000
4.838418 -1.261594 0.068682 0.150000
29.351473 14.402131 2.510921 0.120000
13.166453 3.969407 1.314879 0.030000
13.186904 2.384629 1.279041 0.080000
13.209070 0.969876 1.253839 0.040000
12.570602 -0.412375 1.187034 0.840000
5.929400 -0.623301 0.813910 0.120000
13.418983 -3.456812 1.217932 0.000000
13.530214 -5.350108 1.236184 0.050000
9.365894 3.860763 0.169543 0.080000
9.945826 2.826705 0.162213 0.070000
10.241098 1.772192 0.154063 0.020000
10.355843 0.744244 0.140541 0.010000
10.315782 -0.296707 0.136567 0.020000
6.166188 -0.652139 0.369417 0.280000
9.422266 -2.209157 0.127126 0.050000
8.885011 -3.139592 0.117264 0.070000
4.761731 1.432340 0.098497 0.040000
4.924271 1.040383 0.097464 0.020000
5.051530 0.662754 0.096392 0.030000
5.118608 0.293973 0.095196 0.010000
5.115987 -0.091145 0.093758 0.030000
5.053090 -0.462415 0.092214 0.070000
5.005708 -0.858337 0.075618 0.050000
4.838048 -1.241579 0.063756 0.150000
29.303301 14.571348 2.481424 0.120000
13.110641 4.013401 1.299897 0.050000
13.155977 2.434082 1.269144 0.070000
13.208042 1.024903 1.244041 0.030000
12.599665 -0.361773 1.177298 0.810000
6.084549 -0.630349 0.819289 0.200000
13.468041 -3.405827 1.208249 0.000000
13.518626 -5.265260 1.221469 0.040000
9.241109 3.848371 0.169171 0.090000
9.840667 2.834711 0.156968 0.060000
10.125736 1.789986 0.153828 0.020000
10.275187 0.777706 0.140455 0.010000
10.224923 -0.253458 0.141491 0.020000
6.170817 -0.632029 0.364504 0.290000
9.376221 -2.155029 0.127207 0.050000
8.828584 -3.065660 0.117392 0.070000
4.771264 1.457545 0.093615 0.040000
4.909082 1.050094 0.097460 0.010000
5.031342 0.672369 0.096375 0.030000
5.128332 0.309181 0.090278 0.010000
5.080610 -0.071819 0.093738 0.030000
5.072907 -0.452015 0.087304 0.060000
5.020526 -0.848033 0.070695 0.050000
4.822559 -1.216890 0.068807 0.150000
29.255009 14.745527 2.461945 0.050000
13.089520 4.073043 1.290063 0.070000
13.144843 2.493897 1.264337 0.060000
12.608622 -0.306574 1.172526 0.780000
6.099259 -0.615065 0.819385 0.260000
13.416544 -3.326762 1.198408 0.000000
9.175847 3.862141 0.164052 0.090000
9.765298 2.853271 0.156840 0.070000
10.070185 1.818945 0.148791 0.020000
10.239523 0.812029 0.140490 0.010000
10.199174 -0.213925 0.136571 0.020000
6.200537 -0.616438 0.359639 0.290000
9.355362 -2.110421 0.127318 0.050000
6.133173 -1.792790 0.315090 0.070000
4.746172 1.462065 0.093566 0.040000
4.888894 1.059709 0.097443 0.020000
5.021056 0.687175 0.096404 0.030000
5.113047 0.323891 0.090293 0.010000
5.085322 -0.056726 0.093806 0.030000
5.067621 -0.437114 0.087346 0.060000
5.005050 -0.823326 0.070746 0.050000
4.837378 -1.206586 0.063884 0.170000
13.037303 6.007184 1.352117 0.010000
13.098178 4.143222 1.290347 0.060000
13.148705 2.554000 1.259571 0.050000
11.199785 0.931865 1.118452 0.010000
12.662749 -0.260529 1.172839 0.620000
6.088891 -0.595241 0.814431 0.250000
15.889362 -3.989980 1.327399 0.000000
11.356935 -4.136002 1.095023 0.030000
9.095657 3.870589 0.168874 0.090000
9.729730 2.882595 0.156856 0.060000
10.034521 1.853268 0.148825 0.020000
10.208762 0.851447 0.140556 0.010000
10.208406 -0.173741 0.136744 0.020000
9.364607 -2.070218 0.122492 0.050000
6.167974 -1.782121 0.315220 0.100000
4.721068 1.466567 0.098518 0.040000
4.893510 1.079801 0.097530 0.010000
5.000855 0.696771 0.101387 0.030000
5.117759 0.338983 0.090362 0.010000
5.090129 -0.046632 0.093856 0.030000
5.062335 -0.422213 0.087387 0.060000
5.024951 -0.817943 0.070818 0.060000
4.826983 -1.186800 0.068930 0.140000
13.050768 6.087456 1.352451 0.010000
13.101932 4.208305 1.290598 0.060000
13.142748 2.603895 1.259740 0.070000
11.243902 0.977700 1.123737 0.020000
12.701866 -0.214790 1.178111 0.400000
6.083509 -0.575341 0.814491 0.240000
13.419257 -3.206671 1.193862 0.000000
11.295425 -4.057148 1.090155 0.150000
9.099807 3.915695 0.164052 0.090000
9.709063 2.917205 0.156931 0.070000
10.033754 1.893261 0.148972 0.020000
10.223102 0.886746 0.135725 0.010000
10.242838 -0.143058 0.131948 0.020000
9.384028 -2.039841 0.122655 0.050000
4.725697 1.486678 0.093605 0.030000
4.873309 1.089398 0.102513 0.010000
5.015482 0.717073 0.096500 0.030000
5.107569 0.348790 0.090371 0.010000
5.089842 -0.031635 0.093911 0.030000
5.067046 -0.407120 0.087456 0.060000
5.009571 -0.798235 0.070852 0.060000
4.851895 -1.181304 0.064016 0.160000
13.029526 6.152060 1.352636 0.010000
13.075978 4.257817 1.290715 0.060000
13.146693 2.658980 1.259956 0.070000
11.218140 1.017214 1.123817 0.070000
12.671022 -0.170354 1.173195 0.360000
6.108203 -0.559883 0.819613 0.190000
13.428202 -3.151490 1.194090 0.000000
11.299467 -4.007061 1.090352 1.000000
9.079140 3.950305 0.164127 0.080000
9.743015 2.972883 0.152226 0.070000
10.057888 1.938731 0.149204 0.020000
10.237332 0.927025 0.135911 0.010000
10.332163 -0.106323 0.127318 0.020000
9.458739 -2.023389 0.117911 0.050000
8.931278 -2.943653 0.113114 0.070000
4.720410 1.501579 0.093646 0.030000
4.897934 1.109891 0.097654 0.010000
5.005293 0.726880 0.096510 0.030000
5.107282 0.363787 0.090426 0.010000
5.114659 -0.021140 0.089015 0.030000
5.081852 -0.396834 0.087533 0.050000
5.034374 -0.787758 0.070955 0.070000
4.856594 -1.166229 0.069084 0.150000
13.094620 4.328168 1.296025 0.050000
13.140723 2.708856 1.265125 0.070000
11.237357 1.057570 1.129017 0.180000
6.117914 -0.544695 0.819695 0.190000
16.166780 -3.854698 1.343626 0.000000
11.343761 -3.971244 1.100601 0.150000
9.112888 4.015963 0.164459 0.070000
9.801759 3.039020 0.152626 0.060000
10.116919 1.989870 0.149548 0.020000
10.326453 0.973740 0.136318 0.010000
10.351476 -0.070965 0.132500 0.020000
10.025593 -1.072401 0.132926 0.050000
9.533521 -2.011973 0.123149 0.050000
9.006155 -2.937236 0.118333 0.080000
4.729929 1.526766 0.093765 0.020000
4.892648 1.124793 0.097695 0.010000
5.029905 0.747355 0.096650 0.030000
5.131990 0.379263 0.090548 0.010000
5.109359 -0.006257 0.094056 0.030000
5.096657 -0.386549 0.087609 0.050000
5.034087 -0.772760 0.071010 0.060000
4.881507 -1.160733 0.064170 0.140000
13.078638 4.377834 1.306168 0.030000
13.134645 2.763713 1.275314 0.060000
11.136801 1.085650 1.128859 0.160000
13.259262 -0.079238 1.220070 0.130000
6.137610 -0.529333 0.824803 0.160000
13.426055 -3.041567 1.209493 0.010000
11.226675 -3.863467 1.100696 0.230000
9.205845 4.122744 0.170099 0.070000
9.870391 3.110329 0.158070 0.060000
10.225748 2.051966 0.150063 0.020000
10.405659 1.015246 0.141679 0.010000
10.485876 -0.038385 0.132971 0.020000
10.140284 -1.055202 0.133290 0.040000
9.658498 -2.009579 0.123484 0.050000
9.176903 -2.973954 0.113642 0.080000
4.739544 1.546953 0.093865 0.030000
4.897359 1.139886 0.097764 0.010000
5.034616 0.762448 0.096719 0.030000
5.136702 0.394356 0.090617 0.010000
5.129164 0.004124 0.094147 0.030000
5.121461 -0.376072 0.087713 0.030000
5.063985 -0.767187 0.071109 0.060000
4.901407 -1.155351 0.064242 0.140000
16.185062 8.206959 1.613514 0.000000
13.118746 2.808362 1.290438 0.040000
11.115999 1.125203 1.143952 0.140000
13.253457 -0.039397 1.235203 0.260000
6.142309 -0.514259 0.829872 0.160000
11.205586 -3.808916 1.115844 0.240000
9.264384 4.198860 0.175535 0.070000
10.028541 3.208375 0.158847 0.060000
10.349466 2.119328 0.155637 0.020000
10.574574 1.073492 0.142336 0.010000
10.605169 -0.001112 0.138421 0.020000
10.264960 -1.037829 0.138680 0.060000
9.808661 -2.016705 0.123850 0.050000
9.317356 -2.996269 0.113926 0.080000
4.734245 1.561836 0.098906 0.020000
4.936777 1.170646 0.097981 0.010000
5.034412 0.772427 0.101755 0.030000
5.171407 0.410023 0.090766 0.010000
5.163883 0.019810 0.089295 0.030000
5.116161 -0.361189 0.092755 0.030000
5.083886 -0.761805 0.071181 0.060000
4.906106 -1.140276 0.069310 0.140000
16.217773 8.322495 1.644029 0.000000
30.397268 7.336205 2.407383 0.230000
11.180181 1.166385 1.159273 0.230000
13.242558 0.005347 1.250341 0.190000
6.141912 -0.494281 0.834945 0.150000
13.439140 -2.946428 1.244882 0.010000
11.184510 -3.754347 1.125992 0.350000
9.426766 4.336994 0.176472 0.070000
10.176680 3.306211 0.164598 0.060000
10.532899 2.202856 0.156426 0.020000
10.778481 1.132407 0.143088 0.010000
10.784657 0.027330 0.138996 0.020000
10.454828 -1.029191 0.139207 0.060000
9.983903 -2.028369 0.129264 0.050000
9.442702 -3.013889 0.119187 0.070000
4.773580 1.597614 0.094142 0.030000
4.921576 1.180338 0.102977 0.020000
5.068939 0.798111 0.096941 0.030000
5.181105 0.425193 0.095847 0.010000
5.173676 0.029981 0.094359 0.030000
5.171069 -0.355118 0.087920 0.020000
5.103677 -0.751442 0.076271 0.050000
4.941099 -1.139606 0.069404 0.150000
29.103874 16.082191 2.651521 0.030000
30.394947 7.451015 2.452804 0.270000
11.124590 1.195289 1.169235 0.280000
6.141612 -0.479303 0.840000 0.180000
13.413038 -2.891991 1.265016 0.020000
11.259253 -3.742987 1.146229 0.150000
9.579233 4.469919 0.182364 0.080000
10.394147 3.440399 0.165664 0.050000
10.771033 2.302435 0.157418 0.020000
10.912472 1.184946 0.153633 0.010000
11.024024 0.061902 0.144749 0.020000
10.169143 -2.039841 0.134705 0.050000
9.663715 -3.064666 0.119576 0.070000
4.773280 1.612593 0.099197 0.030000
4.971004 1.211309 0.098221 0.020000
5.098646 0.813683 0.097076 0.030000
5.210908 0.435766 0.095965 0.010000
5.208478 0.040650 0.094489 0.030000
5.195968 -0.349640 0.088006 0.020000
5.143670 -0.750676 0.076378 0.060000
4.986282 -1.148742 0.069488 0.140000
29.051317 16.205969 2.716845 0.060000
30.377863 7.550467 2.518130 0.210000
11.069082 1.219175 1.184179 0.550000
6.131300 -0.464534 0.850028 0.200000
11.308877 -3.727144 1.176418 0.430000
10.621683 3.569743 0.176739 0.060000
11.029139 2.402359 0.168463 0.020000
11.011647 1.226798 0.169047 0.040000
11.298481 0.092146 0.150578 0.020000
6.408038 -0.487533 0.385660 0.030000
10.434956 -2.079758 0.135250 0.040000
4.827420 1.658656 0.094509 0.030000
4.975703 1.226383 0.103290 0.010000
5.143159 0.839540 0.097289 0.040000
5.250613 0.451529 0.096127 0.010000
5.258277 0.051605 0.094660 0.030000
5.245863 -0.343684 0.088158 0.030000
5.163557 -0.745313 0.081450 0.060000
5.026371 -1.152975 0.069577 0.140000
29.008734 16.329899 2.792195 0.090000
30.345675 7.654613 2.588434 0.190000
11.018560 1.243138 1.204137 0.590000
31.512266 0.285910 2.494086 0.290000
6.146080 -0.454286 0.860105 0.140000
11.333232 -3.696763 1.201595 0.490000
10.052316 4.834007 0.194953 0.060000
10.968265 3.751413 0.178319 0.050000
11.371775 2.528943 0.169828 0.020000
11.001118 1.251527 0.189112 0.060000
11.667933 0.124227 0.151662 0.020000
6.317441 -0.459318 0.400529 0.070000
10.146378 -3.200483 0.130331 0.070000
4.837022 1.678825 0.099609 0.030000
5.020120 1.257239 0.103520 0.020000
5.177756 0.860188 0.102456 0.040000
5.280320 0.467101 0.096262 0.010000
5.293079 0.062274 0.094791 0.030000
5.335955 -0.346941 0.083381 0.070000
5.218643 -0.749258 0.081579 0.060000
5.071458 -1.157113 0.069679 0.140000
28.996298 16.444351 2.882589 0.110000
16.489389 6.142019 1.716633 0.010000
30.343754 7.744317 2.663763 0.170000
11.018016 1.268040 1.229228 0.630000
31.515455 0.370729 2.564410 0.210000
6.175857 -0.443751 0.870222 0.150000
11.302228 -3.647422 1.221698 0.320000
11.779099 2.671751 0.176422 0.010000
11.040387 1.287212 0.209347 0.080000
12.097251 0.162419 0.162924 0.020000
6.332207 -0.449089 0.415605 0.180000
11.097010 -2.182133 0.146598 0.040000
10.538783 -3.323007 0.135900 0.050000
4.866428 1.709376 0.104800 0.030000
5.064536 1.288095 0.103751 0.020000
5.207463 0.875760 0.102591 0.050000
5.340021 0.483247 0.096478 0.010000
5.372873 0.073804 0.095042 0.030000
5.345748 -0.336770 0.088445 0.130000
5.283740 -0.752994 0.076735 0.060000
5.101535 -1.161556 0.074741 0.130000
28.963974 16.553440 2.967911 0.100000
29.698605 11.902201 2.812537 0.100000
30.321825 7.833619 2.744039 0.160000
11.032373 1.298229 1.254378 0.570000
31.513617 0.455415 2.644721 0.080000
6.190623 -0.433521 0.885299 0.130000
11.271293 -3.603116 1.251782 0.520000
10.950444 5.461300 0.204629 0.060000
11.785406 4.167081 0.196997 0.050000
10.950134 1.295375 0.239142 0.090000
12.571671 0.196493 0.169289 0.020000
6.286889 -0.435009 0.430540 0.180000
11.543734 -2.268611 0.152442 0.030000
11.102702 -3.522243 0.136631 0.100000
4.910749 1.745231 0.105049 0.030000
5.104037 1.313838 0.108950 0.020000
5.266973 0.901904 0.102844 0.070000
5.414624 0.504680 0.096752 0.020000
5.407757 0.079455 0.100154 0.050000
5.335519 -0.327019 0.103454 0.160000
5.369011 -0.766363 0.076908 0.050000
5.141611 -1.165807 0.079830 0.150000
28.956593 16.662933 3.073300 0.060000
29.661915 11.976145 2.912717 0.170000
30.290133 7.907659 2.844232 0.170000
11.126594 1.334912 1.289761 0.340000
31.506920 0.529934 2.744982 0.050000
6.190488 -0.428578 0.900317 0.150000
11.290910 -3.587866 1.286890 0.520000
11.453903 5.805967 0.217225 0.080000
12.822622 3.016724 0.200429 0.010000
10.979571 1.320833 0.269314 0.090000
6.291670 -0.424953 0.440590 0.190000
11.192799 -3.530628 0.166835 0.200000
4.979682 1.801561 0.105438 0.030000
5.158452 1.344885 0.109207 0.020000
5.321566 0.922935 0.108064 0.070000
5.464327 0.520635 0.096942 0.020000
5.477566 0.090812 0.095378 0.040000
5.465713 -0.334490 0.093766 0.100000
5.414098 -0.770501 0.077011 0.050000
5.232086 -1.189060 0.074980 0.130000
28.944584 16.752316 3.183602 0.030000
29.630234 12.050202 3.007910 0.080000
30.303457 7.982597 2.934546 0.070000
11.141129 1.355083 1.319874 0.320000
31.510426 0.594664 2.840233 0.050000
6.195269 -0.418521 0.910367 0.150000
17.883955 -3.753425 1.793490 0.000000
11.315539 -3.572502 1.317012 0.490000
11.463140 5.841022 0.252379 0.110000
12.949775 4.729388 0.227127 0.050000
10.959114 1.340335 0.299334 0.090000
14.065489 0.270060 0.188462 0.020000
6.286440 -0.415106 0.455613 0.220000
12.904298 -2.547640 0.164957 0.030000
11.136760 -3.481822 0.201871 0.250000
5.009281 1.822113 0.110592 0.030000
5.212866 1.375933 0.109465 0.020000
5.381076 0.949079 0.108317 0.090000
5.519017 0.536666 0.102144 0.020000
5.547444 0.097133 0.100584 0.040000
5.555709 -0.332748 0.089008 0.060000
5.499274 -0.778871 0.077202 0.040000
5.292349 -1.202927 0.080085 0.110000
29.613609 12.119493 3.118126 0.020000
30.311827 8.052366 3.044829 0.030000
11.135655 1.374854 1.354934 0.280000
31.484089 0.648766 2.950366 0.060000
6.175042 -0.408962 0.925350 0.210000
18.028925 -3.760925 1.868841 0.000000
11.325146 -3.557462 1.357093 0.470000
11.423017 5.840069 0.302272 0.130000
14.597285 3.570754 0.222121 0.010000
10.933848 1.349743 0.329303 0.060000
6.281210 -0.405259 0.470636 0.220000
11.121192 -3.457244 0.236922 0.270000
5.073310 1.873348 0.110949 0.030000
5.292085 1.417458 0.109826 0.030000
5.440681 0.970224 0.108551 0.090000
5.598714 0.553196 0.102413 0.020000
5.627333 0.103664 0.100817 0.050000
5.630778 -0.336329 0.094190 0.040000
5.564441 -0.787643 0.082339 0.040000
5.382920 -1.231179 0.075217 0.110000
43.449059 18.295496 4.557213 0.030000
30.280792 8.091393 3.149894 0.020000
11.130291 1.389644 1.384975 0.300000
34.796368 0.770884 3.324470 0.150000
6.174907 -0.404018 0.940368 0.210000
18.455143 -3.833105 1.959686 0.000000
11.339765 -3.542308 1.392188 0.450000
11.363114 5.828773 0.342074 0.150000
14.872855 5.626266 0.265481 0.030000
10.963451 1.365166 0.369438 0.070000
