# This PCD file was generated using the MATLAB® pcwrite function
# from Computer Vision Toolbox®.
# .PCD v.7 - Point Cloud Data file format
VERSION .7
FIELDS x y z intensity
SIZE 4 4 4 4
TYPE F F F F
COUNT 1 1 1 1
WIDTH 1286
HEIGHT 1
VIEWPOINT 0 0 0 1 0 0 0
POINTS 1286
DATA ascii
5.177321 0.100045 0.099629 0.020000
5.189711 -0.284767 0.093231 0.020000
5.107213 -0.676398 0.086559 0.040000
4.974834 -1.073967 0.074736 0.110000
7.917073 3.659680 1.065023 0.120000
7.798965 2.522382 1.015486 0.100000
11.120597 1.400156 1.194987 0.210000
31.408857 0.734283 2.420482 0.230000
11.836432 -0.986592 1.197983 0.100000
11.294772 -3.512357 1.172180 0.110000
9.599220 4.730311 0.193384 0.040000
10.479122 3.702036 0.176859 0.040000
10.941280 2.550702 0.168785 0.020000
11.008773 1.376769 0.169597 0.020000
11.305592 0.242290 0.156155 0.020000
10.957108 -0.884602 0.156056 0.050000
6.824550 -1.079533 0.349546 0.190000
9.937284 -2.989468 0.135569 0.060000
4.771829 1.687560 0.104472 0.020000
4.959734 1.276068 0.108433 0.020000
5.102374 0.878729 0.107328 0.040000
5.239657 0.501328 0.096283 0.010000
5.242405 0.096291 0.099785 0.020000
5.249987 -0.298615 0.093337 0.030000
5.172680 -0.700148 0.086642 0.040000
5.035398 -1.102812 0.074787 0.120000
7.942195 3.650068 1.090053 0.150000
7.833906 2.522978 1.035580 0.110000
11.125914 1.380163 1.219927 0.220000
31.469940 0.665093 2.515385 0.100000
7.029078 -1.132715 0.919888 0.010000
11.325455 -3.551887 1.202113 0.280000
8.136826 3.781715 0.301042 0.030000
7.811204 2.500087 0.340428 0.040000
11.444065 2.670334 0.175542 0.020000
11.103882 1.368497 0.194815 0.040000
11.785872 0.231468 0.162368 0.020000
11.403449 -0.951083 0.161974 0.050000
6.824702 -1.089587 0.364510 0.210000
4.831243 1.718703 0.104743 0.030000
5.009533 1.287023 0.108603 0.020000
5.152268 0.884686 0.107480 0.070000
5.294633 0.502363 0.101431 0.010000
5.302489 0.092441 0.099927 0.020000
5.375468 -0.321179 0.083580 0.090000
5.243159 -0.723784 0.081738 0.040000
5.096057 -1.136656 0.074819 0.100000
7.947512 3.630074 1.114993 0.180000
7.859028 2.513366 1.060610 0.060000
30.313921 7.988587 2.719594 0.040000
11.136312 1.355248 1.249861 0.350000
31.546089 0.591153 2.620310 0.070000
11.882308 -1.040962 1.262901 0.060000
6.989141 -1.138536 0.934763 0.020000
11.310845 -3.577299 1.236981 0.460000
8.176862 3.777408 0.321131 0.100000
7.861156 2.500989 0.355562 0.100000
10.949586 1.325407 0.229253 0.070000
12.346247 0.217197 0.163778 0.020000
11.975163 -1.035149 0.163154 0.050000
6.830059 -1.109524 0.374449 0.180000
10.719311 -3.349573 0.141272 0.060000
4.880947 1.734658 0.104932 0.020000
5.079137 1.308360 0.108864 0.020000
5.207162 0.890738 0.107646 0.070000
5.369632 0.503818 0.096632 0.010000
5.372668 0.083784 0.100078 0.030000
5.335437 -0.322001 0.098473 0.110000
5.298615 -0.747745 0.086794 0.040000
5.146623 -1.165693 0.074843 0.120000
7.957636 3.620175 1.139982 0.200000
30.399698 7.934854 2.819619 0.090000
11.031938 1.318151 1.274451 0.370000
31.527294 0.515450 2.709981 0.060000
11.817543 -1.057297 1.287672 0.050000
6.994389 -1.153493 0.949721 0.040000
11.296236 -3.602712 1.271849 0.510000
8.147652 3.731730 0.350885 0.130000
7.871389 2.486109 0.375534 0.190000
12.584213 2.932161 0.194492 0.010000
10.929990 1.299917 0.259107 0.080000
12.901595 0.202794 0.175174 0.020000
6.840209 -1.119387 0.389439 0.200000
11.208519 -3.565260 0.146747 0.130000
4.920639 1.750403 0.110094 0.030000
5.143837 1.324602 0.109094 0.020000
5.286956 0.902268 0.107897 0.090000
5.424705 0.499854 0.101761 0.020000
5.447859 0.075240 0.095243 0.040000
5.365705 -0.336442 0.103498 0.080000
5.389199 -0.775978 0.076925 0.040000
5.176987 -1.185133 0.079850 0.140000
7.982771 3.610581 1.160013 0.200000
30.301699 7.817644 2.903928 0.170000
11.017450 1.287776 1.299301 0.510000
31.523676 0.430017 2.804655 0.100000
13.010660 -1.224898 1.405164 0.150000
6.969546 -1.164026 0.964617 0.060000
11.281639 -3.628106 1.301717 0.410000
8.167883 3.717042 0.370883 0.210000
7.846999 2.450544 0.400338 0.190000
10.970397 1.275595 0.284122 0.060000
13.038649 -1.209886 0.185281 0.040000
6.870643 -1.143863 0.404428 0.180000
11.168818 -3.586153 0.181566 0.210000
5.009964 1.787138 0.105464 0.030000
5.198636 1.335653 0.109278 0.030000
5.351848 0.908512 0.108090 0.090000
5.514606 0.506595 0.097021 0.020000
5.513025 0.066469 0.100380 0.050000
5.506185 -0.358719 0.093782 0.060000
5.454762 -0.804728 0.076990 0.040000
5.232647 -1.219073 0.079870 0.110000
8.027698 3.611350 1.185133 0.190000
30.352892 7.743281 2.993786 0.040000
11.012865 1.262592 1.324196 0.600000
31.535069 0.344890 2.894369 0.070000
13.026224 -1.259753 1.445076 0.160000
6.949702 -1.174463 0.979527 0.080000
11.322581 -3.682478 1.341622 0.660000
8.203003 3.707621 0.395940 0.160000
7.847330 2.430474 0.420265 0.110000
14.187454 3.297875 0.215036 0.010000
11.055590 1.262114 0.314295 0.230000
14.612782 0.155521 0.189465 0.020000
13.084412 -1.254146 0.220236 0.040000
6.875878 -1.158839 0.424386 0.130000
11.098823 -3.592641 0.221360 0.100000
5.064558 1.808169 0.110684 0.040000
5.278142 1.362181 0.109584 0.030000
5.436640 0.920138 0.108354 0.090000
5.569678 0.502631 0.102150 0.020000
5.608212 0.058308 0.095598 0.050000
5.566544 -0.377585 0.098869 0.050000
5.535321 -0.833190 0.077094 0.040000
5.313495 -1.262533 0.079919 0.130000
8.043013 3.591548 1.210100 0.170000
30.339645 7.637642 3.093360 0.030000
11.018361 1.232582 1.354099 0.740000
31.531628 0.249441 2.994006 0.060000
12.991714 -1.290547 1.479872 0.180000
6.970125 -1.199149 0.999488 0.130000
11.313163 -3.717793 1.376466 0.420000
15.218127 3.532638 0.223600 0.010000
11.056087 1.232008 0.344185 0.340000
15.743612 0.122154 0.197293 0.020000
13.135077 -1.293311 0.255223 0.040000
6.926500 -1.192930 0.439392 0.080000
5.138969 1.839600 0.110995 0.050000
5.357840 1.378710 0.109853 0.030000
5.506532 0.926478 0.108560 0.090000
5.669659 0.504546 0.102418 0.020000
5.658477 0.044250 0.100677 0.050000
5.657019 -0.400838 0.094019 0.050000
5.605966 -0.866861 0.082153 0.040000
5.369238 -1.301490 0.084920 0.100000
8.054253 2.486660 1.181021 0.010000
57.277466 14.700644 5.684958 0.060000
11.068713 1.208377 1.399140 0.290000
35.177822 0.162716 3.423206 0.180000
13.022453 -1.335132 1.524787 0.170000
6.880020 -1.195911 1.009265 0.130000
11.228196 -3.724532 1.406220 0.240000
10.966874 1.185163 0.378778 0.460000
13.190920 -1.342396 0.295187 0.160000
10.873285 -3.577233 0.295829 0.100000
5.208560 1.860918 0.116256 0.050000
5.432525 1.395125 0.115109 0.030000
5.601322 0.938295 0.108852 0.100000
5.739742 0.500887 0.102587 0.030000
5.753651 0.036072 0.100895 0.060000
5.732471 -0.424415 0.099128 0.050000
5.691621 -0.900227 0.082253 0.040000
5.445086 -1.345045 0.084956 0.130000
8.129052 2.492965 1.216241 0.030000
57.290684 14.500001 5.919249 0.070000
11.158962 1.189937 1.444308 0.430000
34.964779 0.043211 3.532207 0.240000
6.880338 -1.216000 1.034192 0.180000
11.173498 -3.745711 1.440999 0.310000
13.129900 2.876961 0.370713 0.010000
10.907560 1.143891 0.413470 0.330000
13.319592 0.025108 0.355607 0.020000
10.768105 -3.574393 0.335566 0.090000
5.317689 1.908035 0.111716 0.050000
5.532123 1.417036 0.115451 0.030000
5.701112 0.950209 0.109157 0.090000
5.844818 0.497899 0.102850 0.030000
5.834006 0.017589 0.106037 0.050000
5.822933 -0.447687 0.099278 0.050000
5.757266 -0.933994 0.087299 0.040000
5.510936 -1.388792 0.084965 0.130000
8.065079 2.436675 1.230864 0.030000
57.289749 14.259189 6.123353 0.080000
11.169552 1.155024 1.474206 0.300000
36.572056 -0.096985 3.795884 0.170000
6.850496 -1.226629 1.049075 0.240000
11.194444 -3.800466 1.480850 0.270000
13.041885 6.420773 0.418657 0.060000
13.084702 4.446207 0.421429 0.030000
150.493027 38.069481 -2.024934 1.130000
11.132631 1.138091 0.444036 0.100000
13.307606 -1.440472 0.375127 0.060000
10.708395 -3.595687 0.375331 0.130000
5.416987 1.944925 0.117113 0.050000
5.626722 1.438852 0.115779 0.040000
5.810900 0.962313 0.109488 0.090000
5.954893 0.495007 0.103127 0.030000
5.944273 0.004698 0.106276 0.060000
5.913491 -0.475958 0.099409 0.050000
5.812926 -0.967934 0.087318 0.040000
5.612163 -1.451864 0.084995 0.140000
57.278965 14.013260 6.307413 0.080000
37.509373 -0.239866 4.017801 0.170000
6.860921 -1.251507 1.069009 0.330000
14.748210 5.058083 0.453046 0.050000
13.141470 2.781817 0.465390 0.010000
13.261093 -0.066359 0.445115 0.010000
10.663778 -3.621693 0.415118 0.200000
5.531104 1.992118 0.117586 0.060000
5.736209 1.465935 0.121165 0.040000
5.915771 0.969305 0.114788 0.110000
6.089868 0.497592 0.103489 0.030000
6.054636 -0.013191 0.106498 0.050000
6.019129 -0.508959 0.104562 0.050000
5.923755 -1.010837 0.092448 0.040000
5.683095 -1.500533 0.089999 0.130000
57.283115 13.762397 6.551494 0.080000
11.175806 1.079874 1.543944 0.320000
35.051517 -0.361611 3.915932 0.260000
40.898701 -5.457600 4.477257 0.040000
6.851254 -1.271769 1.088909 0.330000
11.342413 -3.968029 1.580614 0.300000
13.069098 6.290886 0.523246 0.030000
14.729603 4.977510 0.507698 0.170000
11.223773 1.069567 0.514020 0.270000
13.378866 -3.079617 0.429221 0.040000
10.644361 -3.657199 0.449936 0.280000
5.635509 2.024124 0.117978 0.070000
5.875621 1.498629 0.116651 0.040000
6.070468 0.987289 0.110259 0.120000
6.190028 0.489491 0.108720 0.030000
6.179996 -0.030793 0.106760 0.050000
6.134778 -0.541750 0.104742 0.050000
6.009588 -1.054219 0.097511 0.050000
5.804523 -1.573202 0.085046 0.120000
44.189507 16.570631 5.572744 0.070000
57.272785 13.486307 6.780443 0.080000
11.181479 1.039847 1.578810 0.110000
34.964001 -0.508753 4.035158 0.370000
40.350365 -5.563487 4.575433 0.030000
6.846682 -1.296934 1.108804 0.320000
11.313176 -4.013743 1.620369 0.370000
13.153233 2.676675 0.560031 0.000000
11.089748 1.011844 0.553456 0.100000
13.262679 -0.161675 0.534766 0.010000
13.320113 -1.590773 0.514603 0.010000
10.604935 -3.693107 0.489700 0.300000
5.769526 2.076699 0.118523 0.070000
6.039837 1.541800 0.112240 0.040000
6.200252 0.999777 0.110644 0.100000
6.365104 0.487862 0.104171 0.030000
6.320448 -0.053107 0.107044 0.050000
6.295623 -0.583658 0.100006 0.040000
6.135728 -1.111796 0.092626 0.040000
5.880549 -1.626774 0.090045 0.120000
46.291656 24.964092 6.504443 0.040000
44.357391 16.393063 5.777525 0.080000
57.257542 13.205104 7.014360 0.080000
11.112360 0.988386 1.613439 0.160000
35.531712 -0.673661 4.241029 0.380000
12.656151 -1.563012 1.747986 0.010000
6.816923 -1.312580 1.128668 0.310000
11.304006 -4.064111 1.670158 0.460000
13.081491 6.150695 0.632759 0.030000
14.751873 4.842473 0.627256 0.130000
29.990868 6.614931 0.593622 0.020000
11.115310 0.977181 0.593394 0.100000
15.089642 -0.251830 0.574200 0.030000
31.622063 -4.380479 0.477005 0.080000
13.421102 -3.209179 0.523850 0.050000
10.620977 -3.752957 0.529520 0.240000
5.903638 2.124276 0.119050 0.080000
6.194233 1.574763 0.112765 0.050000
6.394845 1.023526 0.106240 0.130000
6.505174 0.485544 0.104528 0.030000
6.510918 -0.074427 0.097461 0.060000
6.456469 -0.625567 0.095270 0.040000
6.261854 -1.169390 0.092741 0.050000
6.062650 -1.733268 0.080125 0.150000
46.272106 24.652966 6.693237 0.040000
44.728497 16.309385 5.988184 0.070000
57.242252 12.928974 7.228296 0.070000
11.103132 0.943073 1.648247 0.210000
35.614262 -0.827676 4.395673 0.250000
12.536656 -1.595435 1.782554 0.040000
6.807256 -1.332842 1.148568 0.280000
11.289945 -4.119555 1.714916 0.240000
13.063076 6.060125 0.687375 0.020000
14.792871 4.783046 0.682142 0.120000
13.135204 2.560980 0.649555 0.000000
11.140980 0.937537 0.628314 0.120000
12.830436 -1.625505 0.608196 0.040000
7.155747 -1.434151 0.594095 0.030000
10.586454 -3.783771 0.569316 0.210000
6.077264 2.197614 0.119776 0.090000
6.388335 1.623489 0.113453 0.050000
6.544612 1.036378 0.111679 0.120000
6.700246 0.484298 0.100033 0.030000
6.656453 -0.101663 0.102740 0.060000
6.632394 -0.672206 0.095556 0.040000
6.403060 -1.231715 0.097878 0.050000
6.078169 -1.763050 0.100055 0.210000
46.341335 24.403479 6.902493 0.020000
44.891479 16.126724 6.192933 0.070000
57.261906 12.653440 7.462325 0.070000
11.133789 0.903506 1.688180 0.200000
36.362392 -1.014169 4.611935 0.230000
12.602759 -1.659363 1.832489 0.090000
6.792698 -1.358180 1.163436 0.270000
14.814078 4.713256 0.731939 0.080000
13.215838 2.522352 0.694622 0.000000
11.156748 0.892703 0.663189 0.100000
13.260298 -0.317243 0.669182 0.010000
7.045620 -1.431333 0.613818 1.000000
10.602701 -3.853600 0.604099 0.190000
6.246083 2.260859 0.120451 0.090000
6.552633 1.661642 0.114024 0.060000
6.734207 1.060032 0.107261 0.150000
6.845397 0.477058 0.105385 0.040000
6.847005 -0.128000 0.098140 0.060000
6.768327 -0.719611 0.095735 0.050000
6.569479 -1.303522 0.093045 0.050000
6.108809 -1.797505 0.110007 0.180000
42.121452 21.803650 6.486809 0.050000
45.531025 16.117962 6.469573 0.110000
57.236881 12.362084 7.686179 0.080000
11.154460 0.863767 1.723087 0.180000
35.844883 -1.159381 4.685045 0.110000
6.823298 -1.392692 1.188388 0.270000
13.125295 5.930927 0.787058 0.030000
14.820262 4.643142 0.791695 0.230000
15.143984 2.889106 0.766019 0.010000
11.212508 0.848634 0.698171 0.120000
14.832652 -0.432334 0.722859 0.020000
11.688537 -1.547636 0.680506 0.100000
7.005863 -1.447170 0.633656 1.000000
10.613745 -3.913546 0.643905 0.180000
6.439801 2.329581 0.121212 0.120000
6.731929 1.700083 0.114635 0.060000
6.904079 1.068287 0.107736 0.140000
7.050564 0.471005 0.100898 0.040000
6.982542 -0.155427 0.103391 0.060000
6.949347 -0.771153 0.096016 0.040000
6.730982 -1.380443 0.093181 0.050000
42.176010 21.538933 6.680969 0.060000
45.619892 15.888890 6.668955 0.070000
57.241852 12.071303 7.910113 0.080000
11.190103 0.824278 1.768033 0.120000
35.707649 -1.322496 4.809082 0.280000
11.661672 -1.607267 1.800226 0.020000
6.768461 -1.403799 1.203203 0.340000
14.856358 4.578620 0.846550 0.230000
12.716628 -0.402964 0.747445 0.040000
11.619020 -1.579119 0.720208 0.140000
6.971105 -1.462912 0.653507 1.000000
10.634895 -3.978281 0.678720 0.110000
6.603716 2.387731 0.121856 0.130000
6.916224 1.738619 0.115259 0.060000
7.103755 1.087114 0.108327 0.120000
7.235804 0.459532 0.106339 0.040000
7.173177 -0.186782 0.103772 0.060000
7.110467 -0.828078 0.096225 0.030000
6.877379 -1.452670 0.098295 0.050000
6.609625 -2.092875 0.085216 0.120000
49.069443 24.907074 7.931496 0.050000
44.234180 15.132273 6.647525 0.060000
57.196953 11.774602 8.123896 0.150000
11.230853 0.779904 1.807975 0.120000
35.590408 -1.485229 4.933172 0.220000
11.657527 -1.657502 1.840029 0.050000
6.789062 -1.438503 1.228128 0.260000
13.058675 5.739232 0.891172 0.050000
14.942143 4.530035 0.906594 0.230000
15.101497 2.742881 0.870366 0.020000
12.637484 -0.454654 0.792047 0.060000
11.599878 -1.629641 0.759971 0.320000
6.936442 -1.483653 0.673339 0.310000
6.812335 2.461739 0.122676 0.110000
7.130417 1.782729 0.115982 0.060000
7.293514 1.100732 0.113873 0.130000
7.435958 0.453364 0.106838 0.050000
7.388903 -0.222656 0.104202 0.060000
7.291474 -0.879638 0.101506 0.030000
7.043881 -1.529495 0.098444 0.050000
6.776702 -2.199694 0.085255 0.110000
43.789352 21.817680 7.286223 0.020000
44.407158 14.949801 6.852301 0.080000
57.112118 11.472081 8.352551 0.080000
11.638288 -1.703025 1.879810 0.030000
6.794584 -1.468475 1.248031 0.270000
14.993140 4.470799 0.961507 0.250000
12.643336 -0.504697 0.831877 0.170000
11.580652 -1.675146 0.794752 0.310000
6.916777 -1.504107 0.693212 0.400000
7.025941 2.535825 0.128509 0.120000
7.339611 1.826743 0.116692 0.050000
7.508283 1.114848 0.114486 0.120000
7.651205 0.442485 0.107359 0.040000
7.609628 -0.258436 0.104645 0.050000
7.492778 -0.945795 0.101785 0.030000
7.074603 -1.568969 0.113377 0.110000
6.954064 -2.321318 0.085266 0.110000
41.928150 20.572182 7.176733 0.060000
44.644894 14.778518 7.072287 0.100000
41.227276 7.944663 6.272954 0.080000
51.635239 -2.712145 7.420519 0.080000
11.619050 -1.748549 1.919591 0.040000
6.739651 -1.474584 1.262866 0.180000
43.667416 -20.576101 6.843308 0.090000
13.076272 5.589158 0.995661 0.020000
12.634287 -0.560027 0.871648 0.090000
11.596600 -1.729997 0.834590 0.270000
6.927285 -1.534002 0.718129 0.420000
13.520507 -5.573958 0.860323 0.040000
7.269267 2.625501 0.129478 0.110000
7.568789 1.871122 0.122455 0.050000
7.718039 1.128849 0.120085 0.120000
7.861440 0.431491 0.112867 0.040000
7.795347 -0.294903 0.109995 0.050000
7.689070 -1.012066 0.107051 0.030000
7.120405 -1.613173 0.133333 0.080000
7.095928 -2.418655 0.095274 0.110000
41.333729 20.005459 7.238076 0.030000
44.837883 14.596448 7.272116 0.050000
42.341259 7.964864 6.585940 0.030000
49.582310 -2.826133 7.319735 0.120000
6.704906 -1.490307 1.277717 0.170000
43.556759 -20.828924 7.022081 0.100000
7.654409 2.785357 0.826084 0.000000
15.224234 4.399791 1.076848 0.100000
13.251726 2.176970 0.968435 0.000000
13.218903 0.761165 0.943086 0.010000
12.695212 -0.614035 0.916607 0.080000
11.722799 -1.797757 0.879668 0.360000
6.897539 -1.549630 0.732993 0.440000
7.502689 2.709986 0.130401 0.120000
7.792967 1.915405 0.128205 0.050000
7.977607 1.153825 0.120856 0.120000
8.076770 0.415593 0.118370 0.030000
8.021167 -0.335586 0.110433 0.040000
7.850176 -1.069008 0.112260 0.030000
7.288480 -2.549991 0.095289 0.100000
41.219624 19.677721 7.371561 0.090000
45.239449 14.488332 7.487764 0.060000
40.810760 7.465757 6.500089 0.070000
49.546185 -3.052489 7.488801 0.090000
6.715427 -1.520184 1.297633 0.110000
43.581776 -21.119249 7.226070 0.110000
7.650112 2.745176 0.850924 0.020000
15.389442 4.382751 1.132216 0.090000
15.076237 2.466597 1.074275 0.000000
31.290087 1.830282 1.584238 0.010000
12.716063 -0.663791 0.956477 0.050000
11.688590 -1.843530 0.909409 0.340000
6.913154 -1.584410 0.752905 0.260000
13.523408 -5.739299 0.959717 0.040000
7.780913 2.805331 0.131482 0.110000
8.047057 1.965280 0.129054 0.050000
8.207468 1.163229 0.121491 0.090000
8.382013 0.406456 0.114133 0.040000
8.272174 -0.385788 0.110901 0.040000
8.041469 -1.135375 0.117513 0.030000
7.831291 -1.909500 0.104086 0.040000
7.465842 -2.671616 0.095299 0.080000
41.189388 19.406507 7.530476 0.090000
44.339302 13.960871 7.518455 0.030000
41.321884 7.379688 6.731105 0.070000
40.675201 -2.668244 6.357062 0.100000
44.299042 -21.796787 7.540427 0.100000
13.104815 3.563980 1.088209 0.080000
15.097252 2.406806 1.124108 0.010000
31.282402 1.694726 1.688715 0.040000
11.719439 -1.893095 0.949305 0.280000
7.979700 2.869113 0.142238 0.140000
8.296135 2.015041 0.134889 0.050000
8.487020 1.188569 0.127315 0.090000
8.637336 0.391325 0.119743 0.030000
8.558079 -0.430320 0.111482 0.030000
8.318047 -1.215092 0.117938 0.030000
8.038252 -2.010573 0.109251 0.030000
7.673569 -2.812680 0.100317 0.080000
41.094406 19.124125 7.669179 0.070000
45.470806 14.106319 7.861952 0.050000
41.489491 7.222265 6.895959 0.050000
40.193497 2.092840 6.518505 0.010000
42.070061 -2.957865 6.709630 0.040000
44.233089 -22.033752 7.719376 0.090000
15.888914 4.396842 1.263574 0.070000
15.068373 2.341057 1.173789 0.010000
31.289509 1.569437 1.798269 0.030000
13.510653 -5.869915 1.054199 0.010000
8.322253 3.000715 0.138621 0.120000
8.609831 2.086061 0.135972 0.050000
8.771679 1.209024 0.128134 0.100000
8.937568 0.382073 0.120493 0.030000
8.854077 -0.479660 0.112071 0.040000
8.549536 -1.290672 0.118262 0.040000
8.280506 -2.125954 0.109454 0.030000
7.861121 -2.944112 0.100318 0.100000
41.256519 18.991583 7.839111 0.070000
47.342125 14.510489 8.343344 0.050000
40.315834 1.949571 6.678293 0.000000
42.067642 -3.113489 6.859047 0.110000
44.247944 -22.314232 7.913373 0.100000
7.815364 2.723062 0.926274 0.020000
13.141515 3.464372 1.167935 0.030000
15.179001 2.303004 1.218937 0.010000
31.316652 1.444586 1.892877 0.050000
11.987331 -0.748055 1.034262 0.040000
13.542159 -5.954491 1.098967 0.030000
8.610461 3.096233 0.144729 0.150000
8.898818 2.141605 0.136933 0.040000
9.066336 1.229671 0.128980 0.090000
9.267889 0.368397 0.121304 0.030000
9.125068 -0.529497 0.117594 0.030000
8.861394 -1.384716 0.118726 0.030000
8.492466 -2.226931 0.114632 0.030000
8.013270 -3.056254 0.110299 0.070000
41.091999 18.687956 7.952555 0.100000
11.209429 1.593500 2.120947 0.010000
40.213741 1.782201 6.782406 0.030000
42.165775 -3.297192 7.008622 0.060000
45.100899 -23.029251 8.247946 0.050000
7.766375 2.667040 0.945938 0.020000
13.236094 1.920892 1.167444 0.020000
13.218006 0.520408 1.132191 0.010000
11.917841 -0.779502 1.063964 0.040000
9.227498 2.212894 0.143056 0.040000
9.405780 1.261159 0.134983 0.090000
9.618111 0.360103 0.122188 0.030000
9.441158 -0.583453 0.118218 0.030000
6.857906 -0.983620 0.279989 0.070000
8.754909 -2.351926 0.114853 0.030000
8.200809 -3.187704 0.115300 0.070000
41.105286 18.497683 8.086884 0.100000
11.190038 1.558031 2.145765 0.030000
40.116249 1.634905 6.891605 0.030000
42.613991 -3.489393 7.214079 0.100000
6.986094 -1.045301 1.405106 0.000000
11.293425 -3.321016 2.172898 0.030000
44.852741 -23.144464 8.366871 0.060000
7.791605 2.652447 0.965950 0.110000
16.394264 4.360927 1.424761 0.120000
31.365389 1.224821 2.072189 0.050000
11.848364 -0.810930 1.088666 0.090000
13.369231 -2.417343 1.156665 0.040000
6.769218 -1.652472 0.832277 0.040000
13.549523 -6.089685 1.183485 0.020000
9.206504 3.307667 0.152071 0.120000
9.516390 2.273438 0.144035 0.040000
9.720338 1.287188 0.135901 0.100000
9.848534 0.339494 0.127712 0.030000
9.672061 -0.629057 0.123651 0.030000
6.833063 -0.994153 0.294885 0.100000
8.997149 -2.467326 0.120056 0.030000
8.433832 -3.343269 0.115330 0.070000
41.693222 18.578094 8.323719 0.100000
11.285298 1.539706 2.185946 0.070000
41.237476 1.540280 7.189183 0.020000
42.000778 -3.591229 7.232100 0.090000
7.026610 -1.074604 1.425103 0.000000
11.289114 -3.361216 2.202737 0.050000
44.811367 -23.355862 8.520979 0.070000
7.702938 2.580700 0.975452 0.110000
31.366987 1.129523 2.156839 0.050000
11.843957 -0.846130 1.118524 0.080000
6.714106 -1.648564 0.842148 0.090000
13.570661 -6.154439 1.223300 0.020000
9.504519 3.413375 0.158241 0.110000
10.044894 1.313408 0.136845 0.080000
10.108869 0.324477 0.128336 0.030000
9.953062 -0.678684 0.124200 0.030000
6.823313 -1.009397 0.309803 1.000000
9.309978 -2.611342 0.115337 0.030000
8.712326 -3.522967 0.115388 0.070000
7.775116 2.624358 1.720810 0.010000
11.196152 1.492953 2.195539 0.230000
39.166664 1.336482 6.938017 0.020000
42.914444 -3.809704 7.488676 0.090000
7.021859 -1.089752 1.440035 0.010000
11.249548 -3.387051 2.222538 0.040000
44.754574 -23.542477 8.655138 0.070000
7.723169 2.566011 0.995450 0.320000
13.104811 3.273140 1.302130 0.060000
11.229379 1.472454 1.140539 0.000000
13.249956 0.405651 1.226848 0.010000
11.834481 -0.876390 1.138387 0.110000
13.375689 -2.502473 1.221366 0.030000
6.699358 -1.663904 0.857053 0.130000
13.556530 -6.204847 1.258076 0.030000
10.084341 2.384298 0.155929 0.040000
10.289740 1.323081 0.142521 0.080000
10.384174 0.309710 0.139000 0.030000
10.138864 -0.720170 0.134531 0.030000
6.793471 -1.020026 0.324686 0.180000
9.496847 -2.707798 0.120467 0.030000
8.915067 -3.664109 0.115393 0.060000
7.810153 2.619955 1.740886 0.020000
50.399982 14.479554 9.576223 0.020000
39.902988 1.244798 7.149601 0.030000
42.901569 -3.935358 7.593176 0.230000
44.636906 -23.680140 8.759320 0.020000
7.698722 2.535501 1.005273 0.340000
11.244790 1.447653 1.165487 0.030000
13.230565 0.370182 1.251666 0.020000
11.834991 -0.906478 1.163277 0.120000
6.704713 -1.683841 0.866992 0.040000
13.552411 -6.255044 1.287879 0.030000
10.145265 3.640668 0.165759 0.110000
10.393229 2.445224 0.156962 0.030000
10.599298 1.349014 0.143425 0.080000
10.714604 0.291054 0.134793 0.030000
10.369862 -0.770773 0.139946 0.030000
6.818823 -1.039580 0.334680 0.190000
9.713998 -2.818677 0.125621 0.030000
9.102702 -3.800558 0.120376 0.060000
7.741208 2.563606 1.745496 0.050000
50.412613 14.324292 9.705681 0.120000
39.495289 1.116857 7.178061 0.040000
42.628296 -4.035811 7.647090 0.240000
6.992291 -1.115397 1.459862 0.020000
11.366534 -3.500106 2.297424 0.020000
7.689260 2.505260 1.020136 0.330000
11.180433 1.411360 1.180184 0.080000
11.840500 -0.936469 1.188180 0.130000
10.453278 3.746567 0.171957 0.090000
10.819231 1.353190 0.154015 0.090000
10.974913 0.276000 0.145417 0.030000
10.640852 -0.820610 0.145468 0.030000
6.814086 -1.054710 0.344611 0.200000
9.941146 -2.929365 0.130803 0.030000
9.391289 -3.985064 0.120443 0.060000
7.741565 2.543573 1.755423 0.150000
50.460342 14.164720 9.830214 0.060000
11.202597 1.407805 2.265240 0.050000
38.957687 0.986538 7.176174 0.030000
42.705666 -4.174776 7.761776 0.150000
6.942383 -1.121372 1.464710 0.020000
11.372234 -3.540095 2.322291 0.030000
11.318196 -5.171822 2.426085 0.010000
7.729296 2.500952 1.040225 0.320000
11.126062 1.375239 1.199908 0.120000
31.408121 0.769184 2.445610 0.010000
11.831011 -0.966748 1.213043 0.120000
10.736679 3.831992 0.178014 0.100000
11.001078 2.561850 0.168983 0.040000
11.059173 1.357768 0.159658 0.170000
11.235426 0.250966 0.151004 0.030000
10.856853 -0.871501 0.150843 0.030000
6.844533 -1.079168 0.354600 0.140000
10.148298 -3.040436 0.135931 0.030000
9.563831 -4.116801 0.125404 0.050000
7.702325 2.502796 1.760169 0.190000
11.277887 1.389134 2.295368 0.140000
38.819870 0.863676 7.230358 0.040000
42.372334 -4.271341 7.805548 0.140000
6.922648 -1.136789 1.474601 0.090000
11.362842 -3.575373 2.347135 0.050000
11.283725 -5.202561 2.445881 0.000000
7.779247 2.501854 1.055359 0.300000
11.121586 1.345074 1.219785 0.130000
31.404896 0.668903 2.500230 0.000000
11.881620 -1.000858 1.233048 0.070000
7.044253 -1.142444 0.924892 0.000000
11.345068 -3.531507 1.202240 0.130000
34.476925 -18.246944 2.802935 0.010000
11.354848 2.628618 0.175154 0.030000
11.104496 1.338559 0.179705 0.360000
11.570843 0.232386 0.151810 0.020000
11.133046 -0.931222 0.151342 0.030000
6.849806 -1.094088 0.359558 0.170000
10.355451 -3.151506 0.141059 0.020000
9.761656 -4.263057 0.130377 0.050000
7.722557 2.488107 1.780167 0.150000
11.153773 1.341748 2.294868 0.260000
38.761890 0.747270 7.304774 0.050000
42.334721 -4.407379 7.884945 0.180000
6.867659 -1.137842 1.474454 0.160000
11.323289 -3.601190 2.361936 0.050000
7.819393 2.492566 1.070429 0.290000
30.370623 7.899639 2.724411 0.050000
11.072322 1.304068 1.234504 0.240000
31.496613 0.570385 2.570103 0.000000
11.912329 -1.040350 1.252982 0.060000
7.019436 -1.152940 0.929788 0.010000
11.320608 -3.562036 1.217063 0.210000
34.469917 -18.412346 2.867303 0.010000
7.821464 2.485245 0.350400 0.030000
11.524708 2.636854 0.180628 0.030000
11.020322 1.291865 0.199312 0.370000
11.731457 0.200420 0.162111 0.030000
11.349034 -0.982131 0.161717 0.030000
6.845165 -1.114217 0.369471 0.160000
10.517419 -3.253441 0.146103 0.020000
9.924199 -4.394985 0.135310 0.060000
7.733008 2.463267 1.790102 0.110000
11.064665 1.295052 2.289461 0.430000
39.703846 0.624518 7.516779 0.030000
42.422806 -4.575942 7.944549 0.170000
6.858031 -1.158049 1.479354 0.190000
11.283858 -3.631969 2.366719 0.050000
30.372965 7.774588 2.743953 0.140000
11.087977 1.269344 1.239416 0.380000
31.518799 0.455771 2.574735 0.000000
12.950318 -1.195737 1.320114 0.080000
6.984744 -1.168589 0.924639 1.000000
11.281217 -3.592760 1.206846 0.210000
20.109953 -10.317191 1.839901 0.000000
7.896380 2.491717 0.340620 0.090000
11.396099 2.564415 0.170023 0.030000
10.941142 1.250397 0.183951 0.490000
11.492103 0.165867 0.151357 0.020000
11.038926 -0.978033 0.150922 0.030000
10.175280 -3.144974 0.145613 0.020000
9.565830 -4.221800 0.130019 0.050000
11.050239 1.269899 2.254330 0.390000
40.150513 0.548224 7.472661 0.060000
42.624947 -4.671721 7.844719 0.120000
6.838087 -1.158358 1.459300 0.220000
11.258967 -3.632299 2.326652 0.040000
30.294348 7.718513 2.623538 0.220000
11.028380 1.253346 1.199200 0.400000
31.504362 0.440877 2.469641 0.010000
12.970598 -1.205222 1.285132 0.070000
6.979784 -1.168629 0.909626 0.090000
11.301496 -3.602244 1.171863 0.200000
7.832019 2.460552 0.320335 0.090000
10.926224 1.250221 0.153911 0.210000
10.947218 0.155448 0.144896 0.030000
10.557784 -0.922219 0.144874 0.030000
9.747031 -2.978110 0.135115 0.030000
9.141118 -3.979891 0.129809 0.060000
11.045331 1.269934 2.219317 0.380000
40.395725 0.553288 7.373319 0.070000
42.259438 -4.617905 7.623963 0.180000
6.843138 -1.158187 1.439314 0.320000
11.274069 -3.631863 2.286693 0.050000
7.854874 2.473389 1.030450 0.040000
30.349133 7.744952 2.518778 0.050000
11.023376 1.258380 1.164206 0.640000
13.294046 0.186292 1.271149 0.000000
13.010695 -1.204307 1.245239 0.100000
6.934557 -1.154419 0.889561 0.140000
11.241036 -3.573251 1.131813 0.190000
13.658785 -6.588103 1.296918 0.010000
7.841891 2.470835 0.295399 0.110000
10.341292 2.284183 0.161228 0.030000
10.522119 0.157325 0.138794 0.030000
10.146724 -0.870064 0.138995 0.030000
9.399139 -2.829728 0.129758 0.020000
8.776887 -3.761810 0.124669 0.060000
7.753174 2.463891 1.725157 0.020000
11.050229 1.280158 2.184367 0.430000
39.855427 0.598865 7.122075 0.030000
42.158669 -4.554182 7.448935 0.230000
6.853079 -1.152941 1.424359 0.380000
11.283967 -3.621544 2.251757 0.050000
11.310942 -5.306765 2.365564 0.000000
7.884550 2.494053 1.005604 0.140000
13.094495 3.027881 1.306191 0.050000
11.018277 1.268412 1.129229 0.520000
16.358160 0.244545 1.399365 0.000000
12.995515 -1.189448 1.205255 0.090000
6.959604 -1.153866 0.869628 0.180000
11.205560 -3.543797 1.096829 0.230000
13.648330 -6.558133 1.252002 0.010000
9.948117 2.186672 0.149839 0.030000
10.132944 1.155066 0.136487 0.080000
10.101923 0.164297 0.132723 0.030000
9.830851 -0.826069 0.128334 0.030000
9.478618 -1.758016 0.133950 0.020000
9.101717 -2.705384 0.124444 0.030000
8.498503 -3.587092 0.119592 0.050000
7.748144 2.468888 1.700162 0.060000
11.040132 1.290094 2.149377 0.480000
39.709900 0.646654 6.966871 0.050000
42.253044 -4.501870 7.314374 0.250000
6.847941 -1.142964 1.404382 0.380000
11.318943 -3.615763 2.221869 0.050000
11.325743 -5.291350 2.330659 0.010000
7.815012 2.472809 0.980343 0.150000
13.089217 3.047930 1.266251 0.020000
11.018068 1.283521 1.099285 0.580000
13.243690 0.215626 1.191125 0.010000
6.999636 -1.153044 0.854735 0.210000
11.215362 -3.528478 1.061911 0.270000
11.246530 -5.158260 1.080935 0.010000
9.275119 3.118930 0.156548 0.090000
9.544917 2.088933 0.148423 0.030000
9.713789 1.107031 0.135214 0.080000
9.786803 0.168281 0.126915 0.030000
9.464769 -0.773071 0.127575 0.020000
9.186961 -1.673569 0.128502 0.020000
8.784010 -2.566425 0.119131 0.030000
8.179729 -3.393163 0.119481 0.060000
7.762906 2.484246 1.680257 0.120000
11.059822 1.310585 2.119505 0.420000
42.872177 0.765863 7.350573 0.020000
43.033718 -4.526850 7.296319 0.100000
6.857882 -1.137718 1.389428 0.310000
11.333744 -3.600348 2.186965 0.050000
7.740474 2.451469 0.955069 0.180000
7.039763 -1.157221 0.839824 0.150000
11.220069 -3.508256 1.026999 0.250000
11.231062 -5.128405 1.041005 0.010000
8.947494 2.992651 0.150223 0.080000
9.186518 2.002054 0.147165 0.030000
9.349528 1.065047 0.134107 0.070000
9.441676 0.171672 0.126027 0.030000
9.208968 -0.732944 0.122056 0.020000
8.855203 -1.584907 0.127966 0.020000
8.446185 -2.422888 0.123783 0.030000
7.946911 -3.247577 0.114414 0.050000
7.792461 2.509872 1.665429 0.050000
11.184250 1.343011 2.109950 0.480000
43.015850 0.854089 7.226274 0.040000
6.872823 -1.132376 1.374486 0.370000
11.353544 -3.584838 2.152074 0.050000
7.720351 2.461177 0.930053 0.240000
13.143266 3.109269 1.186620 0.010000
11.127342 1.330842 1.039745 0.080000
31.496941 0.642751 1.930367 0.000000
11.897318 -1.009844 1.038054 0.040000
7.054621 -1.146862 0.819901 0.090000
11.254962 -3.497457 0.992129 0.160000
8.649574 2.881944 0.144034 0.100000
8.848031 1.920575 0.140978 0.030000
8.970174 1.027775 0.132978 0.070000
9.091455 0.179966 0.125143 0.030000
8.888070 -0.689082 0.121382 0.030000
6.845081 -1.093794 0.254546 0.010000
8.199040 -2.312584 0.118548 0.030000
7.724174 -3.106818 0.114356 0.060000
7.792239 2.524962 1.640485 0.070000
50.393974 13.857152 8.803886 0.020000
11.213844 1.368692 2.080122 0.370000
39.961807 0.862892 6.593329 0.020000
43.677422 -4.423734 7.088381 0.050000
6.897762 -1.126842 1.359572 0.370000
11.383438 -3.574135 2.117191 0.030000
7.705324 2.465982 0.905031 0.340000
13.147986 3.129510 1.146707 0.040000
11.127037 1.350950 1.009819 0.100000
31.436077 0.701981 1.825427 0.020000
11.861937 -0.985389 1.003052 0.050000
13.610958 -6.408125 1.062460 0.010000
8.326935 2.755743 0.142723 0.100000
8.544333 1.849746 0.139922 0.040000
8.665709 0.996939 0.132069 0.080000
8.781321 0.184027 0.124349 0.030000
8.562063 -0.640336 0.125712 0.030000
6.834835 -1.078932 0.239574 0.030000
7.956882 -2.202202 0.118326 0.020000
7.552028 -2.995059 0.104322 0.070000
7.802001 2.540225 1.620567 0.110000
50.313034 13.931293 8.618949 0.120000
39.935822 0.932902 6.458520 0.030000
43.736134 -4.337099 6.953855 0.060000
6.922700 -1.121309 1.344658 0.420000
11.372861 -3.539203 2.082293 0.020000
7.690187 2.475767 0.885028 0.430000
17.454214 4.391709 1.297641 0.040000
11.136730 1.371249 0.979919 0.140000
13.252477 0.301396 1.031465 0.010000
11.851646 -0.965454 0.968099 0.080000
13.610417 -6.372946 1.012589 0.010000
8.019196 2.634828 0.141470 0.100000
8.275438 1.789586 0.138997 0.040000
8.381242 0.966485 0.131213 0.080000
8.496086 0.193566 0.123640 0.030000
8.286170 -0.595593 0.120158 0.030000
6.854679 -1.068496 0.224665 0.060000
7.780299 -2.120551 0.113169 0.030000
7.364668 -2.873626 0.104284 0.070000
7.781879 2.549933 1.595550 0.220000
45.474129 12.656879 7.651571 0.070000
40.663834 1.046956 6.435844 0.070000
48.312447 -4.696425 7.484470 0.070000
6.927560 -1.111140 1.324708 0.570000
11.301950 -3.485368 2.032308 0.030000
7.684966 2.490762 0.860069 0.470000
17.204922 4.362186 1.226880 0.080000
11.086556 1.385437 0.939841 0.070000
11.851259 -0.940329 0.933191 0.090000
13.480174 -4.264830 0.955085 0.030000
13.559134 -6.298714 0.957730 0.030000
7.790689 2.555456 0.135578 0.090000
8.011555 1.729540 0.133085 0.040000
8.121592 0.946527 0.125461 0.080000
8.215864 0.203220 0.117944 0.030000
8.050352 -0.555102 0.119693 0.030000
6.819355 -1.049095 0.204644 0.090000
7.563437 -2.024669 0.107959 0.030000
7.187414 -2.756981 0.099255 0.070000
7.737062 2.544183 1.565411 0.240000
11.108301 1.412100 1.965007 0.210000
40.722370 1.143608 6.296355 0.020000
40.602478 -3.809252 6.192629 0.180000
6.957498 -1.105511 1.309807 0.460000
11.311574 -3.460033 1.992427 0.040000
44.868710 -23.850964 7.459277 0.020000
7.709439 2.521309 0.840247 0.360000
13.136602 3.219784 1.017011 0.030000
11.096154 1.410735 0.909959 0.050000
31.512970 0.909663 1.506396 0.000000
11.875962 -0.919724 0.898332 0.090000
13.352134 -2.536848 0.926174 0.080000
11.359062 -3.429938 0.852651 0.120000
15.706333 -7.437811 0.964101 0.060000
7.517561 2.455207 0.134493 0.110000
7.782473 1.680162 0.127303 0.040000
7.881924 0.926934 0.124763 0.080000
7.955721 0.208239 0.117284 0.030000
7.849731 -0.523921 0.114285 0.040000
7.386758 -1.938019 0.102820 0.040000
7.020255 -2.645145 0.094235 0.070000
7.687162 2.543356 1.530278 0.230000
45.510162 12.913917 7.297616 0.060000
11.107914 1.437225 1.930099 0.270000
40.530746 -3.694964 6.017865 0.270000
6.957167 -1.085441 1.289880 0.530000
11.336182 -3.434429 1.957586 0.050000
44.784630 -23.606688 7.229963 0.060000
7.728925 2.551779 0.815411 0.300000
16.765932 4.324267 1.090591 0.060000
11.085781 1.435688 0.870025 0.060000
13.311068 0.392993 0.906958 0.000000
11.905582 -0.894005 0.858504 0.080000
11.328310 -3.385373 0.812736 0.170000
13.557574 -6.203360 0.858080 0.010000
7.299039 2.376008 0.133628 0.110000
7.553282 1.635765 0.126540 0.040000
7.642256 0.907340 0.124064 0.080000
7.765482 0.219615 0.111829 0.030000
7.633923 -0.483028 0.108874 0.030000
6.823966 -1.023874 0.169750 0.030000
7.184879 -1.841868 0.102650 0.040000
6.822704 -2.513905 0.094207 0.070000
7.661945 2.557967 1.505266 0.270000
45.457767 13.063600 7.118034 0.110000
11.192088 1.483919 1.910492 0.300000
40.463467 -3.555678 5.868206 0.100000
6.992104 -1.079715 1.274993 0.470000
11.325426 -3.389480 1.917724 0.020000
44.816284 -23.405350 7.040792 0.030000
7.783105 2.597898 0.795723 0.240000
16.561235 4.315584 1.025024 0.070000
11.125181 1.471559 0.840261 0.060000
13.295504 0.427848 0.867046 0.020000
12.030267 -0.871485 0.823913 0.070000
11.342837 -3.354942 0.772886 0.240000
7.060617 2.291427 0.132691 0.120000
7.344101 1.591769 0.120830 0.040000
7.447497 0.893626 0.118505 0.080000
7.525240 0.230016 0.111241 0.040000
7.418196 -0.447153 0.108444 0.040000
6.823730 -1.008803 0.149805 0.030000
6.998189 -1.755428 0.102485 0.040000
6.675828 -2.416682 0.089185 0.080000
7.622030 2.557313 1.475159 0.250000
46.901508 13.661263 7.149025 0.060000
11.116849 1.502665 1.860365 0.180000
11.901979 -0.852917 1.908658 0.030000
7.016850 -1.064184 1.260115 0.200000
93.660355 -33.669144 13.245199 1.692000
46.039963 -23.841864 7.007363 0.020000
7.891713 2.675083 0.771293 0.260000
13.149653 3.340551 0.882493 0.020000
13.254972 0.462261 0.817068 0.030000
12.039795 -0.841150 0.784050 0.090000
13.380482 -2.430773 0.786641 0.040000
11.422831 -3.348263 0.733119 0.220000
15.687903 -7.232431 0.774814 0.030000
6.901631 2.238410 0.122079 0.100000
7.125004 1.542565 0.120075 0.040000
7.237837 0.874626 0.112887 0.100000
7.329989 0.241279 0.110773 0.030000
7.197458 -0.411393 0.113001 0.040000
7.034370 -1.034626 0.110258 0.030000
6.841698 -1.678393 0.097362 0.040000
6.508656 -2.304864 0.089164 0.100000
7.621617 2.582401 1.450251 0.310000
46.108685 13.582166 6.846658 0.080000
44.041359 1.778035 6.102375 0.010000
11.866446 -0.818408 1.858693 0.080000
45.162296 -23.137190 6.637688 0.040000
16.091963 4.292087 0.888710 0.070000
11.293621 1.565076 0.766047 0.110000
12.059129 -0.800626 0.744251 0.100000
11.512630 -3.331393 0.693416 0.250000
15.732094 -7.181355 0.715119 0.010000
6.663196 2.153810 0.126142 0.120000
6.940627 1.509046 0.114469 0.050000
7.052967 0.866084 0.112373 0.110000
7.119741 0.252254 0.110265 0.040000
7.041830 -0.379349 0.107714 0.040000
6.868348 -0.982797 0.110018 0.030000
6.680195 -1.601473 0.097227 0.040000
6.371765 -2.207469 0.089169 0.100000
7.606315 2.602221 1.420284 0.330000
45.156326 13.480082 6.523789 0.070000
57.309818 2.556803 7.634920 0.060000
11.935841 -0.781962 1.829010 1.000000
6.712317 -1.604892 1.197309 0.010000
45.313999 -22.938591 6.458820 0.130000
11.198251 1.588382 0.730884 0.130000
12.068561 -0.765293 0.704406 0.090000
13.348711 -2.326033 0.696946 0.040000
11.557248 -3.305387 0.653629 0.330000
13.538348 -5.952896 0.643958 0.030000
6.519098 2.106060 0.120589 0.120000
6.731337 1.470031 0.113778 0.050000
6.873192 0.852639 0.111853 0.100000
6.949498 0.264014 0.104864 0.040000
6.856098 -0.342900 0.107364 0.040000
6.752437 -0.934972 0.099893 0.030000
6.498504 -1.514937 0.097074 0.050000
6.245077 -2.119861 0.084164 0.100000
7.615599 2.642480 1.400458 0.300000
46.832317 14.222182 6.565923 0.070000
57.290905 2.792308 7.410743 0.060000
6.762347 -1.603878 1.182443 0.010000
45.365036 -22.701801 6.249832 0.090000
14.916523 6.145288 0.787530 0.170000
15.861074 4.353116 0.768333 0.030000
11.202588 1.628619 0.691045 0.140000
14.822231 -0.927492 0.685991 0.620000
11.756364 -1.951298 0.649182 0.100000
11.601769 -3.274383 0.613860 0.330000
13.517045 -5.878107 0.594180 0.020000
6.320381 2.037242 0.119814 0.120000
6.566943 1.436877 0.113226 0.050000
6.683420 0.839002 0.111307 0.100000
6.764341 0.270469 0.104405 0.030000
6.710563 -0.315664 0.102086 0.040000
6.591413 -0.883046 0.099666 0.030000
6.352094 -1.442729 0.096960 0.050000
6.098188 -2.022657 0.084142 0.100000
7.610294 2.662492 1.370518 0.200000
44.334534 13.631074 6.057201 0.080000
41.055859 7.094401 5.404337 0.080000
57.331898 3.033979 7.181746 0.040000
6.761920 -1.578809 1.162535 0.050000
44.734016 -22.092733 5.965446 0.050000
13.116418 3.535645 0.693130 0.020000
11.191915 1.668550 0.656165 0.130000
13.226984 0.642398 0.642662 0.000000
14.796326 -0.872777 0.631126 0.880000
11.720531 -1.901811 0.604272 1.000000
11.817504 -3.305110 0.574308 0.180000
6.166272 1.989282 0.119233 0.110000
6.387538 1.403417 0.117633 0.040000
6.518546 0.830843 0.110847 0.110000
6.614082 0.282594 0.104058 0.040000
6.534912 -0.284041 0.106745 0.040000
6.455481 -0.835641 0.099487 0.030000
6.215778 -1.375327 0.096855 0.050000
5.961297 -1.925261 0.084146 0.100000
44.976952 14.048873 5.945430 0.070000
42.472855 7.526652 5.399642 0.100000
50.267139 2.837401 6.137564 0.030000
35.682747 -2.311571 4.375336 0.210000
11.617373 -1.887707 1.674066 0.050000
6.751413 -1.548913 1.137619 1.000000
44.870789 -21.894327 5.761538 0.170000
28.993486 13.236559 0.735635 0.160000
13.160186 3.606661 0.648507 0.070000
11.221138 1.714246 0.621411 0.070000
30.704176 1.752751 0.572410 0.030000
11.704666 -1.851977 0.569416 0.270000
13.605304 -5.770994 0.484808 0.020000
5.982456 1.925751 0.118517 0.110000
6.218144 1.370166 0.117067 0.040000
6.353673 0.822684 0.110386 0.080000
6.453825 0.294527 0.103684 0.030000
6.389268 -0.251825 0.106484 0.040000
6.294456 -0.783716 0.099260 0.030000
6.084448 -1.307849 0.101763 0.040000
5.839582 -1.837595 0.089155 0.110000
44.331741 14.087403 5.703886 0.080000
41.463066 7.543287 5.132066 0.080000
57.363529 3.531249 6.753673 0.040000
34.448387 -2.059213 4.113050 0.150000
11.516098 -1.814432 1.619074 0.060000
6.750890 -1.518844 1.117729 0.030000
44.870598 -21.593489 5.547654 0.050000
11.210382 1.759194 0.581549 0.120000
13.245299 0.743097 0.553084 0.010000
5.843249 1.883077 0.117995 0.090000
6.038836 1.331707 0.121456 0.040000
6.188882 0.809507 0.114907 0.090000
6.283652 0.301250 0.108265 0.030000
6.218629 -0.220087 0.106157 0.040000
6.168618 -0.741118 0.099090 0.030000
5.968333 -1.250044 0.096675 0.050000
5.717976 -1.754910 0.089145 0.100000
44.412514 14.334672 5.520014 0.090000
41.280624 7.695517 4.942153 0.050000
57.359184 3.792111 6.509629 0.060000
12.758029 -0.610746 1.711791 0.050000
11.475073 -1.755042 1.574187 0.110000
6.820916 -1.517448 1.102917 0.030000
13.083186 5.550897 0.555533 0.030000
15.100762 4.394405 0.536500 0.100000
13.271406 -0.611441 0.493116 0.060000
7.033527 -1.571277 0.528266 0.050000
11.260014 -4.465478 0.428538 0.020000
5.689223 1.830100 0.122397 0.080000
5.909161 1.314239 0.116053 0.040000
6.053907 0.806922 0.114545 0.090000
6.128393 0.313279 0.107904 0.030000
6.103172 -0.197294 0.105940 0.040000
6.027673 -0.693828 0.103898 0.030000
5.857108 -1.187163 0.096618 0.050000
5.621556 -1.681743 0.089165 0.110000
44.229225 14.531912 5.325267 0.090000
41.222153 7.900056 4.772759 0.070000
57.404232 4.083887 6.275829 0.060000
12.812165 -0.559553 1.672122 0.120000
11.439226 -1.705573 1.534277 0.150000
6.855661 -1.501725 1.088066 0.100000
17.737017 8.020902 0.456861 0.080000
15.029879 4.448277 0.476515 0.120000
13.228429 0.853123 0.463448 0.000000
11.606835 -1.688382 0.449767 0.120000
7.007914 -1.536688 0.508327 0.150000
11.269062 -4.410148 0.388767 0.160000
5.594733 1.803304 0.117050 0.090000
5.769653 1.286544 0.120586 0.040000
5.929040 0.799547 0.109191 0.090000
6.028124 0.326361 0.107691 0.030000
5.962610 -0.170000 0.110675 0.050000
5.931937 -0.655636 0.098790 0.040000
5.740980 -1.129377 0.096530 0.050000
5.530232 -1.613480 0.089180 0.120000
44.284565 14.798624 5.161401 0.030000
43.738400 8.628027 4.877035 0.040000
57.399609 4.354616 6.066821 0.060000
12.751240 -0.505546 1.627164 0.160000
11.463450 -1.659973 1.499509 0.170000
6.784795 -1.452963 1.058062 0.130000
51.823887 -24.055960 5.611650 0.080000
13.065671 5.695953 0.456025 0.090000
11.300049 0.751192 0.453035 0.010000
12.718830 -0.471724 0.417192 0.020000
11.555787 -1.629221 0.414853 0.200000
7.002379 -1.506734 0.493424 1.000000
11.237638 -4.330589 0.348980 0.240000
5.470427 1.765916 0.116587 0.080000
5.669876 1.274649 0.115281 0.040000
5.809049 0.797230 0.113870 0.100000
5.907955 0.334061 0.107406 0.030000
5.892158 -0.146326 0.105579 0.060000
5.826190 -0.617655 0.098655 0.040000
5.675226 -1.090629 0.096502 0.060000
5.454192 -1.559927 0.089181 0.140000
44.330208 15.050166 4.992454 0.090000
42.026939 8.471377 4.556982 0.130000
52.742783 4.232700 5.429205 0.020000
12.660238 -0.447095 1.577143 0.370000
11.477594 -1.609547 1.459733 0.160000
6.814445 -1.432337 1.043216 0.160000
51.096172 -23.358709 5.322340 0.130000
17.500401 8.121882 0.321618 0.040000
13.129794 3.922033 0.404598 0.080000
13.149605 2.367156 0.393869 0.030000
11.259285 0.795547 0.418093 0.010000
12.632801 -0.413214 0.377185 0.060000
11.590105 -1.588428 0.380094 0.320000
6.981764 -1.472050 0.473499 0.300000
10.640903 -3.981883 0.328719 0.100000
5.395646 1.754501 0.111349 0.070000
5.560184 1.257546 0.114931 0.030000
5.709068 0.795315 0.113602 0.090000
5.807687 0.347143 0.107193 0.030000
5.761703 -0.123821 0.105322 0.060000
5.745534 -0.584193 0.098569 0.040000
5.579190 -1.037459 0.096449 0.060000
5.388163 -1.506164 0.084208 0.120000
47.439171 24.194435 5.549567 0.060000
43.923344 15.173165 4.781847 0.060000
43.088753 8.917011 4.501409 0.070000
51.475693 4.374632 5.106422 0.030000
12.594314 -0.393183 1.532171 0.570000
11.562081 -1.577813 1.430071 0.150000
6.793843 -1.397634 1.018291 0.200000
51.221466 -23.080437 5.098699 0.090000
13.087696 5.866809 0.346717 0.080000
11.193635 0.834444 0.378066 0.040000
11.559161 -1.533864 0.340216 0.300000
6.981350 -1.446961 0.448591 0.340000
10.634942 -3.926859 0.293907 0.160000
5.276422 1.712191 0.115881 0.060000
5.480391 1.246015 0.114680 0.030000
5.599184 0.788209 0.113288 0.090000
5.712513 0.355322 0.106975 0.030000
5.696236 -0.100070 0.105240 0.060000
5.644883 -0.551115 0.098429 0.050000
5.528542 -1.003405 0.091444 0.060000
5.317122 -1.452515 0.084222 0.140000
47.314831 24.447832 5.350183 0.030000
45.731220 16.082932 4.794948 0.030000
30.524250 6.340564 3.194021 0.010000
57.440449 5.182873 5.435000 0.010000
12.548386 -0.338888 1.487252 0.740000
11.521127 -1.523459 1.395166 0.140000
6.793404 -1.372583 1.003382 0.230000
18.481195 -7.553593 2.035925 0.000000
14.407914 6.662545 0.268120 0.050000
15.352344 4.875335 0.258942 0.060000
11.103046 0.867806 0.352953 0.060000
15.844025 -0.421037 0.200536 0.010000
11.593480 -1.493072 0.305457 0.240000
7.021095 -1.431142 0.433753 0.260000
10.623885 -3.866932 0.259101 0.160000
5.186917 1.685472 0.115548 0.060000
5.385600 1.234198 0.114389 0.030000
5.524116 0.791791 0.108106 0.090000
5.647346 0.364094 0.101837 0.030000
5.610881 -0.081683 0.100085 0.060000
5.574321 -0.522462 0.098351 0.050000
5.467895 -0.969542 0.086411 0.040000
5.251081 -1.398770 0.084250 0.140000
48.388412 25.323786 5.291240 0.050000
8.049397 2.221612 1.155023 0.000000
30.541824 6.481292 3.094589 0.040000
31.131292 2.867089 3.042692 0.020000
12.552518 -0.288672 1.452449 0.660000
11.550364 -1.477745 1.355412 0.100000
6.797976 -1.347417 0.983488 0.300000
18.020149 -7.226962 1.925934 0.000000
12.867085 5.907885 0.266293 0.040000
14.169024 4.517664 0.239523 0.050000
14.620504 2.881077 0.219617 0.010000
11.037274 0.911664 0.322944 0.050000
14.671862 -0.318450 0.192858 0.020000
10.622923 -3.811812 0.224303 0.200000
5.117231 1.669153 0.110305 0.060000
5.305820 1.222686 0.109138 0.030000
5.449130 0.790354 0.107905 0.080000
5.557171 0.372368 0.101633 0.020000
5.545510 -0.062932 0.099984 0.050000
5.498773 -0.493885 0.093260 0.040000
5.397142 -0.930890 0.086370 0.050000
5.195242 -1.354814 0.079267 0.140000
29.232540 15.027324 3.232942 0.010000
8.138175 2.288379 1.140503 0.030000
30.484426 6.620602 2.989956 0.060000
31.118872 3.007243 2.943180 0.010000
12.611736 -0.242401 1.417775 0.430000
11.629839 -1.446125 1.330737 0.060000
6.827722 -1.331790 0.968623 0.350000
12.464921 5.760266 0.234694 0.070000
13.224497 4.224560 0.225968 0.060000
13.673474 2.717929 0.211539 0.010000
11.051584 0.952056 0.293132 0.080000
13.780221 -0.240494 0.185820 0.010000
11.622015 -1.407272 0.240850 0.110000
10.622044 -3.761710 0.194487 0.240000
5.062446 1.658121 0.105121 0.050000
5.240928 1.216442 0.108945 0.030000
5.364145 0.788727 0.107677 0.100000
5.501907 0.386331 0.096540 0.030000
5.465142 -0.044468 0.099843 0.060000
5.463314 -0.469542 0.088258 0.040000
5.356587 -0.901644 0.081373 0.040000
5.139390 -1.310876 0.079285 0.140000
29.219259 15.212469 3.133594 0.020000
30.447191 6.750260 2.895340 0.050000
17.075939 1.622234 1.761363 0.000000
6.807203 -1.302104 0.948680 0.400000
11.420512 -4.090547 1.305360 0.010000
11.800642 5.457546 0.216834 0.070000
12.508491 4.010847 0.213304 0.060000
12.875854 2.587667 0.198973 0.010000
