# This PCD file was generated using the MATLAB® pcwrite function
# from Computer Vision Toolbox®.
# .PCD v.7 - Point Cloud Data file format
VERSION .7
FIELDS x y z intensity
SIZE 4 4 4 4
TYPE F F F F
COUNT 1 1 1 1
WIDTH 1291
HEIGHT 1
VIEWPOINT 0 0 0 1 0 0 0
POINTS 1291
DATA ascii
7.944976 2.593399 0.141122 0.100000
7.977192 1.693821 0.147862 0.050000
8.281657 0.944592 0.125872 0.090000
8.381312 0.181385 0.118295 0.030000
8.191188 -0.597413 0.119903 0.030000
7.930214 -1.332559 0.121489 0.030000
7.468114 -2.011565 0.127759 0.030000
7.294119 -2.844953 0.099207 0.070000
8.044918 2.649860 1.631608 0.120000
50.273197 13.961563 8.338955 0.090000
40.670155 0.987305 6.370638 0.070000
51.364426 -5.084419 7.865998 0.100000
44.351128 -10.066186 6.894162 0.010000
11.377812 -3.528905 2.027344 0.020000
8.076896 2.653260 0.871697 0.210000
17.260252 4.348317 1.206972 0.080000
11.121768 1.376146 0.929898 0.110000
13.297421 0.312461 0.976623 0.010000
11.961840 -0.968179 0.923376 0.060000
13.383200 -2.596374 0.956034 0.030000
13.559651 -6.323653 0.942639 0.020000
7.676860 2.493265 0.135050 0.100000
7.887440 1.682155 0.132585 0.040000
8.012091 0.919425 0.125075 0.080000
8.101078 0.191019 0.117599 0.030000
7.960382 -0.556807 0.114452 0.030000
7.779297 -1.285423 0.116271 0.020000
7.477973 -2.001302 0.107823 0.030000
7.116961 -2.733308 0.094159 0.070000
8.044600 2.669949 1.606682 0.120000
50.246384 14.081749 8.154329 0.020000
11.098630 1.396967 1.949925 0.090000
40.663795 1.077713 6.230956 0.040000
40.638943 -3.878382 6.142467 0.200000
44.434807 -9.973981 6.734722 0.020000
11.311888 -3.474993 1.982372 0.030000
8.096382 2.683730 0.846861 0.190000
17.120352 4.350876 1.141616 0.070000
11.091481 1.395698 0.894891 0.060000
11.971463 -0.942844 0.883495 0.080000
13.357664 -2.561673 0.906096 0.030000
11.374578 -3.454590 0.837599 0.170000
13.579217 -6.293071 0.887803 0.010000
7.443450 2.408798 0.129127 0.110000
7.688161 1.643350 0.126920 0.040000
7.777422 0.899928 0.124390 0.090000
7.870929 0.196613 0.117019 0.030000
7.769760 -0.525434 0.109071 0.030000
7.573007 -1.219343 0.110978 0.030000
7.286201 -1.909940 0.102662 0.040000
6.914412 -2.602164 0.094118 0.070000
8.044282 2.690038 1.581756 0.070000
45.367928 12.781517 7.201752 0.030000
11.118238 1.422475 1.915071 0.280000
44.084457 1.292107 6.555685 0.020000
40.627365 -3.772980 5.977827 0.240000
44.503155 -9.861992 6.555315 0.020000
11.311430 -3.444831 1.937482 0.050000
44.756542 -23.696985 7.159553 0.020000
13.131678 3.224929 0.952017 0.030000
11.086190 1.415729 0.859951 0.060000
30.828171 0.917191 1.329635 0.010000
11.961078 -0.917910 0.848560 0.090000
13.367109 -2.526321 0.861251 0.030000
11.303558 -3.395775 0.792632 0.210000
13.558214 -6.233261 0.832970 0.010000
7.215026 2.324409 0.128217 0.120000
7.464066 1.594049 0.126152 0.050000
7.582759 0.881215 0.118812 0.090000
7.655791 0.202512 0.111479 0.030000
7.539036 -0.489847 0.108601 0.040000
7.361801 -1.158378 0.110653 0.030000
7.094512 -1.823596 0.102483 0.040000
6.752334 -2.495249 0.094093 0.080000
45.694016 13.008316 7.063445 0.130000
11.147737 1.453156 1.885262 0.290000
44.062824 1.402372 6.376037 0.000000
40.570518 -3.653425 5.808121 0.120000
44.586365 -9.744773 6.390966 0.010000
11.285690 -3.400151 1.892581 0.030000
46.122318 -24.245907 7.156078 0.050000
16.691168 4.323147 1.005391 0.070000
11.100609 1.451139 0.825120 0.080000
13.286037 0.402735 0.846928 0.010000
11.980603 -0.887384 0.808724 0.100000
18.077518 -3.551400 0.899737 0.010000
11.313182 -3.370440 0.752751 0.280000
13.582669 -6.197603 0.783166 0.020000
6.986602 2.240019 0.127307 0.130000
7.264787 1.555244 0.120487 0.040000
7.373003 0.867213 0.113212 0.100000
7.435544 0.213296 0.110945 0.040000
7.318311 -0.454068 0.108158 0.040000
7.150499 -1.092413 0.110347 0.040000
6.928024 -1.746752 0.097334 0.040000
6.575068 -2.378624 0.094063 0.080000
45.373322 13.073010 6.837846 0.090000
11.122271 1.482820 1.845305 0.400000
11.962582 -0.881706 1.893709 0.030000
44.664043 -9.597599 6.211714 0.000000
11.335389 -3.379068 1.857788 0.010000
46.012733 -23.972023 6.901807 0.060000
14.777099 5.832013 0.936003 0.260000
16.541283 4.325533 0.935008 0.050000
11.184931 1.492908 0.785495 0.050000
12.030219 -0.861282 0.768950 0.060000
18.262545 -3.542635 0.840252 0.000000
11.367976 -3.354259 0.717954 0.260000
15.678833 -7.277521 0.749623 0.010000
6.812702 2.181697 0.121636 0.130000
7.045690 1.506039 0.119733 0.040000
7.163330 0.848194 0.112594 0.120000
7.240294 0.224558 0.110477 0.040000
7.117582 -0.417905 0.107768 0.040000
6.964384 -1.035967 0.110071 0.030000
6.761426 -1.664928 0.097203 0.040000
6.428096 -2.276402 0.089060 0.090000
45.783123 13.366387 6.710005 0.070000
44.113407 1.679600 6.047196 0.010000
11.937020 -0.847043 1.853771 0.060000
46.377918 -23.954403 6.732824 0.050000
14.795993 5.897588 0.881296 0.200000
13.124744 3.345331 0.812445 0.030000
11.229342 1.528894 0.750745 0.080000
31.378494 1.214030 0.992172 0.000000
14.929974 -1.080749 0.765703 0.450000
13.360355 -2.415936 0.726643 0.010000
11.412593 -3.328253 0.678167 0.230000
13.580753 -6.082216 0.673589 0.030000
6.609081 2.107784 0.120830 0.120000
6.856409 1.467426 0.114095 0.050000
6.973557 0.834557 0.112048 0.110000
7.060053 0.236127 0.105049 0.040000
6.961953 -0.385862 0.102481 0.040000
6.793279 -0.979216 0.104835 0.030000
6.594828 -1.583105 0.097072 0.040000
6.301408 -2.188794 0.084055 0.100000
47.748211 14.153922 6.783062 0.060000
57.347851 2.412873 7.534483 0.060000
11.961450 -0.811422 1.813967 1.000000
45.246929 -23.079569 6.368120 0.070000
14.819625 5.978293 0.816657 0.210000
16.091803 4.312399 0.803785 0.060000
11.173882 1.557983 0.710708 0.150000
13.299196 0.518521 0.707391 0.010000
14.848995 -1.022070 0.705710 4.489000
18.873072 -3.545448 0.706833 0.010000
11.502598 -3.321363 0.633427 0.270000
13.514089 -5.988275 0.618763 0.020000
6.449986 2.059747 0.115236 0.120000
6.657117 1.428602 0.113430 0.050000
6.803685 0.826303 0.111574 0.110000
6.874896 0.242582 0.104590 0.030000
6.781303 -0.354335 0.107127 0.040000
6.682450 -0.936312 0.099705 0.030000
6.413220 -1.501587 0.101901 0.040000
6.169612 -2.096302 0.084054 0.100000
45.215546 13.557164 6.269228 0.060000
57.309242 2.633016 7.305198 0.070000
12.000863 -0.775533 1.779203 1.000000
45.343506 -22.871950 6.169142 0.140000
13.127979 3.450760 0.717844 0.050000
11.193204 1.598489 0.675908 0.170000
13.418963 -2.329450 0.632116 0.030000
11.572293 -3.299896 0.598688 0.360000
13.563443 -5.947139 0.569045 0.010000
6.266158 1.996197 0.119520 0.110000
6.507528 1.405733 0.112955 0.040000
6.613912 0.812666 0.111028 0.110000
6.699628 0.254209 0.109176 0.040000
6.630661 -0.322214 0.106853 0.040000
6.501321 -0.879789 0.104443 0.020000
6.276808 -1.429186 0.101814 0.040000
6.017615 -1.994213 0.089037 0.090000
47.440666 21.844208 6.860848 0.040000
44.670822 13.572651 6.017861 0.100000
41.078541 6.965087 5.328915 0.090000
57.350616 2.854691 7.076128 0.050000
45.455021 -22.658989 5.955223 0.040000
14.985679 6.201934 0.702920 0.080000
11.172628 1.633229 0.640983 0.160000
30.763210 1.533604 0.636750 0.020000
11.796514 -1.950309 0.589290 0.060000
11.606720 -3.264084 0.558911 0.450000
13.537059 -5.867428 0.514271 0.020000
6.121964 1.953446 0.113985 0.110000
6.333232 1.367388 0.112357 0.040000
6.464036 0.804794 0.110607 0.110000
6.544383 0.266256 0.103815 0.040000
6.470033 -0.290266 0.101552 0.050000
6.380495 -0.837078 0.099286 0.030000
6.130494 -1.361977 0.101682 0.050000
5.885915 -1.906720 0.089019 0.090000
43.800900 20.326708 6.170699 0.040000
44.930523 13.873246 5.864655 0.060000
41.135483 7.146779 5.174737 0.040000
50.320080 2.693628 6.072167 0.020000
11.899392 -0.687130 1.689266 0.090000
11.527646 -1.899336 1.648789 0.000000
40.194805 -13.154145 4.911814 0.020000
44.859447 -22.074284 5.680839 0.100000
29.005724 13.126957 0.685259 0.110000
13.146116 3.561475 0.623302 0.060000
11.196770 1.683847 0.601234 0.100000
30.681047 1.662494 0.517013 0.010000
11.780663 -1.900457 0.549434 0.170000
7.333638 -2.620789 0.545148 0.000000
5.923317 1.879592 0.123192 0.090000
6.158826 1.334024 0.116778 0.040000
6.289164 0.796444 0.110120 0.100000
6.369211 0.272884 0.108383 0.030000
6.309379 -0.258356 0.106252 0.040000
6.224456 -0.785075 0.104072 0.030000
6.034375 -1.303789 0.096648 0.040000
5.754106 -1.814247 0.094018 0.100000
47.149338 22.235367 6.406537 0.040000
45.234726 14.199680 5.716661 0.020000
42.492397 7.582879 5.169900 0.080000
52.413994 3.028734 6.093879 0.030000
11.893648 -0.642067 1.644418 0.150000
11.486731 -1.844926 1.598884 0.000000
40.251694 -12.967400 4.742655 0.020000
44.970940 -21.861359 5.476919 0.120000
13.100500 5.426096 0.585114 0.040000
13.100393 3.605791 0.573347 0.060000
11.186110 1.723797 0.561354 0.140000
27.666929 1.600069 0.423912 0.010000
11.754813 -1.850797 0.509550 0.250000
7.307846 -2.576183 0.520246 0.010000
5.789108 1.837014 0.122683 0.090000
5.984421 1.300660 0.121199 0.040000
6.139275 0.788553 0.114699 0.110000
6.208953 0.284817 0.108009 0.030000
6.163831 -0.231138 0.105973 0.050000
6.098618 -0.742478 0.103902 0.030000
5.913248 -1.246098 0.096546 0.050000
5.657795 -1.746061 0.089020 0.120000
45.772774 21.835325 6.021452 0.030000
44.336693 14.128513 5.429049 0.100000
8.144216 1.172839 1.261373 0.010000
57.383099 3.602920 6.403987 0.070000
34.508133 -2.017329 3.913359 0.470000
11.510955 -1.799326 1.564116 0.040000
40.539402 -12.826369 4.608929 0.010000
23.788534 10.872394 0.458257 0.060000
15.176389 4.365941 0.511591 0.130000
11.200240 1.774205 0.526578 0.100000
13.225198 0.757971 0.483086 0.000000
7.276958 -2.526674 0.495349 0.060000
5.664815 1.799645 0.117220 0.090000
5.854842 1.278192 0.115777 0.040000
5.999397 0.780873 0.114306 0.110000
6.078786 0.292325 0.107697 0.040000
6.043375 -0.208441 0.105743 0.050000
5.972779 -0.699880 0.103732 0.040000
5.807117 -1.188121 0.096484 0.060000
5.556281 -1.667991 0.089046 0.110000
47.465668 23.002897 6.045212 0.020000
44.188492 14.321424 5.234377 0.120000
8.138803 1.197831 1.236452 0.060000
57.408493 3.874261 6.185060 0.060000
11.454933 -1.740224 1.519189 0.070000
41.114445 -12.804876 4.480508 0.020000
7.254895 -2.509459 1.140362 0.000000
13.092901 5.576362 0.480652 0.040000
13.123050 3.741597 0.478910 0.050000
23.542658 1.541549 0.282928 0.010000
12.465778 -1.881856 0.421290 0.090000
7.336904 -2.520452 0.475529 0.140000
5.560314 1.772639 0.116846 0.080000
5.715333 1.250497 0.120310 0.040000
5.874516 0.773480 0.113952 0.080000
5.968519 0.305216 0.107457 0.030000
5.922822 -0.180745 0.105531 0.050000
5.877043 -0.661689 0.098624 0.040000
5.695989 -1.130239 0.096409 0.060000
5.480145 -1.609439 0.089065 0.120000
46.945950 23.018883 5.788912 0.040000
45.327030 14.938559 5.179643 0.030000
8.103395 1.222249 1.211450 1.000000
57.399166 4.129916 5.970984 0.060000
12.762153 -0.550271 1.607026 0.050000
11.464270 -1.699891 1.479363 0.140000
39.450367 -12.040420 4.154003 0.020000
7.254194 -2.469373 1.115509 0.040000
13.066777 5.641038 0.435824 0.080000
13.126933 3.806866 0.429162 0.040000
7.856036 1.180071 0.510640 0.070000
11.320672 0.721655 0.432979 0.000000
11.576602 -1.668756 0.394761 0.060000
16.609295 -4.607231 0.216972 0.030000
7.285829 -2.461328 0.450615 0.250000
5.436008 1.735252 0.116383 0.090000
5.635362 1.248984 0.115096 0.030000
5.754539 0.771182 0.113631 0.090000
5.863251 0.318202 0.107230 0.030000
5.827361 -0.157569 0.105368 0.050000
5.771297 -0.623707 0.098489 0.040000
5.625248 -1.091568 0.091368 0.060000
5.414116 -1.555676 0.084092 0.130000
47.287064 23.511162 5.611631 0.020000
44.110630 14.781335 4.875880 0.060000
57.414387 4.411082 5.747066 0.010000
12.796197 -0.494463 1.567321 0.160000
11.468414 -1.649656 1.439560 0.100000
39.456665 -11.824674 3.994820 0.020000
7.203132 -2.410231 1.085595 0.090000
13.075386 5.721419 0.381144 0.060000
19.042419 5.951233 0.262573 0.050000
7.830614 1.204662 0.490665 0.100000
11.314998 0.761682 0.398113 0.010000
12.713797 -0.461598 0.357216 0.020000
11.585925 -1.628442 0.359934 0.190000
15.199044 -4.084110 0.205236 0.030000
7.305398 -2.435875 0.430760 0.280000
5.371321 1.719028 0.111154 0.070000
5.520766 1.226785 0.114714 0.030000
5.664555 0.769458 0.113389 0.090000
5.768077 0.326381 0.107012 0.030000
5.731900 -0.134393 0.105205 0.060000
5.705734 -0.594958 0.098425 0.040000
5.534294 -1.043320 0.096310 0.060000
5.343076 -1.502027 0.084106 0.120000
57.229904 29.079487 6.498293 0.030000
44.007149 14.984994 4.711365 0.070000
7.868335 1.233006 1.140876 0.040000
51.594601 4.182150 5.031016 0.030000
12.645205 -0.437161 1.517140 0.220000
11.437458 -1.595111 1.404682 0.120000
17.573145 -4.780146 1.948863 0.000000
7.222702 -2.384778 1.065741 0.210000
8.515098 2.288127 0.451479 0.010000
7.810108 1.234366 0.465722 0.100000
11.174335 0.799105 0.367884 0.020000
12.672854 -0.407226 0.317311 0.020000
11.559967 -1.573801 0.325069 0.300000
14.151217 -3.684071 0.193987 0.030000
5.247002 1.681623 0.115690 0.070000
5.455887 1.220560 0.109521 0.030000
5.569586 0.767657 0.108135 0.100000
5.677807 0.339654 0.106826 0.030000
5.661543 -0.115719 0.100091 0.060000
5.594988 -0.557072 0.098276 0.050000
5.493657 -1.009056 0.086332 0.060000
5.266940 -1.443474 0.084125 0.130000
55.069790 28.344620 6.044918 0.040000
44.638145 15.477606 4.594842 0.030000
7.832928 1.257424 1.115874 0.150000
31.156055 2.612354 3.086811 0.020000
12.609276 -0.382675 1.472248 0.730000
11.476789 -1.554204 1.364936 0.100000
17.284996 -4.605285 1.853760 0.000000
7.010176 -2.248659 1.020692 0.280000
13.082593 5.881970 0.276759 0.040000
8.554101 2.343976 0.426788 0.050000
11.178564 0.844322 0.333063 0.060000
11.574193 -1.528392 0.290275 0.340000
13.048388 -3.285103 0.187592 0.030000
10.624786 -3.911868 0.243936 0.170000
5.187218 1.670494 0.110493 0.070000
5.356085 1.208628 0.114217 0.030000
5.499504 0.771316 0.107965 0.090000
5.597643 0.348139 0.101648 0.030000
5.586174 -0.097159 0.099963 0.050000
5.559528 -0.532728 0.093274 0.040000
5.407811 -0.965692 0.086269 0.050000
5.221099 -1.399326 0.079169 0.130000
29.288162 14.728171 3.276975 0.010000
29.968449 10.306005 3.102310 0.010000
7.802520 1.281937 1.090885 0.190000
31.163345 2.767887 2.987407 0.010000
12.578332 -0.328111 1.432370 0.710000
11.500986 -1.508641 1.340168 0.130000
7.065095 -2.242570 1.010858 0.470000
12.838579 5.832398 0.245937 0.060000
8.508792 2.363203 0.401741 0.110000
11.077977 0.877493 0.307923 0.060000
14.162340 -0.348213 0.191417 0.010000
11.573326 -1.478271 0.255459 0.230000
12.423465 -3.031971 0.171901 0.040000
10.623824 -3.856748 0.209138 0.190000
5.092810 1.638680 0.110128 0.060000
5.301108 1.207593 0.109069 0.020000
5.414519 0.769688 0.107737 0.100000
5.527464 0.356796 0.101497 0.030000
5.505805 -0.078695 0.099822 0.050000
5.458863 -0.499669 0.098134 0.040000
5.382349 -0.941157 0.081293 0.050000
5.150141 -1.350695 0.084165 0.150000
29.285070 14.903509 3.177618 0.010000
16.686897 5.470132 1.864653 0.020000
7.782097 1.306624 1.070923 0.340000
31.131121 2.897660 2.887804 0.040000
12.557469 -0.278373 1.397500 0.810000
11.525211 -1.463040 1.305401 0.100000
19.071989 -4.956196 1.877120 0.000000
7.069585 -2.212387 0.985981 0.470000
12.193830 5.555075 0.223223 0.060000
8.443582 2.377048 0.376622 0.160000
11.102201 0.923093 0.273156 0.080000
13.375789 -0.273227 0.179642 0.010000
11.602633 -1.437593 0.225686 0.250000
11.839084 -2.808105 0.166208 0.040000
10.617932 -3.806760 0.184308 0.210000
5.042929 1.632742 0.104976 0.050000
5.206413 1.190777 0.108760 0.020000
5.354448 0.773557 0.102595 0.070000
5.462285 0.365550 0.101360 0.020000
5.445433 -0.059848 0.099734 0.050000
5.413406 -0.475517 0.093106 0.040000
5.316595 -0.902410 0.081266 0.040000
5.114491 -1.316353 0.079199 0.140000
29.222359 15.057684 3.083026 0.040000
7.731871 1.320738 1.050845 0.320000
16.992184 1.560729 1.730916 0.010000
12.591679 -0.232600 1.367759 0.630000
12.903507 -1.631930 1.378371 0.080000
19.382105 -4.955147 1.847934 0.000000
7.240511 -2.259121 0.986254 0.960000
11.534429 5.257412 0.215396 0.060000
12.602834 2.482438 0.192869 0.020000
11.121414 0.968579 0.243375 0.110000
12.634298 -0.202415 0.177970 0.020000
11.581757 -1.387874 0.195816 0.110000
11.395635 -2.631548 0.160707 0.040000
10.626955 -3.751468 0.154537 0.150000
4.968313 1.611291 0.109701 0.040000
5.151519 1.184724 0.108594 0.020000
5.324275 0.782999 0.097551 0.370000
5.397119 0.374322 0.096222 0.020000
5.375063 -0.041193 0.099620 0.050000
5.342940 -0.451862 0.093010 0.040000
5.286135 -0.877970 0.076277 0.050000
5.063733 -1.277318 0.079212 0.140000
29.189383 15.227468 2.978570 0.090000
8.321136 2.402049 1.101403 0.000000
7.706449 1.345329 1.030869 0.400000
13.078061 -1.603491 1.353932 0.090000
19.616795 -4.930483 1.803637 0.000000
7.244988 -2.228957 0.966377 1.000000
10.979145 5.006752 0.208014 0.070000
11.743847 3.726207 0.195250 0.060000
12.054291 2.401937 0.186137 0.010000
11.135710 1.008952 0.218562 0.110000
12.093263 -0.152750 0.171742 0.020000
10.992465 -2.469223 0.155258 0.040000
4.943152 1.620848 0.099671 0.040000
5.091626 1.178576 0.108415 0.020000
5.244277 0.781448 0.102337 0.090000
5.341938 0.383266 0.096111 0.010000
5.334796 -0.026943 0.094568 0.030000
5.307576 -0.432518 0.087989 0.040000
5.255661 -0.853550 0.076288 0.040000
5.033177 -1.247880 0.074242 0.150000
7.587649 3.103236 1.072094 0.010000
8.335406 2.442385 1.086590 0.030000
7.701010 1.370284 1.015948 0.310000
11.172452 1.035902 1.243769 0.010000
13.157428 -1.566891 1.334275 0.100000
19.776091 -4.887296 1.769213 0.000000
7.294909 -2.222963 0.956530 0.840000
10.517982 4.802902 0.201053 0.060000
11.286149 3.602438 0.188595 0.050000
11.595444 2.338156 0.179703 0.020000
11.119998 1.048731 0.198669 0.110000
10.891767 -0.090878 0.203837 0.020000
11.269320 -1.258707 0.160480 0.050000
10.639669 -2.325936 0.149870 0.050000
10.055310 -3.407281 0.134324 0.080000
4.868632 1.594397 0.104378 0.040000
5.066453 1.188114 0.103384 0.020000
5.169374 0.774994 0.107117 0.070000
5.296754 0.392403 0.096027 0.010000
5.279519 -0.012999 0.094475 0.030000
5.242096 -0.408786 0.092906 0.040000
5.205096 -0.824513 0.076264 0.030000
4.997513 -1.213557 0.074276 0.140000
7.626627 3.159047 1.057403 0.040000
8.260377 2.446022 1.066407 0.070000
7.695571 1.395239 1.001026 0.290000
11.216646 1.081848 1.219054 0.040000
13.216728 -1.525638 1.304583 0.090000
7.319560 -2.202433 0.941670 0.650000
7.548931 3.140233 0.327123 0.020000
10.898056 3.500005 0.182201 0.060000
11.241290 2.291384 0.173604 0.010000
11.129295 1.089008 0.173842 0.100000
10.896065 -0.050697 0.178997 0.030000
10.967760 -1.179450 0.154988 0.050000
10.377541 -2.215900 0.139594 0.040000
9.782200 -3.247484 0.134205 0.060000
4.848457 1.604031 0.099361 0.030000
5.011559 1.182062 0.103218 0.010000
5.124299 0.779150 0.102015 0.050000
5.261569 0.401730 0.095970 0.010000
5.234227 0.001118 0.099410 0.030000
5.221826 -0.394153 0.087908 0.040000
5.139424 -0.790783 0.081218 0.040000
4.982146 -1.193830 0.069309 0.140000
7.512180 3.131924 1.037004 1.000000
8.240049 2.465709 1.046427 0.160000
7.715018 1.425654 0.991190 0.240000
11.186033 1.116341 1.199103 1.000000
13.135659 -1.467088 1.279589 0.070000
13.490520 -3.025659 1.299722 0.000000
7.384574 -2.201151 0.931845 0.640000
7.513772 3.149597 0.317066 0.110000
10.559761 3.408529 0.175978 0.060000
10.897038 2.249802 0.167551 0.020000
11.085520 -0.016971 0.154617 0.020000
10.681185 -1.099924 0.154535 0.060000
10.170662 -2.119845 0.139411 0.040000
9.574651 -3.116436 0.134151 0.080000
4.788743 1.587866 0.104145 0.030000
4.981468 1.186486 0.103156 0.010000
5.089210 0.783479 0.101939 0.040000
5.216386 0.410867 0.095886 0.010000
5.204054 0.010560 0.094366 0.030000
5.181437 -0.374942 0.092874 0.030000
5.129152 -0.775959 0.076247 0.040000
4.946564 -1.164524 0.074325 0.130000
7.402828 3.099897 1.016599 0.140000
8.224600 2.490454 1.036479 0.120000
7.704676 1.445514 0.976237 0.280000
11.195317 1.156600 1.179276 0.120000
13.262763 -0.009378 1.280340 0.020000
12.999530 -1.404556 1.244466 0.060000
13.494639 -2.975461 1.269919 0.010000
7.414307 -2.185542 0.921980 0.430000
7.488337 3.174170 0.302091 0.200000
10.286057 3.338274 0.175002 0.060000
10.622677 2.214560 0.161704 0.010000
10.829814 0.018157 0.149080 0.020000
10.470087 -1.043939 0.149192 0.050000
9.994175 -2.043193 0.134235 0.050000
9.432787 -3.019099 0.124142 0.070000
4.773663 1.592597 0.099124 0.030000
4.916672 1.175243 0.102945 0.010000
5.069022 0.793094 0.101923 0.040000
5.171203 0.420003 0.095802 0.010000
5.153763 0.024581 0.099287 0.030000
5.146060 -0.355616 0.092853 0.020000
5.073670 -0.752035 0.081191 0.050000
4.941291 -1.149604 0.069367 0.130000
7.357780 3.104090 1.001497 0.200000
8.174457 2.499551 1.021381 0.110000
7.739108 1.476197 0.971440 0.220000
11.164787 1.186075 1.164306 0.290000
13.342034 0.032221 1.260701 0.100000
13.038891 -1.368741 1.229702 0.070000
7.443275 3.178344 0.291989 0.280000
10.091791 3.299584 0.164351 0.050000
10.398103 2.190254 0.161027 0.020000
10.623401 1.134419 0.147690 0.010000
10.659188 0.049913 0.143752 0.020000
10.298983 -0.987187 0.143957 0.050000
9.827686 -1.966350 0.129086 0.040000
9.311181 -2.936413 0.124132 0.070000
4.738765 1.586927 0.099011 0.020000
4.916493 1.185260 0.097982 0.010000
5.029029 0.792328 0.101815 0.030000
5.156014 0.429714 0.095799 0.010000
5.143490 0.039405 0.094315 0.030000
5.120778 -0.341097 0.092841 0.020000
5.073396 -0.737020 0.076246 0.050000
4.905709 -1.120299 0.074383 0.110000
7.352327 3.129027 0.991575 0.200000
8.164005 2.524392 1.011446 0.130000
7.733656 1.501134 0.961519 0.190000
11.039397 1.208769 1.139063 0.450000
13.028083 -1.323867 1.209840 0.120000
7.462532 3.218757 0.282189 0.220000
9.867778 3.245266 0.168565 0.060000
10.193428 2.171331 0.160423 0.020000
10.443243 1.140970 0.147244 0.010000
10.463554 0.081172 0.143358 0.020000
10.173047 -0.939591 0.143805 0.050000
9.706367 -1.898661 0.129021 0.040000
9.189479 -2.848728 0.124140 0.070000
4.708771 1.586353 0.098931 0.020000
4.871585 1.179381 0.102843 0.010000
5.008842 0.801943 0.101798 0.040000
5.140934 0.434444 0.090777 0.010000
5.118304 0.048924 0.094285 0.030000
5.090496 -0.326675 0.092816 0.020000
5.043018 -0.717598 0.076239 0.040000
4.880235 -1.095782 0.074408 0.120000
7.356682 3.164153 0.981717 0.220000
8.113862 2.533488 0.996349 0.110000
11.068747 1.244374 1.129272 0.620000
13.235517 0.115324 1.225731 0.150000
13.017262 -1.279011 1.194978 0.140000
13.401555 -2.806994 1.210302 0.000000
11.323483 -3.696602 1.106569 0.280000
7.491594 3.269359 0.272453 0.310000
9.693398 3.211939 0.162986 0.060000
10.038566 2.163382 0.154989 0.020000
10.292996 1.153113 0.141897 0.010000
10.323018 0.108503 0.138092 0.020000
10.052220 -0.896879 0.138648 0.050000
9.615343 -1.845377 0.123982 0.040000
9.093073 -2.775543 0.119161 0.070000
4.673873 1.580683 0.098819 0.020000
4.856396 1.189091 0.102840 0.010000
4.993762 0.806673 0.096776 0.030000
5.110748 0.443868 0.090733 0.010000
5.093117 0.058444 0.094254 0.030000
5.085318 -0.316754 0.087839 0.020000
5.012627 -0.698195 0.081231 0.040000
4.879961 -1.080767 0.069463 0.110000
7.336316 3.183785 0.976737 0.210000
8.108301 2.563405 0.991446 0.110000
11.013208 1.273353 1.119234 0.670000
16.334066 0.199131 1.384133 0.310000
12.991430 -1.234461 1.185076 0.140000
11.211721 -3.603671 1.091623 0.470000
7.520656 3.319961 0.262717 0.350000
9.588610 3.199929 0.162668 0.050000
9.918492 2.166083 0.154685 0.010000
10.177635 1.170907 0.141662 0.010000
10.217367 0.141486 0.137939 0.020000
9.981481 -0.858208 0.133607 0.050000
9.524306 -1.792111 0.123942 0.040000
9.057230 -2.731204 0.114232 0.060000
4.658780 1.585395 0.098797 0.020000
4.836304 1.193707 0.102804 0.010000
4.953660 0.810887 0.101688 0.030000
5.080549 0.453273 0.095689 0.010000
5.092925 0.068442 0.094291 0.020000
5.060022 -0.302254 0.092827 0.020000
4.992248 -0.678582 0.081251 0.040000
4.879673 -1.065770 0.069518 0.110000
7.301144 3.193131 0.971680 0.170000
8.063131 2.572560 0.986362 0.120000
11.027452 1.313651 1.114421 0.460000
16.383017 0.255096 1.379468 0.130000
12.980487 -1.184644 1.180233 0.130000
13.379586 -2.702342 1.195633 0.000000
11.231060 -3.568276 1.086805 0.500000
9.473727 3.192728 0.162341 0.050000
8.017460 1.664165 0.262858 0.030000
10.117167 1.194753 0.141593 0.010000
10.156804 0.170331 0.137888 0.020000
9.925724 -0.819269 0.133607 0.050000
9.543837 -1.766714 0.119088 0.040000
7.443707 -2.057426 0.232526 0.040000
4.653493 1.600296 0.098838 0.020000
4.811213 1.198228 0.102756 0.010000
4.958372 0.825980 0.101756 0.030000
5.080358 0.463271 0.095726 0.010000
5.072641 0.083056 0.094292 0.030000
5.059735 -0.287257 0.092882 0.020000
4.992056 -0.668584 0.081288 0.040000
4.879482 -1.055771 0.069555 0.100000
7.280681 3.217762 0.966718 0.140000
8.057570 2.602477 0.981459 0.130000
7.682088 1.585235 0.941697 0.070000
11.086661 1.354774 1.119729 0.200000
13.257977 0.250851 1.206294 0.060000
12.984733 -1.144537 1.175393 0.100000
13.443999 -2.671103 1.195917 0.000000
11.250290 -3.527900 1.087005 0.500000
9.477960 3.232816 0.162501 0.050000
8.006983 1.688969 0.262923 0.070000
10.141492 1.230225 0.141788 0.010000
10.216218 0.201474 0.138159 0.020000
9.990233 -0.793029 0.133872 0.060000
9.583350 -1.740952 0.119286 0.040000
7.478522 -2.046739 0.227657 0.140000
4.663122 1.620503 0.093939 0.020000
4.815924 1.213321 0.102824 0.010000
4.963180 0.836074 0.101806 0.030000
5.080070 0.478268 0.095781 0.010000
5.082448 0.093245 0.094356 0.030000
5.079635 -0.281875 0.092954 0.020000
5.006862 -0.658298 0.081365 0.050000
4.879181 -1.040793 0.074610 0.110000
7.349288 3.289034 0.982162 0.100000
8.057065 2.627435 0.991550 0.110000
7.621991 1.589066 0.946554 0.110000
11.100866 1.395016 1.129915 0.300000
13.227178 0.290213 1.221360 0.090000
12.983927 -1.104600 1.190539 0.090000
9.730229 3.377673 0.163698 0.050000
7.936944 1.687554 0.282735 0.060000
10.360384 1.289409 0.147580 0.010000
10.490591 0.236735 0.139007 0.020000
10.225272 -0.793546 0.139484 0.060000
9.829058 -1.776271 0.124797 0.050000
7.427713 -2.007779 0.247669 0.170000
4.672819 1.635673 0.099020 0.020000
4.840523 1.233777 0.107964 0.010000
5.002789 0.856836 0.101987 0.030000
5.129773 0.494223 0.095970 0.010000
5.122236 0.103991 0.099500 0.030000
5.114533 -0.276205 0.093066 0.020000
5.046937 -0.662550 0.086454 0.050000
4.939457 -1.054641 0.074715 0.120000
8.061616 2.647434 1.016637 0.110000
7.651550 1.609562 0.966708 0.190000
11.095489 1.409787 1.164957 0.230000
13.201790 0.304583 1.261347 0.140000
12.016560 -0.988051 1.173447 0.080000
17.018667 -3.438713 1.457397 0.010000
9.243037 4.528473 0.186704 0.060000
10.077168 3.539310 0.175205 0.050000
7.936699 1.697477 0.302772 0.060000
10.734056 1.361560 0.153824 0.010000
10.920211 0.259949 0.145214 0.020000
10.600860 -0.821376 0.145361 0.060000
10.120127 -1.830743 0.135354 0.040000
7.437563 -2.002662 0.267714 0.220000
4.736945 1.681909 0.099360 0.020000
4.895034 1.259826 0.108203 0.010000
5.047493 0.872695 0.102162 0.030000
5.184667 0.500275 0.096136 0.010000
5.177226 0.105044 0.099647 0.030000
5.179616 -0.279960 0.093222 0.020000
5.112116 -0.671303 0.086591 0.050000
4.984736 -1.068776 0.074781 0.110000
8.061468 2.652359 1.036655 0.110000
7.601699 1.598532 0.986537 0.140000
11.120296 1.415135 1.200042 0.240000
31.397766 0.789026 2.435657 0.250000
11.986379 -0.983757 1.208385 0.130000
7.941551 1.702498 0.322803 0.070000
10.973383 1.396076 0.174577 0.040000
11.395000 0.274008 0.156506 0.020000
11.046708 -0.862882 0.156371 0.040000
7.432403 -1.997852 0.292719 0.260000
4.781444 1.707748 0.104572 0.020000
4.969458 1.291275 0.103515 0.020000
5.102182 0.888727 0.107365 0.070000
5.249463 0.511518 0.096347 0.010000
5.252212 0.106481 0.099848 0.030000
5.249795 -0.288617 0.093373 0.030000
5.182487 -0.689959 0.086706 0.040000
5.050299 -1.097526 0.074845 0.110000
7.299332 3.277855 1.041991 0.040000
8.076304 2.657552 1.061713 0.160000
7.601646 1.598458 1.006536 0.120000
11.130217 1.415215 1.230068 0.230000
31.412668 0.778906 2.545659 0.230000
12.026362 -0.988139 1.248474 0.150000
33.392353 -11.996060 2.673339 0.160000
10.241135 5.157662 0.201649 0.050000
11.103614 3.994011 0.189574 0.050000
7.931679 1.692215 0.347740 0.070000
11.068096 1.407782 0.204868 0.050000
11.969975 0.280002 0.163029 0.020000
11.593030 -0.927449 0.162557 0.050000
11.024423 -2.048518 0.151905 0.040000
7.437446 -2.002830 0.312714 0.320000
4.835859 1.738795 0.104829 0.030000
5.024052 1.312306 0.108735 0.020000
5.171882 0.905065 0.107607 0.090000
5.319355 0.517858 0.096553 0.010000
5.282193 0.107037 0.104929 0.030000
5.380180 -0.306086 0.083649 0.110000
5.252857 -0.708614 0.086820 0.040000
5.105755 -1.121486 0.079901 0.120000
7.264861 3.247116 1.061787 0.070000
8.066432 2.647270 1.086649 0.170000
7.611688 1.593576 1.026545 0.140000
11.135316 1.405183 1.265045 0.250000
31.388178 0.738063 2.645445 0.310000
12.046638 -1.007900 1.288453 0.160000
17.922771 -3.677301 1.693873 0.000000
11.349828 -3.526617 1.257271 0.010000
10.997464 5.617229 0.205331 0.060000
7.961621 1.692715 0.367820 0.090000
10.958600 1.375551 0.239463 0.080000
12.594941 0.286954 0.169686 0.020000
11.943979 -0.975791 0.178293 0.070000
7.457773 -2.022517 0.332694 0.370000
4.880455 1.759635 0.110023 0.030000
5.093560 1.338642 0.109015 0.020000
5.246580 0.921498 0.107863 0.080000
5.389233 0.524179 0.101759 0.010000
5.402279 0.104354 0.100232 0.040000
5.350146 -0.306717 0.098568 0.090000
5.333334 -0.732059 0.081943 0.040000
5.166223 -1.145332 0.079970 0.110000
7.240293 3.221568 1.081628 0.110000
8.081460 2.642465 1.111671 0.170000
7.611828 1.583504 1.046508 0.160000
11.155425 1.395456 1.295061 0.220000
31.448565 0.703828 2.750476 0.080000
12.021755 -1.018489 1.318349 0.170000
17.908110 -3.702788 1.748740 0.000000
11.335039 -3.542013 1.287176 0.030000
11.333804 5.808630 0.226921 0.090000
12.299330 4.486925 0.214528 0.050000
7.956761 1.682547 0.387770 0.080000
10.933801 1.359945 0.274340 0.100000
11.959269 -0.995630 0.213260 0.080000
12.095028 -2.333119 0.168642 0.030000
7.452913 -2.032685 0.352643 0.370000
4.969492 1.811367 0.105448 0.030000
5.148262 1.354692 0.109217 0.030000
5.316280 0.937836 0.108106 0.070000
5.449125 0.530327 0.101938 0.020000
5.482360 0.100887 0.100428 0.040000
5.465425 -0.319493 0.093821 0.060000
5.433903 -0.760119 0.077101 0.040000
5.241988 -1.183870 0.075025 0.110000
7.250334 3.216686 1.101636 0.120000
8.086598 2.632488 1.131647 0.170000
7.611967 1.573431 1.066471 0.200000
11.140733 1.375061 1.324947 0.270000
31.504333 0.649502 2.855421 0.060000
12.011953 -1.033808 1.353267 0.160000
17.923635 -3.737699 1.803652 0.000000
11.375598 -3.576389 1.327154 0.100000
11.442925 5.850599 0.262362 0.120000
13.003984 4.770415 0.232421 0.030000
7.946985 1.667266 0.412688 0.080000
10.949007 1.345124 0.304325 0.090000
14.185262 0.282337 0.193821 0.020000
12.954467 -2.556699 0.170054 0.030000
7.448054 -2.042854 0.372593 0.370000
5.009185 1.827112 0.110610 0.030000
5.217853 1.376010 0.114478 0.020000
5.391074 0.949271 0.108344 0.100000
5.524111 0.531763 0.102139 0.020000
5.572452 0.097631 0.095651 0.040000
5.540795 -0.338053 0.093949 0.040000
5.514463 -0.788582 0.077205 0.040000
5.287446 -1.208022 0.080054 0.110000
7.265362 3.211881 1.126658 0.120000
8.096819 2.617590 1.156619 0.190000
7.612106 1.563359 1.086434 0.230000
11.140943 1.359952 1.354892 0.350000
31.485144 0.593776 2.950164 0.060000
13.034349 -1.164654 1.465451 0.150000
17.828712 -3.749702 1.853360 0.000000
11.320626 -3.582553 1.356988 0.130000
11.532338 5.877188 0.297695 0.120000
7.927320 1.646812 0.432560 0.090000
10.954310 1.325112 0.334265 0.070000
15.275537 0.278217 0.196651 0.010000
14.691106 -1.323277 0.194173 0.030000
13.276450 -2.660643 0.195509 0.030000
7.428088 -2.048329 0.397521 0.430000
5.113220 1.879132 0.106075 0.030000
5.317176 1.412937 0.109875 0.020000
5.475771 0.965896 0.108627 0.090000
5.609000 0.538390 0.102385 0.030000
5.647630 0.089069 0.095816 0.050000
5.616068 -0.351614 0.094095 0.050000
5.589928 -0.812141 0.077315 0.040000
5.358199 -1.246674 0.080095 0.120000
7.320082 3.222821 1.156841 0.130000
8.106943 2.607690 1.181609 0.210000
7.612342 1.548287 1.106379 0.240000
11.061549 1.323316 1.384549 0.350000
35.359818 0.586386 3.395256 0.180000
13.044805 -1.194624 1.510367 0.180000
17.889585 -3.803784 1.918318 0.000000
11.316002 -3.607793 1.396883 0.580000
7.519668 3.344232 0.457806 0.060000
15.003898 5.573785 0.260628 0.030000
7.927556 1.631741 0.452505 0.090000
10.969613 1.305292 0.364231 0.100000
13.112895 -1.183826 0.285572 0.030000
13.347195 -2.704443 0.235531 0.010000
7.433322 -2.063304 0.417479 0.450000
5.172717 1.905258 0.111328 0.040000
5.366962 1.423874 0.115045 0.030000
5.560563 0.977522 0.108891 0.110000
5.708885 0.545304 0.102672 0.030000
5.697786 0.079991 0.105913 0.050000
5.716433 -0.369695 0.094290 0.050000
5.660477 -0.840813 0.082392 0.040000
5.433951 -1.285230 0.080149 0.120000
7.349928 3.228320 1.176940 0.180000
8.092373 2.582333 1.201477 0.220000
7.632477 1.538598 1.126396 0.230000
11.011959 1.297251 1.414323 0.480000
35.930824 0.516723 3.556489 0.150000
13.070271 -1.224288 1.550324 0.140000
17.905359 -3.853748 1.988175 0.000000
11.326553 -3.642762 1.441781 0.400000
7.534888 3.329429 0.482791 0.180000
17.063168 6.413354 0.274125 0.010000
7.937776 1.616842 0.477477 0.080000
11.174387 1.314087 0.399799 0.350000
13.266562 0.184157 0.346059 0.000000
13.143359 -1.213394 0.325542 0.120000
7.448746 -2.088087 0.437427 0.450000
5.252114 1.936766 0.116652 0.040000
5.476271 1.460974 0.115468 0.030000
5.635345 0.988937 0.114129 0.120000
5.793869 0.546932 0.102900 0.030000
5.807970 0.072118 0.101171 0.050000
5.781791 -0.388465 0.099391 0.050000
5.741036 -0.869275 0.082497 0.040000
5.504692 -1.323900 0.085190 0.130000
7.370038 3.218594 1.206957 0.230000
8.107579 2.567512 1.231462 0.200000
7.627700 1.523412 1.151327 0.180000
11.022346 1.272317 1.449258 0.490000
35.062553 0.409855 3.613826 0.120000
13.065716 -1.254564 1.600200 0.130000
40.241589 -9.479612 4.110587 0.000000
11.312039 -3.673173 1.476630 0.490000
7.525399 3.299150 0.507654 0.270000
13.090511 4.666394 0.412262 0.040000
7.928095 1.596561 0.502376 0.090000
11.015284 1.260902 0.434186 0.340000
13.237039 0.153440 0.385868 0.010000
13.259192 -1.261331 0.365667 0.060000
7.449064 -2.108176 0.462354 0.470000
5.356149 1.988786 0.112117 0.050000
5.570870 1.482790 0.115796 0.030000
5.745037 1.006041 0.114479 0.110000
5.908848 0.549134 0.103208 0.020000
5.898132 0.063825 0.106376 0.050000
5.922352 -0.415759 0.094656 0.050000
5.816680 -0.902851 0.087570 0.030000
5.615821 -1.381782 0.085265 0.110000
7.380354 3.198696 1.231910 0.230000
8.117895 2.547614 1.256415 0.210000
7.682721 1.519373 1.176456 0.210000
11.012831 1.242001 1.484120 0.480000
35.054203 0.304163 3.753412 0.140000
40.259068 -9.629854 4.260076 0.020000
11.327781 -3.718045 1.521505 0.370000
7.520910 3.268967 0.532531 0.350000
13.101145 4.626407 0.462142 0.030000
7.938412 1.576664 0.527330 0.080000
11.010768 1.230682 0.469063 1.030000
18.483021 0.159111 0.344583 0.000000
13.199552 -1.287661 0.415414 0.190000
13.469598 -2.847619 0.370319 0.020000
7.449395 -2.128246 0.482280 0.470000
5.435546 2.020293 0.117441 0.050000
5.690177 1.520082 0.116247 0.040000
5.839827 1.017859 0.114770 0.120000
6.028729 0.556432 0.103548 0.030000
6.008399 0.050935 0.106616 0.050000
5.992805 -0.439432 0.099752 0.040000
5.947627 -0.950333 0.082735 0.030000
5.686670 -1.425433 0.085288 0.100000
7.395669 3.178894 1.256876 0.230000
8.123213 2.527621 1.281355 0.200000
7.698036 1.499572 1.201423 0.240000
11.053211 1.217642 1.519136 0.310000
35.860748 0.203877 3.950147 0.140000
39.773872 -9.639551 4.368774 0.010000
7.551030 3.259450 0.557574 0.400000
14.714401 5.252359 0.483680 0.140000
7.948741 1.556785 0.547283 0.080000
11.031153 1.205939 0.504024 1.307000
13.248252 0.078329 0.470619 0.010000
13.175122 -1.323282 0.455218 0.110000
7.444714 -2.148431 0.507193 0.500000
5.554566 2.072582 0.117946 0.060000
5.799677 1.547183 0.116633 0.040000
5.969419 1.040345 0.115192 0.120000
6.138792 0.553521 0.108824 0.030000
6.123664 0.038140 0.106869 0.050000
6.118357 -0.467033 0.099977 0.050000
6.023257 -0.983927 0.092807 0.030000
5.802894 -1.488218 0.085358 0.110000
7.400986 3.158901 1.281816 0.230000
8.133515 2.507705 1.311308 0.180000
7.723240 1.484942 1.231434 0.330000
11.153445 1.199375 1.569330 0.410000
36.382713 0.078118 4.151044 0.260000
39.997620 -9.861038 4.568537 0.020000
11.188104 -3.745981 1.591037 0.260000
7.551527 3.229345 0.587464 0.490000
7.954058 1.536791 0.572223 0.080000
16.255524 -3.659590 0.424574 0.010000
7.450236 -2.178404 0.527097 0.560000
5.663670 2.119661 0.123406 0.060000
5.948883 1.590048 0.117182 0.050000
6.119021 1.063232 0.110668 0.120000
6.278779 0.556221 0.104200 0.030000
6.273924 0.026016 0.107216 0.050000
6.249003 -0.499536 0.100197 0.040000
6.139098 -1.026716 0.092951 0.030000
5.883824 -1.536695 0.090389 0.110000
7.421288 3.139176 1.311796 0.200000
8.134025 2.477618 1.336198 0.140000
7.713669 1.459681 1.251316 0.410000
11.179007 1.164712 1.609268 0.300000
36.629826 -0.052778 4.316204 0.350000
41.191330 -10.344307 4.854859 0.010000
7.479304 -2.225367 1.212005 0.420000
7.576840 3.209734 0.612457 0.420000
7.944569 1.506513 0.597086 0.090000
11.157001 1.153083 0.574157 0.100000
13.316969 -1.430915 0.545189 0.030000
13.401449 -2.964458 0.509709 0.020000
7.440556 -2.198685 0.551996 0.500000
5.817409 2.187636 0.119060 0.070000
6.103004 1.638027 0.112763 0.050000
6.298509 1.091675 0.111242 0.120000
6.443652 0.564380 0.104661 0.030000
6.439289 0.009198 0.102585 0.050000
6.434844 -0.540966 0.095528 0.040000
6.260129 -1.079407 0.093071 0.040000
6.020345 -1.614076 0.085457 0.120000
7.486101 3.145308 1.341989 0.170000
8.119634 2.442244 1.361029 0.100000
7.733887 1.444974 1.276314 0.400000
36.556992 -0.184672 4.445525 0.360000
57.429646 -7.489523 6.737878 0.050000
39.465588 -10.057216 4.826422 0.030000
7.373902 -2.207438 1.226797 0.630000
7.547739 3.159076 0.637193 0.340000
13.084855 4.405341 0.656280 0.010000
7.949982 1.481520 0.622007 0.100000
11.122765 1.107273 0.613898 0.150000
13.350371 -0.050233 0.605409 0.010000
15.820279 -3.668386 0.548406 0.010000
7.471347 -2.243195 0.576911 0.540000
5.966327 2.245498 0.119664 0.070000
6.287012 1.691561 0.113442 0.050000
6.468107 1.114945 0.106771 0.110000
6.613716 0.562636 0.105098 0.030000
6.619748 -0.012331 0.097976 0.060000
6.590581 -0.577990 0.095797 0.040000
6.406252 -1.136619 0.093240 0.040000
6.146745 -1.686686 0.090517 0.090000
7.555901 3.151518 1.377194 0.160000
8.100243 2.406775 1.385847 0.090000
7.714414 1.414522 1.296150 0.400000
11.289913 1.106514 1.694342 0.770000
36.574413 -0.329859 4.580032 0.330000
57.368504 -7.721523 6.951858 0.050000
38.945889 -10.092560 4.929935 0.020000
7.298781 -2.203931 1.241614 0.570000
7.568053 3.139370 0.662173 0.270000
8.430445 2.500774 0.662051 0.020000
7.920497 1.450858 0.646816 0.090000
11.153325 1.072706 0.653849 0.080000
14.991755 -0.113992 0.659457 0.010000
13.413307 -3.074598 0.604331 0.020000
7.436576 -2.258955 0.601762 0.490000
6.149759 2.329026 0.120453 0.090000
6.436409 1.724427 0.113954 0.060000
6.642691 1.138293 0.107314 0.120000
6.793695 0.566102 0.100581 0.030000
6.780197 -0.034263 0.098314 0.060000
6.736416 -0.620205 0.096021 0.040000
6.537377 -1.194118 0.093368 0.040000
6.182479 -1.726045 0.100464 0.120000
8.100848 2.371689 1.410718 0.120000
7.734824 1.389817 1.321112 0.420000
36.637051 -0.489275 4.739605 0.180000
40.753880 -5.573144 5.226458 0.030000
40.456932 -10.705050 5.291606 0.020000
7.274117 -2.224480 1.261473 0.570000
7.425205 3.021504 0.691363 0.450000
8.386333 2.449810 0.691746 0.060000
7.926006 1.420867 0.671720 0.110000
11.104105 1.026626 0.688550 0.100000
14.972682 -0.169551 0.709202 0.010000
13.364482 -1.580526 0.679758 0.030000
7.436989 -2.284043 0.626670 0.470000
6.293774 2.381793 0.121025 0.090000
6.645329 1.783457 0.109719 0.060000
6.802456 1.151337 0.112779 0.130000
6.963747 0.564340 0.106018 0.040000
6.945632 -0.056116 0.103664 0.060000
6.902248 -0.662036 0.096299 0.040000
6.723793 -1.265542 0.088589 0.040000
6.127328 -1.722193 0.125335 0.180000
8.136147 2.352251 1.440738 0.110000
7.725253 1.364556 1.340993 0.380000
36.004288 -0.621673 4.807462 0.180000
40.962379 -5.779866 5.411235 0.020000
38.776436 -10.427001 5.238253 0.030000
7.214171 -2.230703 1.281294 0.720000
7.440808 2.986705 0.716274 0.470000
8.396840 2.419914 0.716663 0.150000
7.797032 1.363313 0.691169 0.100000
11.139774 0.987174 0.723497 0.110000
14.888717 -0.231353 0.758753 0.010000
12.758615 -1.547289 0.723301 0.040000
15.728207 -3.845804 0.717508 0.040000
7.407326 -2.304688 0.646516 0.510000
6.502106 2.470799 0.121900 0.090000
6.804615 1.821496 0.115276 0.060000
7.006952 1.180277 0.108420 0.140000
7.158819 0.563094 0.101522 0.030000
7.111176 -0.082951 0.103997 0.060000
7.083268 -0.713578 0.096579 0.040000
6.849989 -1.328173 0.098686 0.050000
6.137862 -1.752051 0.140252 0.200000
8.156556 2.327546 1.465700 0.160000
7.735760 1.334660 1.365910 0.380000
40.358887 -5.876770 5.499300 0.010000
38.583679 -10.566249 5.382233 0.030000
7.194506 -2.251156 1.301167 0.550000
7.431415 2.951427 0.741119 0.490000
8.387530 2.379619 0.746489 0.150000
7.787543 1.333035 0.716032 0.100000
11.135437 0.946937 0.763336 0.120000
14.904624 -0.286260 0.813591 0.010000
12.699193 -1.583580 0.763011 0.090000
7.428023 -2.344390 0.671423 0.490000
6.680827 2.539234 0.122621 0.100000
7.023616 1.875700 0.116049 0.060000
7.181715 1.193607 0.113926 0.130000
7.358864 0.561907 0.107040 0.030000
7.346720 -0.108426 0.099517 0.050000
7.244183 -0.760523 0.101825 0.040000
7.046581 -1.409422 0.098897 0.050000
6.112993 -1.762621 0.165148 0.220000
8.191841 2.308090 1.500720 0.110000
7.741173 1.309667 1.390831 0.280000
11.133053 0.923001 1.823252 0.110000
49.689964 -1.337214 6.890547 0.070000
39.364460 -5.920952 5.531541 0.040000
38.260616 -10.687916 5.505939 0.020000
7.094307 -2.243110 1.310935 0.530000
8.413035 2.350010 0.771446 0.110000
7.763154 1.297470 0.740837 0.090000
11.166106 0.907389 0.798270 0.100000
13.254498 -0.297938 0.829241 0.010000
12.700047 -1.633719 0.802828 0.060000
15.499304 -3.920604 0.826634 0.070000
7.368065 -2.350631 0.696244 0.290000
6.884351 2.618146 0.123446 0.110000
7.212814 1.919331 0.116705 0.060000
7.416192 1.223103 0.114648 0.130000
7.559018 0.555739 0.107540 0.030000
7.522345 -0.140086 0.104857 0.060000
7.440296 -0.816777 0.102128 0.040000
7.238187 -1.490749 0.094095 0.040000
6.118528 -1.792575 0.180051 0.190000
11.128825 0.877783 1.858073 0.160000
51.839798 -1.637891 7.385046 0.050000
11.680231 -1.547305 1.910498 0.000000
38.037704 -10.817703 5.639876 0.020000
7.084723 -2.268390 1.335816 0.880000
7.748679 1.267114 0.760686 0.110000
12.694990 -0.333788 0.862647 0.010000
11.612502 -1.514618 0.825432 0.140000
15.440308 -3.981965 0.886252 0.080000
7.293027 -2.352142 0.716042 0.360000
7.092958 2.692136 0.129265 0.110000
7.441896 1.968709 0.122487 0.060000
7.640862 1.242409 0.115306 0.110000
7.779156 0.549936 0.113093 0.040000
7.757971 -0.170579 0.105359 0.050000
7.696603 -0.881862 0.097555 0.030000
7.460063 -1.586516 0.094318 0.040000
11.139485 0.837834 1.897953 0.170000
51.428562 -1.856282 7.513162 0.090000
11.655911 -1.587906 1.945284 0.010000
39.217846 -11.381392 5.965865 0.010000
7.080329 -2.303572 1.360674 0.740000
7.744189 1.236931 0.785562 0.110000
12.705937 -0.388734 0.902472 0.040000
11.573280 -1.560505 0.860159 0.240000
7.253270 -2.367980 0.735880 0.450000
7.370798 2.807477 0.130419 0.110000
7.680893 2.023296 0.123314 0.050000
7.855521 1.261506 0.120937 0.110000
8.004401 0.539248 0.113641 0.030000
7.948689 -0.206951 0.110722 0.040000
7.847602 -0.934016 0.107755 0.030000
7.631646 -1.668263 0.099462 0.040000
7.305615 -2.399618 0.090892 0.090000
49.246033 25.227360 8.793157 0.060000
11.165252 0.793191 1.932855 0.200000
43.032650 -1.748409 6.496636 0.040000
11.631783 -1.638505 1.980034 0.010000
40.494343 -12.018342 6.316833 0.020000
7.121297 -2.357907 1.390580 0.580000
15.209149 4.659401 1.117774 0.200000
7.784513 1.217626 0.805596 0.070000
12.626615 -0.430408 0.942110 0.070000
11.513775 -1.591779 0.894888 0.310000
15.447894 -4.132249 0.995714 0.060000
7.233687 -2.393451 0.760734 0.490000
7.624026 2.902344 0.131433 0.100000
7.905071 2.067579 0.129063 0.060000
8.105187 1.281291 0.121663 0.120000
8.254533 0.534019 0.119275 0.030000
8.229595 -0.251579 0.111289 0.040000
8.008792 -0.995976 0.117946 0.030000
7.833512 -1.764432 0.104631 0.040000
7.366810 -2.463512 0.105815 0.050000
49.405468 24.964504 9.027598 0.080000
11.190908 0.753529 1.972775 0.160000
43.070911 -1.943371 6.676013 0.110000
40.415817 -6.873845 6.310751 0.040000
40.427757 -12.220258 6.480910 0.020000
13.058827 5.698366 1.126023 0.080000
15.116049 4.552416 1.167134 0.120000
15.106623 2.702074 1.115230 0.260000
31.205612 2.313475 1.660814 0.030000
12.612567 -0.485833 0.981868 0.120000
11.514642 -1.641899 0.929704 0.350000
7.219117 -2.418808 0.780602 0.470000
7.897154 3.002592 0.132518 0.110000
8.164052 2.122530 0.134944 0.050000
8.374741 1.306439 0.127460 0.110000
8.554764 0.524767 0.120024 0.030000
8.495408 -0.291496 0.111835 0.040000
8.285369 -1.075693 0.118371 0.030000
8.005192 -1.851178 0.109757 0.030000
7.387616 -2.508195 0.125703 0.180000
49.826710 24.866583 9.293336 0.050000
45.489502 15.216838 7.876129 0.050000
43.079445 -2.148794 6.825274 0.130000
40.183750 -7.043705 6.414515 0.040000
40.411583 -12.441156 6.630048 0.010000
13.125420 3.789304 1.119100 0.060000
31.187929 2.177727 1.765265 0.030000
12.623431 -0.535762 1.016711 0.110000
11.515495 -1.692039 0.969521 0.320000
15.470778 -4.297225 1.100162 0.010000
7.194549 -2.444356 0.800443 0.440000
8.155451 3.092518 0.143527 0.110000
8.462750 2.193263 0.135986 0.050000
8.840094 0.510229 0.120715 0.030000
8.806403 -0.340548 0.112464 0.040000
8.501753 -1.146580 0.123673 0.030000
8.292629 -1.975695 0.110045 0.030000
7.373142 -2.538551 0.145553 0.310000
53.668713 26.502245 10.184455 0.060000
44.639587 14.680410 7.886917 0.050000
43.113060 -2.358756 6.979583 0.100000
40.101780 -7.220782 6.543644 0.020000
40.349953 -12.637903 6.774157 0.010000
13.056480 5.547983 1.210459 0.020000
13.106661 3.718786 1.158790 0.080000
31.255243 2.043626 1.864943 0.040000
12.579211 -0.581746 1.051425 0.140000
11.561462 -1.746278 0.999439 0.260000
13.428972 -3.696113 1.067066 0.030000
7.169884 -2.464906 0.820303 0.380000
8.453382 3.203244 0.144716 0.120000
8.518071 2.174246 0.156060 0.040000
7.882594 1.141691 0.205564 0.200000
9.135326 0.500882 0.121451 0.030000
9.072408 -0.390463 0.112973 0.040000
8.783439 -1.231182 0.119093 0.030000
8.479593 -2.077151 0.115156 0.030000
7.358654 -2.568925 0.170402 0.280000
52.254391 25.420242 10.101740 0.090000
45.264942 14.631425 8.148370 0.060000
42.420856 7.883679 7.320854 0.050000
41.219776 -2.444462 6.819320 0.050000
13.057883 5.467813 1.260165 0.020000
15.666543 4.507309 1.343405 0.070000
31.252748 1.898167 1.969397 0.030000
12.610168 -0.636291 1.086304 0.130000
11.557330 -1.796494 1.034242 0.200000
8.731592 3.298570 0.150797 0.140000
8.523688 2.139274 0.175945 0.040000
7.808310 1.100170 0.230216 0.220000
9.515555 0.493181 0.117414 0.030000
9.403400 -0.439132 0.113656 0.030000
9.050100 -1.316108 0.124474 0.030000
8.726834 -2.192454 0.120372 0.030000
41.689774 19.813559 8.243302 0.040000
45.070347 14.332242 8.256751 0.090000
41.298866 7.462300 7.266358 0.080000
42.214104 -2.701528 7.110963 0.070000
29.464386 13.494830 2.317841 0.150000
13.108860 3.593531 1.233331 0.080000
31.295309 1.753664 2.048971 0.050000
12.631031 -0.686028 1.121174 0.080000
11.658479 -1.859678 1.064272 0.110000
13.451360 -3.830983 1.141624 0.020000
8.514391 2.098997 0.200771 0.060000
7.858644 1.081075 0.245276 0.460000
9.800873 0.478624 0.123105 0.030000
9.669487 -0.494064 0.119146 0.030000
9.341866 -1.405536 0.124903 0.030000
8.979279 -2.317642 0.120566 0.030000
52.497852 24.928442 10.475551 0.040000
45.496483 14.249674 8.452559 0.050000
41.396683 7.298686 7.391006 0.040000
39.860821 2.169924 6.942927 0.020000
42.672615 -2.908516 7.311393 0.070000
13.070189 5.337769 1.329715 0.070000
13.193850 2.029901 1.222740 0.010000
13.235738 0.630547 1.192647 0.010000
11.985864 -0.683384 1.119499 0.070000
8.163184 2.937309 0.232971 0.160000
8.549716 2.079597 0.220792 0.020000
7.824173 1.050336 0.265072 0.440000
