# This PCD file was generated using the MATLAB® pcwrite function
# from Computer Vision Toolbox®.
# .PCD v.7 - Point Cloud Data file format
VERSION .7
FIELDS x y z intensity
SIZE 4 4 4 4
TYPE F F F F
COUNT 1 1 1 1
WIDTH 1289
HEIGHT 1
VIEWPOINT 0 0 0 1 0 0 0
POINTS 1289
DATA ascii
7.688793 0.828236 0.118892 0.090000
7.767003 0.139612 0.116536 0.030000
7.650548 -0.567725 0.108602 0.030000
7.448605 -1.251732 0.110533 0.030000
7.171606 -1.932138 0.102280 0.030000
6.794435 -2.604462 0.093796 0.070000
44.474903 18.639606 7.451200 0.060000
8.552855 0.949654 1.526613 0.100000
7.643928 0.122632 1.376165 0.130000
46.056499 -4.811571 6.638144 0.080000
41.730850 -9.703371 6.088663 0.020000
11.374402 -3.598634 1.932075 0.050000
7.671178 -3.137734 1.449117 0.300000
13.076777 4.784135 0.962670 0.110000
17.889650 4.405912 1.063828 0.050000
11.068450 1.300442 0.839476 0.300000
7.620603 0.124532 0.736104 0.100000
13.060964 -1.161870 0.845524 0.100000
11.195643 -3.502787 0.771952 0.250000
7.743397 -3.148621 0.704257 0.300000
7.157241 2.208281 0.127634 0.100000
7.386106 1.487556 0.120552 0.040000
7.484420 0.794334 0.113232 0.100000
7.562150 0.130706 0.110968 0.030000
7.410114 -0.547326 0.108051 0.040000
7.217594 -1.201147 0.110118 0.030000
7.000502 -1.875387 0.097045 0.040000
6.602554 -2.508120 0.093654 0.070000
44.952782 18.774296 7.312947 0.070000
56.985413 15.444586 8.576990 0.120000
8.573109 0.940132 1.501630 0.120000
7.664072 0.118090 1.356200 0.120000
46.037945 -4.861257 6.452909 0.080000
39.557369 -9.218262 5.634789 0.020000
11.349620 -3.603945 1.886990 0.060000
7.661258 -3.137814 1.419090 0.340000
13.087193 4.769516 0.912642 0.070000
17.979803 4.407878 0.999070 0.040000
11.053736 1.290287 0.804400 0.480000
7.610753 0.119416 0.716059 0.090000
13.051261 -1.171911 0.805461 0.090000
11.160742 -3.503328 0.736859 0.230000
7.748735 -3.163448 0.684216 0.280000
6.983819 2.124964 0.121872 0.120000
7.187197 1.428736 0.119815 0.040000
7.305028 0.760893 0.112640 0.110000
7.337383 0.116398 0.110328 0.030000
7.199757 -0.531370 0.112561 0.040000
7.006676 -1.155178 0.109738 0.040000
6.804101 -1.804136 0.096797 0.040000
6.440859 -2.421201 0.093555 0.070000
44.736572 18.605949 7.086754 0.040000
57.087036 15.392348 8.352059 0.070000
11.075999 1.292010 1.814475 0.640000
7.659234 0.113088 1.331169 0.120000
46.059166 -4.900215 6.277818 0.140000
39.568443 -9.252487 5.479689 0.030000
11.339740 -3.603969 1.841964 0.090000
7.656420 -3.142816 1.394059 0.400000
13.067711 4.749322 0.862516 0.040000
13.125333 3.050199 0.836350 0.020000
11.019135 1.274768 0.764251 0.790000
7.620912 0.114702 0.691068 0.090000
13.016481 -1.177413 0.760349 0.090000
16.646732 -3.508391 0.786161 0.020000
11.171036 -3.512985 0.696850 0.180000
7.743814 -3.163432 0.654202 0.250000
6.790389 2.041245 0.121056 0.120000
6.973387 1.364630 0.119018 0.040000
7.090643 0.726781 0.111953 0.100000
7.157417 0.112951 0.109846 0.040000
7.004424 -0.515090 0.107112 0.040000
6.840940 -1.118346 0.109442 0.040000
6.647980 -1.747116 0.096601 0.040000
6.269071 -2.329475 0.093447 0.080000
44.490120 18.452082 6.845536 0.040000
57.083740 15.338192 8.101847 0.070000
11.031317 1.281317 1.769318 0.700000
7.689376 0.108738 1.311231 0.140000
45.919891 -4.912170 6.082408 0.130000
38.866051 -9.100014 5.233419 0.040000
11.340035 -3.613818 1.801927 0.050000
7.651595 -3.147799 1.364027 0.400000
14.674923 5.435316 0.844261 0.200000
13.105755 3.035004 0.786242 0.030000
11.024321 1.269995 0.729247 0.830000
7.626059 0.109873 0.671063 0.090000
12.946598 -1.178605 0.720162 0.080000
16.667171 -3.522782 0.726160 0.020000
11.151144 -3.513220 0.656796 0.170000
7.754165 -3.178145 0.629175 0.230000
6.626870 1.963117 0.115338 0.120000
6.809293 1.316497 0.113411 0.040000
6.926153 0.698626 0.111419 0.090000
6.967561 0.104332 0.104318 0.040000
6.854164 -0.502965 0.106764 0.040000
6.705403 -1.090918 0.104190 0.030000
6.451580 -1.675864 0.096353 0.040000
6.152956 -2.271671 0.088359 0.080000
46.831722 19.416639 6.980236 0.050000
57.095108 15.299246 7.871729 0.070000
11.041502 1.276640 1.734327 0.830000
7.674431 0.108525 1.291191 0.160000
52.268684 -5.652820 6.671233 0.180000
38.831680 -9.110068 5.068290 0.040000
11.345235 -3.618573 1.761923 0.060000
7.661754 -3.152514 1.339036 0.410000
14.640456 5.414854 0.789094 0.210000
18.224787 4.438290 0.804820 0.050000
11.009510 1.264838 0.694189 0.850000
7.631110 0.110043 0.651077 0.090000
12.981901 -1.187765 0.675220 0.060000
16.642429 -3.528037 0.666075 0.020000
11.206813 -3.542012 0.616834 0.220000
7.739138 -3.173340 0.604153 0.140000
6.453340 1.884780 0.114594 0.120000
6.645186 1.268345 0.112804 0.040000
6.731668 0.669896 0.110805 0.090000
6.817589 0.101459 0.103916 0.040000
6.693811 -0.486033 0.106409 0.040000
6.514468 -1.044585 0.108864 0.030000
6.305457 -1.618653 0.096185 0.040000
5.991165 -2.179753 0.088278 0.080000
46.882236 19.418341 6.780372 0.030000
57.091213 15.275047 7.631627 0.070000
11.031691 1.271580 1.699282 0.840000
7.689590 0.103907 1.266213 0.180000
57.434937 -6.245394 7.067520 0.190000
39.470112 -9.272595 4.994352 0.020000
11.335245 -3.613617 1.721915 0.060000
7.651725 -3.147613 1.314028 0.430000
14.670511 5.420650 0.729194 0.090000
18.269770 4.449410 0.734978 0.060000
11.019600 1.265160 0.659216 0.860000
7.636271 0.105232 0.626072 0.090000
12.987018 -1.187502 0.630234 0.050000
16.667772 -3.537333 0.606106 0.020000
11.176731 -3.532440 0.576791 0.130000
6.314420 1.827109 0.114017 0.110000
6.481079 1.220194 0.112196 0.040000
6.582080 0.647027 0.110329 0.090000
6.637719 0.093013 0.103415 0.030000
6.548468 -0.468796 0.101093 0.040000
6.363825 -1.012465 0.108591 0.030000
6.144228 -1.556748 0.100994 0.040000
5.859739 -2.107275 0.093205 0.080000
46.089947 19.049166 6.486928 0.040000
57.112141 15.256215 7.421609 0.070000
11.031878 1.266711 1.664264 0.860000
7.679644 0.103789 1.246186 0.190000
40.616146 -4.349557 4.955644 0.140000
39.385231 -9.258669 4.844181 0.030000
11.335350 -3.613468 1.681915 0.060000
7.666979 -3.157231 1.289032 0.400000
13.136197 3.031082 0.651305 0.020000
11.024703 1.265405 0.619230 0.770000
7.641322 0.105402 0.606086 0.080000
13.047316 -1.196184 0.585358 0.050000
16.703115 -3.546438 0.546164 0.020000
11.257491 -3.565753 0.536877 0.230000
6.145792 1.753867 0.113305 0.110000
6.326778 1.182232 0.111652 0.040000
6.412495 0.623775 0.109800 0.090000
6.477640 0.094929 0.108004 0.030000
6.383102 -0.451978 0.105724 0.040000
6.218086 -0.975249 0.108348 0.020000
6.013199 -1.504248 0.100847 0.050000
5.723136 -2.024877 0.093155 0.080000
56.978680 23.754335 7.677854 0.050000
57.147705 15.262832 7.166724 0.070000
11.026983 1.266763 1.624251 0.810000
7.674697 0.103768 1.226173 0.190000
39.774738 -4.249755 4.708816 0.110000
39.234879 -9.215862 4.658946 0.010000
11.350547 -3.618031 1.641937 0.060000
7.667045 -3.157138 1.264032 0.410000
13.121330 3.030980 0.601265 0.020000
11.009893 1.260248 0.584171 0.930000
7.666369 0.105956 0.586153 0.070000
13.112599 -1.204789 0.545496 0.040000
17.276039 -3.685270 0.487143 0.020000
11.277783 -3.575219 0.496895 0.190000
7.724254 -3.168331 0.524132 0.020000
5.997053 1.685988 0.117664 0.100000
6.152660 1.133871 0.116018 0.040000
6.257907 0.600810 0.109311 0.090000
6.302673 0.091578 0.107535 0.040000
6.222749 -0.435046 0.105369 0.040000
6.122638 -0.952055 0.103185 0.030000
5.887264 -1.456652 0.100695 0.050000
5.606912 -1.962092 0.093085 0.090000
46.314606 19.124949 6.087792 0.030000
57.153427 15.258821 6.926722 0.070000
11.037073 1.267085 1.589278 0.840000
7.654779 0.103496 1.196120 0.200000
39.760185 -4.249411 4.538777 0.150000
39.240311 -9.215153 4.493960 0.010000
11.310385 -3.603633 1.596886 0.070000
7.687298 -3.166660 1.239049 0.430000
14.685857 5.426569 0.559254 0.060000
13.126460 3.031262 0.551279 0.030000
11.034884 1.265856 0.549257 1.060000
7.646438 0.105665 0.561100 0.070000
13.182908 -1.213260 0.495648 0.070000
26.421339 -5.934769 0.297650 0.030000
11.222419 -3.551128 0.456839 0.120000
7.714238 -3.163412 0.494124 0.010000
5.838328 1.617936 0.116997 0.100000
6.028259 1.101482 0.115573 0.030000
6.128123 0.588323 0.108926 0.080000
6.157700 0.088801 0.107146 0.040000
6.102484 -0.422347 0.105102 0.040000
5.981993 -0.919743 0.102938 0.030000
5.786530 -1.418556 0.095574 0.050000
5.520983 -1.913711 0.088040 0.080000
46.319839 19.140785 5.887863 0.060000
57.193623 15.280419 6.701904 0.070000
11.022180 1.266947 1.549238 0.900000
7.654831 0.103571 1.176120 0.200000
41.163219 -4.392511 4.526907 0.170000
40.270134 -9.450289 4.445774 0.000000
11.340579 -3.607909 1.556948 0.070000
7.692279 -3.161454 1.209081 0.470000
14.690821 5.436885 0.499305 0.120000
13.131480 3.036524 0.506312 0.030000
11.009980 1.265508 0.514190 1.040000
7.666487 0.106123 0.541153 0.030000
13.167837 -1.203382 0.450645 0.060000
24.954046 -5.557528 0.220222 0.020000
11.187147 -3.531654 0.416819 0.130000
7.688829 -3.138803 0.469149 0.020000
5.729115 1.575837 0.116555 0.100000
5.879053 1.058617 0.115024 0.030000
5.998422 0.570817 0.113522 0.090000
6.062717 0.086981 0.106892 0.040000
5.972125 -0.404841 0.104827 0.040000
5.886449 -0.891549 0.097794 0.030000
5.675592 -1.370672 0.095462 0.050000
5.429946 -1.860445 0.088000 0.060000
46.260426 19.140453 5.667704 0.070000
50.052326 13.331938 5.686010 0.030000
11.037077 1.277362 1.514316 0.940000
7.639803 0.108376 1.151098 0.220000
13.209823 -1.217072 1.675716 0.050000
40.320049 -9.423759 4.291001 0.010000
11.310210 -3.583339 1.516960 0.070000
7.707342 -3.161074 1.184121 0.490000
13.106507 3.041212 0.461263 0.020000
11.029889 1.276037 0.474281 0.700000
13.457397 -2.732832 0.370714 0.020000
11.066124 -3.473814 0.376718 0.300000
11.309529 -5.209313 0.330901 0.110000
5.619903 1.533738 0.116114 0.100000
5.784454 1.036802 0.114696 0.030000
5.888634 0.558712 0.113191 0.080000
5.942644 0.089682 0.106588 0.030000
5.881855 -0.391567 0.104640 0.050000
5.760789 -0.858968 0.102587 0.020000
5.579843 -1.332499 0.095354 0.060000
5.348907 -1.806987 0.087988 0.080000
45.749104 18.976494 5.430758 0.060000
50.017048 13.371948 5.501065 0.120000
11.027075 1.282300 1.479307 0.910000
7.649758 0.113640 1.131144 0.220000
13.144582 -1.198135 1.625616 0.270000
40.319592 -9.378192 4.136168 0.010000
11.315218 -3.578096 1.476992 0.090000
7.682029 -3.141463 1.159128 0.460000
13.078584 4.766165 0.417602 0.050000
13.111336 3.056472 0.416332 0.040000
13.122588 -1.178933 0.365617 0.050000
11.066024 -3.463686 0.341755 0.260000
7.663485 -3.114100 0.419174 0.040000
5.545409 1.507325 0.110821 0.110000
5.664956 1.009508 0.114283 0.030000
5.778859 0.546626 0.107859 0.090000
5.837581 0.092689 0.101325 0.030000
5.766493 -0.373773 0.104406 0.050000
5.705442 -0.839988 0.092513 0.030000
5.478904 -1.284424 0.095270 0.070000
5.272976 -1.758415 0.082970 0.090000
43.611725 18.096981 4.991904 0.070000
49.961784 13.416722 5.276085 0.150000
11.046887 1.297828 1.439417 0.750000
7.634634 0.123444 1.106140 0.230000
13.099338 -1.178815 1.575569 0.430000
17.844687 -3.819922 1.993142 0.000000
11.304941 -3.558142 1.437039 0.120000
7.722278 -3.150602 1.134199 0.510000
8.620719 0.949859 0.461780 0.070000
13.127418 -1.163673 0.320686 0.040000
13.371689 -2.684135 0.280671 0.040000
11.081017 -3.458270 0.306814 0.250000
7.663359 -3.104009 0.394211 0.060000
5.416282 1.459825 0.115308 0.100000
5.595269 0.993189 0.109040 0.030000
5.674070 0.534617 0.107541 0.080000
5.752501 0.096060 0.101115 0.040000
5.706326 -0.364906 0.099281 0.050000
5.609872 -0.811832 0.097368 0.030000
5.428447 -1.260367 0.090227 0.060000
5.186938 -1.705053 0.082944 0.090000
43.560974 18.161697 4.807011 0.060000
49.960640 13.502394 5.091398 0.130000
11.131458 1.324545 1.414736 0.620000
7.629591 0.128422 1.086146 0.180000
11.966836 -1.039984 1.438127 0.370000
17.854376 -3.794494 1.928261 0.000000
11.299567 -3.533094 1.397117 0.110000
7.727151 -3.140416 1.109249 0.530000
14.947827 5.627685 0.270682 0.040000
8.595597 0.959471 0.436750 0.100000
13.366411 -2.664086 0.240731 0.040000
11.111019 -3.452548 0.266913 0.190000
7.678325 -3.098630 0.369269 0.110000
5.341788 1.433412 0.110015 0.090000
5.515476 0.981659 0.108789 0.030000
5.599084 0.533181 0.107340 0.080000
5.662422 0.099336 0.100893 0.030000
5.600962 -0.346920 0.099073 0.060000
5.544514 -0.793062 0.092267 0.040000
5.337698 -1.222099 0.090133 0.060000
5.115993 -1.656403 0.082939 0.090000
43.440971 18.185045 4.631783 0.070000
30.272640 7.996258 3.139519 0.040000
11.166243 1.340323 1.384885 0.560000
7.624453 0.138399 1.066169 0.200000
12.026711 -1.028726 1.408325 0.300000
17.843946 -3.764486 1.873345 0.000000
11.319464 -3.522583 1.362208 0.070000
7.737022 -3.130133 1.084313 0.490000
14.253018 5.354439 0.237853 0.030000
14.831737 3.600213 0.232842 0.040000
8.590472 0.969466 0.411773 0.110000
14.525178 -1.276446 0.193914 0.010000
13.109909 -2.583874 0.210359 0.050000
11.191288 -3.460883 0.232091 0.220000
7.647712 -3.064137 0.349318 0.140000
5.267282 1.406981 0.109722 0.090000
5.415878 0.959748 0.108447 0.030000
5.514196 0.526554 0.107094 0.070000
5.602351 0.103204 0.095750 0.030000
5.525689 -0.333360 0.098927 0.060000
5.458955 -0.764695 0.092149 0.040000
5.287145 -1.193043 0.085109 0.060000
5.045144 -1.612752 0.082917 0.100000
29.681919 12.200614 3.173606 0.020000
30.301689 8.062247 3.024839 0.020000
11.160952 1.360354 1.349946 0.540000
7.594332 0.147915 1.041126 0.180000
11.986344 -1.004348 1.368310 0.480000
17.933784 -3.747561 1.818642 0.000000
7.741882 -3.119965 1.064363 0.410000
13.007725 4.835480 0.237673 0.060000
13.717036 3.313832 0.223868 0.050000
8.615232 0.985016 0.391896 0.060000
13.934747 0.307562 0.188261 0.010000
11.989076 -0.990186 0.248358 0.010000
12.793021 -2.484833 0.184900 0.040000
11.291852 -3.483815 0.192268 0.160000
7.652585 -3.053950 0.324368 0.200000
5.217495 1.396044 0.104551 0.100000
5.351081 0.948505 0.108237 0.030000
5.439306 0.520119 0.106874 0.070000
5.532172 0.111862 0.095599 0.030000
5.455414 -0.319703 0.098794 0.060000
5.403582 -0.745753 0.092075 0.030000
5.211475 -1.159505 0.090036 0.060000
4.999482 -1.578621 0.082924 0.100000
29.680731 12.275952 3.078882 0.020000
30.290668 8.127359 2.940051 0.030000
11.135747 1.374984 1.319934 0.490000
7.574183 0.157586 1.026109 0.190000
11.996037 -0.984049 1.338410 0.540000
18.053772 -3.740115 1.778982 0.000000
7.771833 -3.114317 1.044462 0.460000
12.367593 4.578249 0.215046 0.060000
12.920757 3.113584 0.211045 1.000000
10.953879 1.355311 0.279375 0.170000
13.109531 0.311777 0.181122 0.010000
11.983689 -0.965157 0.213437 0.040000
12.059147 -2.288836 0.178713 0.050000
7.627054 -3.024379 0.309411 0.210000
5.128074 1.364307 0.109200 0.090000
5.296201 0.942471 0.103071 0.030000
5.379330 0.518988 0.101714 0.060000
5.457090 0.115424 0.095416 0.030000
5.350038 -0.301736 0.103586 0.100000
5.313024 -0.717482 0.091944 0.040000
5.171017 -1.135257 0.085020 0.060000
4.958927 -1.549374 0.077927 0.110000
29.689430 12.356463 2.989203 0.010000
18.212179 4.684132 1.885713 0.020000
11.160329 1.400551 1.295093 0.400000
7.588933 0.172926 1.011204 0.170000
11.950562 -0.954786 1.303400 0.720000
18.143488 -3.718228 1.734297 0.000000
7.791690 -3.103862 1.024553 0.340000
11.801641 4.362390 0.207766 0.070000
12.383088 2.988301 0.199176 0.060000
10.968476 1.380705 0.249508 0.150000
12.529269 0.320684 0.174641 0.010000
11.943200 -0.935817 0.183440 0.030000
11.571376 -2.148134 0.172963 0.040000
10.802244 -3.243021 0.156885 0.050000
7.601440 -2.989790 0.289473 0.250000
5.083287 1.353466 0.104043 0.090000
5.246306 0.936514 0.102918 0.030000
5.314329 0.517725 0.106539 0.040000
5.416919 0.124675 0.090346 0.020000
5.399971 -0.295724 0.088739 0.250000
5.257555 -0.693540 0.091888 0.050000
5.130450 -1.106029 0.085023 0.080000
4.928358 -1.519954 0.077957 0.110000
29.677956 12.446609 2.894507 0.020000
7.588684 0.187979 0.996259 0.200000
11.915072 -0.925351 1.273417 0.720000
18.258188 -3.695881 1.694679 0.000000
33.381355 -11.691438 2.734444 0.020000
11.300210 4.172790 0.195752 0.060000
11.875221 2.873591 0.187423 0.060000
11.032859 1.417036 0.224810 0.130000
12.063904 0.336811 0.163486 0.010000
11.802512 -0.898431 0.163211 0.020000
11.153975 -2.026088 0.167327 0.050000
10.444066 -3.079833 0.151556 0.050000
7.601000 -2.964739 0.274564 0.310000
5.038391 1.347605 0.103904 0.090000
5.191412 0.930462 0.102753 0.030000
5.264256 0.521785 0.101424 0.040000
5.366737 0.133715 0.090248 0.020000
5.319591 -0.277278 0.093598 0.340000
5.207181 -0.674501 0.091828 0.060000
5.089978 -1.081800 0.085007 0.080000
4.887599 -1.480728 0.077996 0.120000
29.596647 12.525358 2.814587 0.030000
8.432776 1.019108 1.051553 0.220000
7.593435 0.203128 0.981328 0.170000
11.899566 -0.895551 1.248487 0.780000
18.638924 -3.728540 1.680552 0.000000
33.369362 -11.576353 2.654839 0.020000
10.917882 4.030461 0.189225 0.070000
11.456845 2.785581 0.181004 0.060000
11.663499 0.354146 0.162505 0.010000
11.381058 -0.826490 0.162379 0.020000
10.852033 -1.926835 0.161908 0.050000
10.171447 -2.945012 0.146346 0.050000
7.625856 -2.954188 0.254668 0.240000
4.983689 1.331555 0.103701 0.080000
5.141421 0.929504 0.102619 0.020000
5.209266 0.520731 0.101276 0.040000
5.291642 0.137260 0.095066 0.010000
5.161711 -0.650368 0.091799 0.060000
5.039412 -1.052763 0.084983 0.090000
4.862138 -1.456193 0.073021 0.120000
29.559864 12.629984 2.729879 0.070000
8.427433 1.039064 1.036613 0.320000
7.608088 0.223467 0.966442 0.150000
11.939035 -0.864716 1.228704 0.730000
13.375276 -2.492790 1.306402 0.000000
13.461637 -4.131499 1.320536 0.000000
10.545360 3.898321 0.182761 0.070000
11.103170 2.713813 0.174814 0.060000
11.186440 1.500194 0.170520 0.040000
11.318098 0.372552 0.156672 0.010000
11.069883 -0.767421 0.156786 0.020000
10.545092 -1.827677 0.156475 0.050000
9.964295 -2.833941 0.141218 0.050000
4.948709 1.330903 0.098608 0.080000
5.096430 0.928642 0.102498 0.020000
5.179080 0.530155 0.101232 0.040000
5.271467 0.146893 0.090049 0.010000
5.188931 -0.244793 0.098377 0.060000
5.136428 -0.635850 0.091787 0.060000
5.014034 -1.033246 0.084990 0.120000
4.846770 -1.436465 0.068054 0.120000
29.641951 12.791823 2.665694 0.020000
8.466877 1.069862 1.026830 0.140000
7.612826 0.238597 0.956510 0.160000
11.958508 -0.834264 1.208868 0.730000
13.439740 -2.461477 1.286686 0.000000
13.470851 -4.086205 1.290728 0.010000
10.272053 3.808089 0.176712 0.080000
10.779381 2.647600 0.173723 0.060000
11.027686 0.392012 0.150986 0.010000
10.813890 -0.717296 0.151304 0.020000
10.343609 -1.751504 0.151232 0.060000
9.767332 -2.732677 0.136080 0.050000
9.110675 -3.695405 0.125787 0.100000
4.923617 1.335423 0.098559 0.080000
5.046535 0.922686 0.102346 0.020000
5.148990 0.534579 0.101170 0.040000
5.221272 0.155915 0.094951 0.010000
5.158649 -0.230371 0.098352 0.050000
5.111050 -0.616332 0.091793 0.060000
4.993572 -1.008615 0.080028 0.170000
4.821200 -1.406950 0.068097 0.130000
29.604706 12.916333 2.611059 0.110000
8.411639 1.083861 1.011738 0.180000
7.622467 0.258822 0.946610 0.150000
11.962890 -0.799101 1.189010 0.710000
11.631398 -2.025574 1.158585 0.020000
13.444675 -4.021603 1.265900 0.010000
13.533007 -6.025375 1.288682 0.050000
10.033260 3.743523 0.170849 0.080000
10.544917 2.618123 0.168001 0.060000
10.771352 1.502281 0.159444 0.020000
10.827162 0.418195 0.145560 0.010000
10.617872 -0.666041 0.150983 0.020000
10.182310 -1.684563 0.146060 0.060000
9.620648 -2.645453 0.131022 0.050000
8.973496 -3.583013 0.125847 0.080000
4.888720 1.329754 0.098447 0.080000
5.036358 0.932511 0.097355 0.020000
5.108902 0.538812 0.101081 0.040000
5.195989 0.170434 0.094939 0.010000
5.153471 -0.220450 0.093375 0.040000
5.070674 -0.597102 0.091759 0.090000
4.983286 -0.993809 0.080056 0.150000
4.805820 -1.387241 0.068130 0.130000
29.547644 13.030444 2.561334 0.140000
13.195786 3.479809 1.333136 0.000000
8.371289 1.103129 1.001704 0.180000
7.661994 0.284602 0.941809 0.130000
11.992157 -0.758478 1.174237 0.670000
11.655762 -1.990047 1.143781 1.000000
13.443674 -3.966539 1.246101 0.010000
13.531731 -5.955296 1.263939 0.040000
9.858977 3.705197 0.165252 0.070000
10.330449 2.589029 0.162333 0.070000
10.576306 1.503564 0.153940 0.020000
10.671629 0.445239 0.140254 0.010000
10.431962 -0.619575 0.145670 0.020000
10.071195 -1.626663 0.140985 0.050000
9.509136 -2.567575 0.131020 0.050000
8.866696 -3.490042 0.125914 0.080000
4.873544 1.339483 0.093443 0.060000
4.996353 0.931726 0.102248 0.020000
5.113626 0.553924 0.096150 0.030000
5.155805 0.179666 0.094869 0.010000
5.128189 -0.205931 0.093363 0.040000
5.075494 -0.586990 0.086809 0.080000
4.952813 -0.969388 0.080067 0.140000
4.800437 -1.367340 0.068190 0.140000
29.524973 13.175182 2.521813 0.150000
13.199771 3.534950 1.318351 0.010000
8.350936 1.122779 0.991724 0.180000
7.681524 0.309999 0.936955 0.120000
12.046597 -0.727393 1.164495 0.490000
11.594758 -1.936150 1.128822 0.080000
9.669875 3.656567 0.164577 0.080000
10.185573 2.581253 0.161926 0.060000
10.431142 1.510785 0.153588 0.020000
10.536079 0.472648 0.140002 0.010000
10.346116 -0.576212 0.145608 0.020000
9.965160 -1.573684 0.140905 0.060000
9.417920 -2.504292 0.126017 0.050000
8.790190 -3.411475 0.121006 0.070000
4.838538 1.338794 0.098349 0.060000
4.981177 0.941456 0.097245 0.020000
5.073538 0.558157 0.096061 0.030000
5.155627 0.189682 0.089905 0.010000
5.112904 -0.191222 0.093378 0.040000
5.050103 -0.567491 0.091815 0.080000
4.972726 -0.963988 0.075139 0.150000
4.784961 -1.342632 0.068242 0.170000
29.512167 13.325055 2.497336 0.120000
13.114251 3.563372 1.303233 0.020000
8.320489 1.147237 0.981735 0.150000
11.604003 -1.895948 1.123995 0.160000
13.451534 -3.851277 1.221550 0.000000
13.534208 -5.820133 1.239447 0.020000
9.540187 3.639080 0.164174 0.080000
10.060500 2.583858 0.161609 0.070000
10.310781 1.528483 0.153339 0.020000
7.897427 0.356543 0.282685 0.010000
10.250381 -0.538020 0.140500 0.020000
9.904226 -1.524824 0.135928 0.050000
9.351686 -2.440550 0.126081 0.050000
8.738858 -3.342446 0.121129 0.060000
4.833264 1.353714 0.093391 0.050000
4.960976 0.951052 0.102228 0.020000
5.068252 0.573058 0.096103 0.030000
5.150340 0.204584 0.089947 0.010000
5.097620 -0.176512 0.093393 0.040000
5.064921 -0.557187 0.086892 0.070000
4.957346 -0.944279 0.075172 0.150000
4.784674 -1.327635 0.068297 0.150000
29.488964 13.494714 2.477906 0.150000
8.300027 1.171868 0.976773 0.150000
12.690754 -0.680122 1.186352 0.440000
11.578075 -1.846399 1.114112 0.180000
13.460588 -3.801076 1.216760 0.000000
13.522895 -5.750300 1.229677 0.020000
9.440301 3.632166 0.163887 0.080000
9.970325 2.592133 0.161405 0.070000
10.255229 1.557443 0.148302 0.020000
7.911945 0.381826 0.282816 0.020000
10.244615 -0.498124 0.140633 0.020000
9.858373 -1.480694 0.135972 0.060000
9.315736 -2.391229 0.126171 0.050000
8.702715 -3.283127 0.121255 0.070000
81.234467 40.159893 -14.868079 35.433998
4.950799 0.960877 0.097238 0.020000
5.053062 0.582769 0.096099 0.030000
5.130044 0.219179 0.094948 0.010000
5.092333 -0.161610 0.093434 0.040000
5.039530 -0.537688 0.091898 0.080000
4.962058 -0.929186 0.075241 0.120000
4.789386 -1.312542 0.068365 0.130000
29.451054 13.649089 2.458381 0.130000
8.259664 1.191116 0.971740 0.230000
12.639832 -0.631052 1.176401 0.630000
11.542137 -1.797060 1.109201 0.200000
13.429374 -3.736626 1.206918 0.000000
13.511376 -5.670489 1.224944 0.020000
9.384928 3.651109 0.163813 0.090000
9.929675 2.626379 0.156426 0.070000
10.184763 1.581097 0.148206 0.020000
7.876486 0.406169 0.277814 0.040000
10.198856 -0.458993 0.140659 0.020000
9.837514 -1.436086 0.136083 0.060000
9.309875 -2.346334 0.126322 0.050000
8.691759 -3.233328 0.121412 0.050000
4.817692 1.383421 0.093461 0.050000
4.935514 0.975587 0.097252 0.020000
5.052775 0.597766 0.096154 0.030000
5.134768 0.234291 0.090017 0.010000
5.077035 -0.146919 0.098449 0.040000
5.044350 -0.527576 0.086949 0.060000
4.956676 -0.909285 0.075301 0.080000
4.794097 -1.297449 0.068433 0.170000
29.432798 13.818769 2.458964 0.110000
7.954402 1.985429 0.968895 0.000000
8.268991 1.226301 0.971895 0.230000
7.564873 0.397853 0.916977 0.010000
12.618877 -0.581444 1.176531 0.680000
11.606454 -1.760822 1.109504 0.160000
13.448220 -3.676254 1.207192 0.000000
13.545234 -5.609811 1.220258 0.040000
9.354167 3.690526 0.163879 0.080000
9.889108 2.655607 0.156428 0.040000
10.198898 1.626376 0.148411 0.020000
7.865912 0.435972 0.277897 0.040000
10.213100 -0.418695 0.135846 0.020000
9.866838 -1.400518 0.136292 0.060000
9.319201 -2.311149 0.126477 0.050000
7.857738 -2.779459 0.185922 0.050000
4.772783 1.377542 0.098322 0.050000
4.940226 0.990680 0.097321 0.020000
5.042490 0.612572 0.096182 0.030000
5.119566 0.243983 0.095013 0.010000
5.111863 -0.136213 0.088580 0.030000
5.033956 -0.507789 0.091995 0.060000
4.971481 -0.899000 0.075378 0.100000
4.808916 -1.287145 0.063510 0.150000
29.399355 13.998160 2.459543 0.110000
7.978535 2.030899 0.969127 0.020000
8.253420 1.256008 0.971964 0.210000
7.614276 0.428787 0.922221 0.050000
12.622918 -0.531358 1.176728 0.780000
11.650666 -1.719986 1.114771 0.160000
13.436880 -3.606459 1.207422 0.000000
13.513419 -5.515404 1.220526 0.020000
9.343307 3.735326 0.164017 0.090000
8.044885 2.059760 0.264401 0.130000
10.188133 1.666177 0.148531 0.020000
10.227331 -0.378415 0.136033 0.020000
9.886176 -1.365123 0.131474 0.060000
9.378820 -2.289985 0.121712 0.050000
8.785892 -3.186499 0.116831 0.070000
4.792218 1.407938 0.093485 0.040000
4.939843 1.010676 0.097394 0.020000
5.042202 0.627569 0.096237 0.030000
5.149190 0.264572 0.090167 0.010000
5.096566 -0.121522 0.093594 0.030000
5.063772 -0.497198 0.087112 0.090000
4.986287 -0.888715 0.075454 0.080000
4.813628 -1.272053 0.063579 0.150000
29.385908 14.177935 2.460176 0.140000
7.873568 2.028907 0.963846 0.030000
8.277744 1.291481 0.972160 0.200000
7.578816 0.453130 0.917218 0.100000
12.601868 -0.476751 1.176876 0.880000
11.740062 -1.688287 1.120122 0.090000
13.430540 -3.536568 1.207665 0.000000
9.372056 3.800888 0.164336 0.080000
7.989594 2.073685 0.269308 0.270000
10.247082 1.722334 0.143893 0.020000
10.301743 -0.346985 0.136344 0.020000
9.970778 -1.343499 0.131775 0.060000
9.428428 -2.269031 0.121919 0.050000
8.850688 -3.175256 0.117042 0.070000
4.772113 1.412535 0.098450 0.040000
4.934652 1.020579 0.097417 0.020000
5.056912 0.642853 0.096332 0.030000
5.133906 0.279282 0.090182 0.010000
5.111276 -0.106238 0.093690 0.040000
5.078577 -0.486913 0.087189 0.070000
5.000996 -0.873430 0.075550 0.080000
4.838527 -1.266575 0.063664 0.150000
29.317612 14.346582 2.480625 0.110000
7.818278 2.042832 0.968753 0.120000
8.292058 1.326743 0.977328 0.180000
7.533346 0.477264 0.917189 0.110000
12.625893 -0.426301 1.182126 0.890000
12.466546 -1.764534 1.161736 0.150000
13.414188 -3.466887 1.212881 0.000000
13.530515 -5.365087 1.231129 0.030000
9.410707 3.871641 0.164700 0.100000
7.934195 2.092591 0.279234 0.310000
10.320905 1.783741 0.149314 0.020000
10.480832 0.746657 0.135877 0.010000
7.677969 -0.197813 0.295051 0.010000
10.040190 -1.312164 0.132073 0.050000
9.533120 -2.252023 0.122256 0.050000
8.986046 -3.192667 0.117331 0.080000
4.786548 1.442835 0.093600 0.040000
4.954170 1.045957 0.097563 0.020000
5.041615 0.657545 0.101347 0.040000
5.153615 0.294662 0.090290 0.010000
5.120986 -0.091049 0.093771 0.040000
5.088288 -0.471724 0.087271 0.080000
5.041002 -0.872646 0.070657 0.060000
4.848225 -1.251405 0.068746 0.150000
29.288883 14.535937 2.516255 0.120000
7.718297 2.040917 0.968485 0.170000
8.306262 1.366985 0.987515 0.200000
12.619801 -0.371463 1.197314 0.880000
12.490448 -1.709121 1.177004 0.190000
13.443090 -3.411379 1.228163 0.000000
13.483677 -5.271004 1.241357 0.020000
9.508677 3.978536 0.165353 0.080000
7.928608 2.122471 0.284330 0.340000
10.429734 1.845836 0.149829 0.010000
10.599948 0.793947 0.136363 0.010000
7.707568 -0.177260 0.300205 0.030000
10.159771 -1.289888 0.137468 0.060000
9.673190 -2.254341 0.122613 0.050000
9.101312 -3.205462 0.117584 0.070000
4.810968 1.473308 0.093777 0.040000
4.948883 1.060858 0.097604 0.020000
5.086140 0.683420 0.096559 0.040000
5.173324 0.310042 0.090399 0.010000
5.145790 -0.080572 0.093875 0.030000
5.118091 -0.461152 0.087388 0.070000
5.045701 -0.857571 0.075725 0.050000
4.883231 -1.250716 0.063840 0.150000
29.275524 14.705565 2.556851 0.130000
49.388206 17.472248 3.709647 25.112000
12.668889 -0.325569 1.212613 0.730000
12.504544 -1.663898 1.192209 0.190000
13.411716 -3.342023 1.243340 0.010000
13.517564 -5.215418 1.261652 0.050000
9.606729 4.080414 0.170988 0.080000
7.942826 2.162732 0.289517 0.180000
8.511570 1.453572 0.268365 0.050000
8.647095 0.646062 0.255717 0.010000
10.279352 -1.267613 0.142863 0.060000
9.858539 -2.270794 0.123035 0.050000
9.312340 -3.256411 0.112946 0.080000
4.810572 1.493286 0.098851 0.040000
4.983302 1.091523 0.097808 0.020000
5.080841 0.698303 0.101601 0.040000
5.203031 0.325614 0.090534 0.010000
5.175497 -0.065001 0.094011 0.030000
5.127789 -0.445982 0.092470 0.070000
5.100703 -0.856499 0.070873 0.050000
4.903023 -1.240353 0.068930 0.140000
29.251934 14.884943 2.612457 0.120000
7.736899 2.111212 0.988795 0.220000
12.702969 -0.279982 1.232872 0.690000
12.548717 -1.623119 1.212476 0.150000
13.450793 -3.296340 1.263612 0.020000
13.495887 -5.130892 1.281910 0.060000
9.788820 4.233928 0.172034 0.080000
8.446174 1.472286 0.278264 0.080000
8.651493 0.676115 0.265841 0.010000
7.656484 -0.123284 0.315272 0.010000
10.519403 -1.268015 0.143488 0.060000
10.023591 -2.272652 0.128459 0.050000
9.477871 -3.283263 0.118278 0.070000
4.829994 1.523663 0.099014 0.040000
4.978002 1.106406 0.102850 0.020000
5.135364 0.724370 0.096840 0.040000
5.227643 0.346089 0.090675 0.010000
5.190207 -0.049716 0.094106 0.030000
5.182791 -0.444910 0.087617 0.070000
5.125603 -0.851022 0.070958 0.050000
4.948123 -1.244472 0.064032 0.140000
29.228319 15.064284 2.678062 0.120000
7.716398 2.135787 0.998833 0.250000
30.495060 6.657646 2.490117 0.100000
12.732048 -0.234490 1.253117 0.480000
11.325787 -4.086865 1.170125 0.060000
9.970885 4.387405 0.183080 0.080000
8.475362 1.512798 0.293491 0.050000
8.665780 0.711340 0.281009 0.030000
7.720966 -0.097081 0.325538 0.040000
10.769439 -1.268245 0.149140 0.050000
10.254206 -2.303259 0.133947 0.050000
9.678779 -3.329442 0.123631 0.070000
4.839609 1.543851 0.099114 0.040000
5.022432 1.137280 0.098080 0.020000
5.145062 0.739540 0.101922 0.030000
5.257349 0.361661 0.090810 0.010000
5.255016 -0.038455 0.089317 0.030000
5.197488 -0.429644 0.092712 0.060000
5.170498 -0.845161 0.071097 0.040000
4.983117 -1.243801 0.064126 0.170000
29.195103 15.223456 2.738568 0.120000
7.730685 2.171012 1.014002 0.220000
30.477497 6.782093 2.555534 0.040000
11.268101 1.007857 1.208914 0.030000
12.681047 -0.185532 1.273166 0.570000
13.113320 -1.607578 1.289008 0.100000
11.405418 -4.070428 1.195394 0.140000
10.187587 4.561586 0.184293 0.080000
7.841590 2.220657 0.329469 0.120000
11.140731 1.014214 0.173594 0.040000
7.670458 -0.073099 0.340496 0.090000
11.084572 -1.272211 0.149948 0.050000
10.529921 -2.337985 0.134538 0.040000
9.935155 -3.399563 0.129039 0.070000
4.854114 1.569115 0.104246 0.030000
5.041936 1.162640 0.103226 0.020000
5.174577 0.765110 0.102094 0.040000
5.292043 0.377310 0.095959 0.010000
5.269808 -0.028188 0.094394 0.030000
5.262489 -0.428380 0.087887 0.070000
5.210491 -0.844395 0.071204 0.040000
5.008003 -1.238342 0.069211 0.150000
29.181435 15.402915 2.824200 0.050000
7.720182 2.195779 1.024067 0.200000
30.474728 6.916807 2.626028 0.170000
11.217387 1.041819 1.228908 0.040000
13.162478 -1.566721 1.314289 0.110000
11.328752 -3.986955 1.215505 0.110000
7.840977 2.250595 0.344579 0.220000
11.154909 1.054419 0.193781 0.080000
7.639945 -0.048735 0.355507 0.140000
11.444875 -1.285331 0.155840 0.050000
10.810608 -2.372652 0.145142 0.040000
10.256998 -3.493434 0.134530 0.070000
4.903255 1.615083 0.099545 0.030000
5.076355 1.193305 0.103429 0.020000
5.229101 0.791177 0.097333 0.050000
5.311643 0.397670 0.101086 0.010000
5.329510 -0.012042 0.094609 0.030000
5.317287 -0.417329 0.088071 0.060000
5.270480 -0.843246 0.071365 0.030000
5.063089 -1.242288 0.069341 0.140000
29.098448 15.546039 2.909517 0.050000
7.749262 2.241270 1.044312 0.120000
30.451744 7.061099 2.706506 0.250000
11.196476 1.086353 1.249019 0.160000
19.719036 -4.783444 1.789451 0.000000
11.292269 -3.912714 1.235686 0.120000
10.873041 5.064766 0.197953 0.070000
7.830460 2.275343 0.359643 0.280000
12.077383 2.502415 0.181571 0.020000
11.114181 1.088554 0.218802 0.100000
7.634428 -0.023891 0.370585 0.130000
11.885259 -1.301918 0.161928 0.050000
11.252251 -2.454208 0.145992 0.040000
10.629215 -3.606344 0.140082 0.090000
4.947480 1.655937 0.099813 0.040000
5.130674 1.229351 0.103705 0.020000
5.308428 0.827721 0.092676 0.170000
5.381259 0.419026 0.096347 0.010000
5.369298 -0.001296 0.099753 0.040000
5.377180 -0.411181 0.088250 0.040000
5.325469 -0.842192 0.071513 0.040000
5.098069 -1.241636 0.074434 0.140000
29.070248 15.700196 3.000017 0.030000
30.434336 7.175493 2.786886 0.270000
11.170840 1.115775 1.274062 0.180000
13.040250 -1.459244 1.369370 0.020000
19.616924 -4.680546 1.834567 0.000000
11.180404 -3.819932 1.260739 0.230000
7.780213 2.284291 0.384546 0.250000
12.614012 2.682706 0.188642 0.010000
10.953736 1.105356 0.253446 0.050000
7.649003 -0.003663 0.385698 0.110000
12.410900 -1.331893 0.173188 0.050000
10.744237 -3.609215 0.160372 0.110000
4.951974 1.680990 0.109918 0.040000
5.170078 1.260093 0.108922 0.020000
5.308211 0.837682 0.102713 0.090000
5.425963 0.434885 0.096523 0.020000
5.439010 0.015060 0.094996 0.050000
5.417064 -0.405434 0.093376 0.050000
5.385458 -0.841043 0.071674 0.040000
5.163249 -1.250390 0.074572 0.130000
29.091534 15.880269 3.100743 0.030000
30.401724 7.299578 2.872263 0.230000
11.160011 1.155483 1.299181 0.250000
12.994140 -1.405209 1.394451 0.080000
19.564983 -4.586708 1.884781 0.000000
11.174464 -3.775148 1.290890 0.250000
11.939113 5.800277 0.213470 0.060000
7.809414 2.324821 0.394773 0.250000
10.883096 1.133898 0.283368 0.060000
7.648485 0.021276 0.400790 0.100000
13.061832 -1.374434 0.174729 0.050000
12.235765 -2.630458 0.162904 0.040000
10.793766 -3.588372 0.190579 0.090000
5.011005 1.732130 0.110262 0.040000
5.224411 1.296158 0.104198 0.020000
5.357709 0.863617 0.107938 0.100000
5.515468 0.461604 0.096856 0.020000
5.498795 0.026189 0.100193 0.060000
5.486955 -0.399095 0.093582 0.050000
5.440531 -0.845007 0.076803 0.030000
5.213418 -1.259449 0.079669 0.130000
29.078375 16.029640 3.211265 0.020000
30.409258 7.414376 2.972711 0.050000
11.164357 1.185462 1.329304 0.310000
13.013361 -1.369982 1.434632 0.110000
17.327356 -3.934062 1.776365 0.000000
11.193711 -3.739883 1.321072 0.280000
7.784067 2.339246 0.419760 0.240000
14.020469 3.139668 0.209012 0.010000
10.857543 1.158303 0.313392 0.080000
7.643146 0.036103 0.420831 0.090000
13.161257 -1.347635 0.205089 0.030000
13.008974 -2.790679 0.164327 0.030000
10.888683 -3.586646 0.215834 0.080000
5.060229 1.773080 0.110543 0.040000
5.268814 1.326996 0.109429 0.030000
5.437037 0.900161 0.103281 0.100000
5.565062 0.482539 0.102063 0.020000
5.578601 0.037738 0.095445 0.050000
5.561941 -0.397658 0.093783 0.050000
5.510613 -0.848666 0.076972 0.030000
5.288691 -1.273009 0.079815 0.120000
29.065311 16.174011 3.321769 0.010000
30.376894 7.523409 3.073033 0.030000
11.043931 1.203067 1.354056 0.270000
7.811239 0.046960 1.066317 0.010000
13.002409 -1.325312 1.469770 0.140000
17.376259 -3.883299 1.826682 0.000000
11.308668 -3.742847 1.366361 0.160000
13.350864 6.762392 0.245732 0.050000
11.046402 1.216857 0.334103 0.160000
7.662707 0.056408 0.440958 0.050000
13.120189 -1.298578 0.250164 0.060000
14.058460 -3.015637 0.171230 0.020000
5.134066 1.834505 0.110964 0.040000
5.352840 1.378614 0.109840 0.030000
5.486631 0.921096 0.108488 0.110000
5.649663 0.504163 0.102364 0.020000
5.648383 0.049058 0.100669 0.050000
5.626832 -0.391414 0.093975 0.060000
5.605883 -0.861844 0.077172 0.040000
5.359061 -1.291665 0.079930 0.110000
49.038376 28.430939 5.534490 0.020000
30.344818 7.617445 3.173299 0.010000
11.038279 1.232854 1.384152 0.490000
7.805900 0.061787 1.086358 0.050000
13.016726 -1.295179 1.509920 0.150000
17.596201 -3.889381 1.907234 0.000000
11.317987 -3.712810 1.406498 0.510000
13.124509 -1.268637 0.290287 0.030000
11.139054 -3.612076 0.276393 0.150000
5.193096 1.885645 0.111308 0.050000
5.407242 1.409643 0.115097 0.030000
5.570945 0.957717 0.108845 0.090000
5.724266 0.525595 0.102639 0.020000
5.723177 0.060492 0.100907 0.050000
5.731909 -0.394403 0.094238 0.050000
5.660860 -0.860809 0.082319 0.040000
5.439430 -1.310129 0.080071 0.120000
51.958748 30.450228 6.094625 0.040000
43.624840 17.702932 4.780472 0.050000
50.083141 13.099339 5.180221 0.080000
11.022711 1.257432 1.419203 0.470000
7.720494 0.080099 1.101203 1.000000
13.061122 -1.269489 1.555132 0.130000
11.337400 -3.687580 1.446643 0.420000
14.856262 7.791185 0.313486 0.020000
18.550051 4.506603 0.240918 0.000000
8.616103 0.929767 0.461693 0.030000
13.143826 -1.238408 0.330451 0.110000
16.418507 -3.520601 0.195513 0.020000
11.097986 -3.563018 0.321469 0.140000
5.247211 1.931671 0.116620 0.040000
5.501171 1.466452 0.115554 0.030000
5.650342 0.989225 0.114169 0.110000
5.803854 0.547105 0.107926 0.020000
5.827966 0.072501 0.101225 0.050000
5.816880 -0.392793 0.099466 0.050000
5.746118 -0.874197 0.087492 0.030000
5.534891 -1.333305 0.080234 0.110000
51.825188 30.601833 6.329842 0.050000
43.685883 17.883436 4.971304 0.050000
50.025002 13.237590 5.360585 0.110000
11.027140 1.282393 1.454308 0.440000
7.705157 0.094735 1.121218 1.000000
13.080413 -1.239298 1.605295 0.130000
40.320385 -9.418147 4.126021 0.000000
11.301454 -3.643389 1.481713 0.410000
13.026275 6.715581 0.404712 0.030000
13.084828 4.701273 0.417377 0.040000
13.151258 3.062274 0.406458 0.010000
8.620749 0.944767 0.486761 0.030000
13.143038 -1.203582 0.375578 0.090000
13.372421 -2.729312 0.330505 0.020000
11.092213 -3.528270 0.361584 0.410000
5.350754 2.008667 0.117177 0.040000
5.570391 1.507785 0.115888 0.040000
5.739654 1.025942 0.114539 0.100000
5.923366 0.574417 0.103340 0.030000
5.902748 0.083917 0.106463 0.050000
5.931967 -0.395571 0.094756 0.040000
5.836293 -0.882471 0.087697 0.030000
5.635447 -1.361384 0.080392 0.120000
51.761559 30.759836 6.550266 0.040000
46.385056 19.193712 5.433225 0.020000
50.031723 13.382048 5.551141 0.090000
11.041567 1.307545 1.489439 0.380000
7.639843 0.108431 1.136099 0.670000
13.159993 -1.222936 1.650564 0.100000
11.315963 -3.623255 1.521826 0.300000
11.631658 5.888432 0.477998 0.060000
13.094038 4.736290 0.462532 0.030000
18.468386 4.574574 0.370958 0.000000
8.595402 0.959192 0.511749 0.040000
13.117458 -1.179214 0.415603 0.120000
13.376823 -2.704388 0.375610 0.050000
11.096737 -3.508308 0.396670 0.300000
5.429685 2.065189 0.117593 0.040000
5.679412 1.559882 0.116366 0.040000
5.848963 1.063042 0.114962 0.120000
6.017952 0.596214 0.108668 0.030000
6.022533 0.096213 0.106821 0.050000
6.022033 -0.398865 0.099979 0.040000
5.946656 -0.900361 0.087918 0.030000
5.741085 -1.394385 0.085545 0.120000
48.377892 28.850174 6.404333 0.030000
46.262627 19.290632 5.638268 0.040000
50.008652 13.510803 5.776562 0.070000
11.120764 1.343903 1.534782 0.280000
7.644598 0.118451 1.156149 0.690000
11.295192 -3.588793 1.561901 0.320000
11.561732 5.876908 0.527773 0.110000
14.705256 5.467185 0.494455 0.150000
17.974995 4.474814 0.449300 0.010000
8.585051 0.973905 0.536777 0.040000
13.146939 -1.158830 0.465756 0.210000
13.376214 -2.679579 0.425701 0.040000
11.106138 -3.483288 0.441788 0.330000
5.528312 2.137072 0.123118 0.050000
5.783339 1.616883 0.116850 0.040000
5.963175 1.105237 0.115417 0.130000
6.157460 0.623909 0.104135 0.030000
6.132417 0.103319 0.107134 0.050000
6.127110 -0.401853 0.100242 0.040000
6.082109 -0.922771 0.088188 0.040000
5.831547 -1.417657 0.085695 0.110000
48.152187 28.860210 6.578783 0.020000
46.195625 19.368685 5.823385 0.030000
49.981434 13.599601 5.966823 0.070000
11.175170 1.369803 1.575020 0.280000
7.629356 0.128087 1.176145 0.650000
11.916375 -1.041611 1.617991 0.030000
11.289704 -3.569041 1.601960 0.330000
11.526525 5.881069 0.572697 0.180000
13.144444 3.136625 0.551718 0.010000
8.584781 0.983791 0.566813 0.040000
27.996717 0.571222 0.415949 0.010000
13.385698 -2.659577 0.475801 0.020000
11.135920 -3.477882 0.486886 0.340000
5.631951 2.209070 0.123656 0.050000
5.907153 1.679247 0.122405 0.050000
6.092384 1.147719 0.115912 0.120000
6.286943 0.651375 0.109575 0.030000
6.277198 0.116094 0.107560 0.060000
6.302364 -0.413499 0.100657 0.040000
6.192472 -0.940660 0.088410 0.030000
5.967480 -1.465062 0.085873 0.090000
43.752693 26.226625 6.247506 0.030000
51.150311 21.665993 6.659866 0.020000
49.998955 13.699166 6.182241 0.060000
11.159877 1.379365 1.615016 0.160000
7.644097 0.138280 1.201221 0.580000
13.103310 -1.154504 1.785672 0.030000
11.294325 -3.554078 1.637028 0.170000
11.481512 5.875041 0.617557 0.170000
8.574622 0.988506 0.591805 0.040000
7.750574 0.147557 0.591528 0.000000
11.165644 -3.467421 0.517003 0.330000
5.760215 2.301561 0.119334 0.060000
6.085612 1.762716 0.113181 0.040000
6.241411 1.200600 0.111498 0.140000
6.451447 0.679549 0.105109 0.030000
6.467093 0.124769 0.098087 0.050000
6.447542 -0.420702 0.096009 0.030000
6.338116 -0.972877 0.088670 0.020000
6.093223 -1.502660 0.086062 0.090000
43.799656 26.356796 6.453115 0.020000
44.029613 18.596497 5.969862 0.020000
50.001846 13.778428 6.402545 0.040000
11.124600 1.388563 1.649959 0.150000
7.638937 0.143090 1.226226 0.700000
13.092907 -1.139866 1.830699 0.070000
11.273732 -3.529633 1.682066 0.180000
11.471192 5.884662 0.667567 0.180000
13.086710 4.830452 0.657865 0.010000
13.138649 3.166208 0.636814 0.010000
8.564366 0.998220 0.616814 0.050000
7.720335 0.156906 0.611484 0.010000
13.175636 -1.108748 0.596018 0.090000
13.394791 -2.624727 0.565955 0.050000
11.245894 -3.486052 0.562144 0.320000
5.898465 2.394225 0.120040 0.060000
6.219342 1.830289 0.113781 0.050000
6.420420 1.254038 0.112164 0.130000
6.605843 0.712512 0.105635 0.030000
6.631967 0.132928 0.098548 0.060000
6.592693 -0.427941 0.101361 0.040000
6.498661 -0.999807 0.088989 0.020000
6.239250 -1.554873 0.086249 0.090000
43.851517 26.486914 6.698736 0.030000
44.136723 18.717764 6.190595 0.030000
48.001427 13.265173 6.355415 0.040000
11.144204 1.403794 1.690067 0.340000
7.643692 0.153110 1.246276 0.680000
13.077504 -1.125323 1.875714 0.070000
44.794540 -10.063055 5.630319 0.000000
11.273423 -3.519803 1.727102 0.140000
11.460789 5.899300 0.712595 0.150000
14.683114 5.545914 0.729692 0.050000
13.118413 3.170619 0.691778 0.000000
8.574095 1.008298 0.646877 0.050000
7.755168 0.162483 0.636595 0.030000
13.160316 -1.099223 0.646014 0.070000
11.255692 -3.481010 0.602188 0.450000
6.056423 2.502269 0.120854 0.060000
6.382874 1.908435 0.114498 0.050000
6.574528 1.301998 0.112744 0.140000
6.795245 0.746164 0.101254 0.030000
6.776831 0.140686 0.103955 0.050000
6.773056 -0.444472 0.096770 0.040000
6.649303 -1.031927 0.089263 0.030000
6.395370 -1.611893 0.086444 0.100000
43.721535 26.458740 6.883294 0.030000
44.269150 18.824566 6.396339 0.050000
45.519279 12.587956 6.226418 0.030000
7.628630 0.152729 1.271235 0.740000
13.127364 -1.124552 1.925847 0.080000
40.092972 -8.926449 5.227267 0.020000
11.313585 -3.534201 1.772154 0.090000
11.445770 5.893847 0.757536 0.150000
14.891015 5.649712 0.785621 0.040000
13.148003 3.186023 0.736913 0.000000
8.544131 1.002631 0.671778 0.050000
7.660133 0.160589 0.656341 0.060000
11.987653 -0.976806 0.683409 0.070000
11.280680 -3.485679 0.642237 0.480000
6.179949 2.579630 0.126464 0.070000
6.541502 1.981486 0.115184 0.060000
6.738539 1.355149 0.113370 0.140000
6.944821 0.769014 0.106729 0.040000
6.966712 0.149342 0.099483 0.060000
6.918303 -0.456711 0.102104 0.040000
6.815039 -1.068760 0.089559 0.030000
6.576678 -1.678432 0.086670 0.090000
43.660835 26.466846 7.083168 0.030000
44.401756 18.921352 6.607048 0.050000
45.503307 12.611959 6.416467 0.050000
8.581852 1.015569 1.431933 0.030000
7.648478 0.158037 1.291307 0.710000
39.876347 -8.861044 5.351946 0.020000
11.388933 -3.557927 1.817263 0.070000
11.396046 5.872725 0.802328 0.120000
14.687455 5.565615 0.834778 0.100000
17.280529 4.385050 0.842158 0.010000
8.553968 1.007729 0.696823 0.050000
7.640072 0.160113 0.681287 0.100000
11.982453 -0.972052 0.723413 0.120000
11.255280 -3.471328 0.687224 0.500000
6.342906 2.687770 0.127291 0.070000
6.700214 2.049519 0.120851 0.060000
6.912644 1.403491 0.114004 0.140000
7.139210 0.802743 0.107362 0.040000
7.126669 0.152388 0.104912 0.060000
7.088655 -0.473451 0.102486 0.050000
6.960656 -1.101013 0.099819 0.030000
6.727704 -1.730549 0.086871 0.090000
11.169715 5.763752 2.061345 0.000000
44.465332 18.966808 6.817385 0.050000
46.536583 12.925574 6.755333 0.060000
8.591772 1.015649 1.461959 0.100000
7.608433 0.157197 1.311200 0.810000
39.750484 -8.839019 5.506701 0.020000
11.403909 -3.562806 1.862284 0.050000
13.075807 4.849513 0.857909 0.060000
17.255461 4.379331 0.907072 0.010000
8.543905 1.007444 0.721796 0.050000
7.630022 0.159847 0.701260 0.110000
11.987349 -0.972105 0.763426 0.170000
13.403897 -2.605264 0.761053 0.000000
11.255175 -3.471477 0.727224 0.480000
6.515862 2.796102 0.128145 0.080000
6.873744 2.127856 0.121595 0.060000
7.121456 1.467502 0.114787 0.140000
7.308795 0.825995 0.107891 0.030000
7.336630 0.156409 0.105475 0.060000
7.284001 -0.489713 0.102936 0.040000
7.151592 -1.147346 0.095145 0.030000
6.899000 -1.797299 0.092070 0.080000
11.154792 5.753299 2.106267 0.000000
44.608364 19.038717 7.048028 0.050000
46.456406 12.908358 6.940062 0.030000
8.541812 1.009600 1.486807 0.090000
7.633363 0.157583 1.336267 0.730000
40.667278 -3.991265 5.707117 0.030000
40.021240 -8.904597 5.712166 0.030000
11.403887 -3.567972 1.907265 0.050000
13.031139 6.908746 0.940448 0.050000
13.090494 4.859631 0.902986 0.070000
17.250305 4.379012 0.967058 0.010000
8.568739 1.012829 0.746881 0.040000
7.624970 0.159677 0.721246 0.120000
11.972164 -0.967523 0.798404 0.160000
13.428870 -2.609951 0.806101 0.000000
11.244977 -3.466818 0.767215 0.530000
6.683901 2.899320 0.133968 0.080000
7.067175 2.211576 0.122411 0.070000
7.315448 1.521208 0.120493 0.140000
30.778446 4.509340 -2.057177 1.100000
7.536484 0.165220 0.111029 0.050000
7.484430 -0.510896 0.108380 0.040000
7.392696 -1.202739 0.095569 0.030000
7.065215 -1.859126 0.092274 0.070000
11.164577 5.758322 2.151312 0.010000
44.617771 19.043201 7.238071 0.040000
50.204357 13.992670 7.678884 0.050000
8.536748 1.009411 1.511793 0.080000
7.608315 0.157029 1.356199 0.710000
40.541950 -3.994160 5.841780 0.020000
11.413960 -3.577946 1.952255 0.060000
13.021190 6.898353 0.995384 0.040000
13.070642 4.844047 0.957877 0.070000
17.275131 4.379249 1.032124 0.010000
7.594911 0.159010 0.746165 0.120000
11.987235 -0.977401 0.843407 0.170000
13.413838 -2.615424 0.856042 0.000000
11.275249 -3.486388 0.807222 0.490000
6.886563 3.023223 0.134957 0.080000
7.255593 2.295180 0.128214 0.060000
7.544364 1.580621 0.116311 0.110000
7.732648 0.889105 0.114232 0.030000
7.751539 0.164339 0.111587 0.050000
7.725069 -0.541275 0.103895 0.040000
7.588714 -1.253994 0.095890 0.030000
7.236607 -1.930875 0.097455 0.070000
11.120164 5.722337 2.186063 0.020000
44.499004 18.955324 7.397436 0.030000
50.259209 13.972983 7.878956 0.060000
8.491909 0.998495 1.526635 0.070000
7.613345 0.152033 1.381194 0.700000
40.552116 -4.024539 5.996696 0.010000
11.398953 -3.583381 1.992196 0.100000
12.981833 6.857408 1.045130 0.040000
13.090616 4.839263 1.002911 0.030000
17.369751 4.390825 1.097415 0.010000
11.096628 1.390869 0.874886 0.040000
7.599953 0.154032 0.766160 0.130000
11.967243 -0.982913 0.878335 0.150000
13.424020 -2.630378 0.896013 0.010000
11.260257 -3.491805 0.842163 0.420000
7.099224 3.147318 0.135974 0.080000
7.493824 2.389760 0.129188 0.050000
7.733453 1.629233 0.121986 0.120000
7.937214 0.913009 0.119855 0.030000
7.951585 0.163151 0.117105 0.050000
7.920594 -0.567553 0.109308 0.030000
7.784719 -1.305267 0.101211 0.030000
7.443294 -2.016932 0.097674 0.070000
11.130032 5.722342 2.236089 0.020000
44.415180 18.868044 7.576895 0.050000
50.279697 13.917578 8.093805 0.070000
7.608390 0.146864 1.401162 0.600000
50.991840 -5.185839 7.664646 0.020000
11.373962 -3.588989 2.027110 0.240000
14.801512 5.576775 1.115120 0.080000
17.429667 4.386733 1.162557 0.010000
