# This PCD file was generated using the MATLAB® pcwrite function
# from Computer Vision Toolbox®.
# .PCD v.7 - Point Cloud Data file format
VERSION .7
FIELDS x y z intensity
SIZE 4 4 4 4
TYPE F F F F
COUNT 1 1 1 1
WIDTH 1288
HEIGHT 1
VIEWPOINT 0 0 0 1 0 0 0
POINTS 1288
DATA ascii
6.222356 -1.552726 0.776220 0.960000
7.909821 3.642856 0.159932 0.080000
8.337111 2.745918 0.147713 0.050000
8.589038 1.865605 0.140098 0.080000
8.795002 1.034403 0.137546 0.030000
8.836502 0.175083 0.124460 0.030000
8.702325 -0.652652 0.126032 0.020000
8.462989 -1.472380 0.122360 0.020000
6.606555 -1.693431 0.241694 0.060000
11.080412 5.685964 2.350826 0.090000
41.192280 17.426140 7.543121 0.030000
50.327843 13.936450 8.654007 0.070000
11.178258 1.403126 2.050157 0.110000
39.936920 0.872839 6.478300 0.150000
43.652500 -4.418972 7.023333 0.010000
44.259850 -10.049215 7.243991 0.000000
6.206245 -1.564870 1.276138 2.254000
13.011288 6.862350 1.215227 0.020000
14.954789 5.649228 1.250791 0.030000
13.132531 3.159384 1.101777 0.000000
11.111447 1.385767 0.979907 0.080000
31.425922 0.716972 1.775456 0.060000
11.926964 -0.984088 0.988226 0.110000
13.393686 -2.631436 1.025932 0.020000
6.217204 -1.542768 0.761243 1.190000
7.672465 3.503304 0.153793 0.070000
8.069091 2.640785 0.141622 0.050000
8.295434 1.789969 0.139050 0.080000
8.535556 1.004466 0.126757 0.030000
8.536366 0.179335 0.123692 0.030000
8.386426 -0.608694 0.125371 0.030000
8.216611 -1.402068 0.116979 0.020000
6.606512 -1.688358 0.221713 0.080000
11.090117 5.706282 2.315926 0.100000
43.922497 18.702534 7.859996 0.050000
50.282570 13.976268 8.469035 0.060000
40.680984 0.932191 6.455462 0.210000
48.270325 -4.857535 7.558762 0.010000
44.349579 -10.011903 7.084362 0.000000
6.206106 -1.554798 1.256175 1.466000
13.006227 6.872438 1.165251 0.020000
14.850444 5.622445 1.190418 0.060000
17.359402 4.390131 1.232387 0.010000
11.106444 1.390800 0.944912 0.060000
13.257624 0.296567 1.011461 0.010000
11.946956 -0.978576 0.953299 0.120000
13.368425 -2.611751 0.980938 0.040000
6.227242 -1.542521 0.746270 1.260000
7.440013 3.368847 0.147687 0.070000
7.806152 2.530729 0.140527 0.050000
8.046643 1.725211 0.133160 0.080000
8.231270 0.963612 0.130811 0.030000
8.271320 0.179259 0.123000 0.030000
8.140800 -0.578393 0.124843 0.030000
7.950319 -1.337156 0.116525 0.020000
6.586363 -1.678687 0.206696 0.040000
11.099850 5.726637 2.271027 0.100000
44.051098 18.800638 7.690695 0.040000
50.242561 14.006295 8.254040 0.050000
40.655735 0.967300 6.295525 0.300000
40.656311 -4.018515 6.261992 0.010000
44.429489 -9.984799 6.929670 0.000000
6.216143 -1.554550 1.241202 0.650000
13.035668 6.908173 1.120460 0.010000
14.795790 5.611598 1.135235 0.050000
17.264767 4.378537 1.172096 0.010000
11.086431 1.395528 0.914877 0.070000
13.232541 0.306235 0.971431 0.010000
11.951867 -0.968333 0.913349 0.140000
13.373350 -2.601490 0.935989 0.020000
6.242387 -1.547158 0.726292 1.307000
7.182936 3.213896 0.146440 0.060000
7.558019 2.430960 0.139508 0.050000
7.817754 1.665835 0.127342 0.080000
7.961895 0.928447 0.129977 0.030000
7.991373 0.173897 0.122249 0.040000
7.915281 -0.552689 0.119350 0.030000
7.754314 -1.285883 0.111204 0.020000
11.080163 5.716423 2.225937 0.080000
44.437767 18.993481 7.582420 0.040000
50.217789 14.021539 8.059030 0.050000
11.118365 1.412384 1.940034 0.020000
40.685726 0.988410 6.150681 0.340000
40.636238 -3.993326 6.107032 0.030000
44.449463 -9.958771 6.754817 0.000000
6.206101 -1.549668 1.221193 0.340000
13.015912 6.902996 1.065389 0.010000
13.085196 4.859108 1.017971 0.040000
17.234943 4.378204 1.107016 0.010000
11.091425 1.400753 0.879910 0.060000
13.237562 0.311497 0.926463 0.020000
11.946864 -0.963300 0.878355 0.140000
6.217143 -1.532584 0.711280 1.307000
6.970480 3.079822 0.140387 0.080000
7.334895 2.331687 0.133557 0.050000
7.579044 1.596251 0.126460 0.090000
7.777435 0.899946 0.119390 0.030000
7.781425 0.169894 0.116686 0.040000
7.714853 -0.531505 0.113905 0.030000
7.583510 -1.244110 0.100913 0.020000
6.546079 -1.659327 0.171662 0.030000
11.104962 5.732029 2.191059 0.050000
44.477955 19.009932 7.397584 0.040000
50.193424 14.016823 7.853947 0.040000
11.098474 1.412150 1.899981 0.030000
40.681118 0.988872 6.000669 0.340000
40.691608 -3.991734 5.962181 0.030000
44.519882 -9.956817 6.590006 0.000000
6.206044 -1.544614 1.206212 0.340000
13.025848 6.913371 1.015453 0.030000
13.080327 4.859198 0.967958 0.070000
17.230101 4.378331 1.047004 0.010000
11.096419 1.405978 0.844942 0.070000
13.227669 0.311455 0.886437 0.020000
11.956966 -0.962960 0.838382 0.140000
6.217195 -1.532510 0.691281 1.307000
6.782637 2.966223 0.134474 0.060000
7.126563 2.242682 0.132682 0.050000
7.370137 1.537240 0.125696 0.100000
7.553052 0.865643 0.118676 0.030000
7.556467 0.165585 0.116083 0.040000
7.509412 -0.510436 0.113447 0.030000
7.347392 -1.188640 0.105503 0.020000
6.515836 -1.644848 0.156637 0.050000
44.557739 19.047127 7.217929 0.040000
50.178963 14.017298 7.648909 0.030000
11.078677 1.406917 1.859909 0.030000
40.671345 0.999273 5.840680 0.300000
40.536545 -3.964020 5.776877 0.030000
40.156353 -8.922361 5.807454 0.010000
6.216190 -1.549347 1.186221 0.320000
13.021090 6.908481 0.960421 0.040000
13.070459 4.859192 0.917932 0.070000
17.235281 4.378687 0.977018 0.010000
11.056627 1.400361 0.804816 0.100000
13.247795 0.312024 0.836491 0.020000
11.997159 -0.967044 0.798471 0.090000
6.232327 -1.537166 0.676303 1.345000
6.599875 2.847702 0.133556 0.070000
6.953045 2.164363 0.126938 0.050000
7.176145 1.483534 0.119989 0.100000
7.338572 0.836530 0.118008 0.030000
7.351518 0.161677 0.110533 0.040000
7.263883 -0.485134 0.112900 0.030000
7.136473 -1.142672 0.105123 0.030000
6.505890 -1.644966 0.136610 0.080000
44.573364 19.043177 7.012953 0.050000
46.510910 12.939535 6.905320 0.060000
11.093670 1.412333 1.824968 0.030000
40.666801 0.999828 5.665668 0.260000
40.787426 -3.988725 5.642439 0.020000
39.795147 -8.833493 5.596839 0.020000
6.201150 -1.544561 1.166199 0.650000
11.425500 5.893073 0.862481 0.020000
13.090586 4.859761 0.867986 0.050000
17.265337 4.384484 0.917117 0.010000
11.076715 1.400875 0.769870 0.090000
13.248009 0.307192 0.791473 0.010000
13.129709 -1.085265 0.770988 0.150000
13.449106 -2.614363 0.751137 0.000000
6.232379 -1.537091 0.656303 1.200000
6.431919 2.739466 0.132716 0.070000
6.754712 2.075549 0.126090 0.050000
6.982235 1.424810 0.119265 0.110000
7.169191 0.803299 0.112443 0.030000
7.146652 0.152752 0.109965 0.040000
7.098639 -0.473278 0.107513 0.030000
6.950658 -1.101205 0.099792 0.030000
6.475756 -1.635468 0.116567 0.100000
44.430981 18.936237 6.792181 0.060000
46.591667 12.926758 6.720481 0.060000
11.103868 1.407674 1.784977 0.040000
40.662689 0.975313 5.510565 0.160000
40.878445 -4.021474 5.502553 0.020000
39.750885 -8.848720 5.426665 0.030000
6.246564 -1.563639 1.151246 1.345000
11.450517 5.898718 0.817567 0.070000
14.667707 5.550179 0.849669 0.130000
17.335302 4.396064 0.852342 0.010000
11.062014 1.390738 0.729794 0.100000
31.432159 0.765052 0.970642 0.020000
13.124923 -1.090192 0.725956 0.240000
13.424241 -2.614656 0.701070 0.010000
6.247704 -1.551745 0.641288 0.580000
6.259072 2.626154 0.126843 0.070000
6.591193 1.997422 0.120373 0.050000
6.793324 1.366181 0.118554 0.110000
6.984705 0.774760 0.111855 0.030000
6.981779 0.144593 0.109505 0.050000
6.903293 -0.457016 0.107063 0.030000
6.810122 -1.073873 0.094527 0.030000
6.470905 -1.640488 0.096535 0.090000
44.383263 18.846077 6.581719 0.040000
46.742393 12.915302 6.540830 0.050000
11.129147 1.398285 1.750008 0.070000
36.016670 0.823929 4.782867 0.250000
13.167580 -1.138876 1.950899 0.010000
40.003204 -8.948410 5.291952 0.020000
6.196351 -1.549507 1.126168 1.844000
11.505337 5.914936 0.772770 0.090000
14.673138 5.535482 0.794628 0.200000
13.128389 3.165644 0.736786 0.000000
11.077293 1.381157 0.694798 0.100000
31.443237 0.725697 0.850524 0.030000
13.145407 -1.109657 0.685937 0.240000
13.454941 -2.643890 0.651041 0.010000
6.130725 2.538680 0.126183 0.070000
6.422661 1.919180 0.119642 0.050000
6.629313 1.313031 0.117928 0.110000
6.820323 0.741625 0.106303 0.030000
6.801921 0.136165 0.104004 0.050000
6.758141 -0.449777 0.101711 0.030000
6.629390 -1.037328 0.094191 0.020000
6.365267 -1.607487 0.091382 0.080000
43.892078 26.432003 6.883640 0.030000
44.271347 18.714718 6.360937 0.040000
46.809029 12.857265 6.350787 0.030000
11.179311 1.394355 1.720124 0.170000
36.077980 0.775608 4.642847 0.240000
13.157986 -1.153897 1.905818 0.030000
6.216674 -1.564065 1.111166 2.529000
11.515656 5.905315 0.722760 0.160000
13.143708 3.156119 0.686790 0.010000
11.027695 1.365351 0.654609 0.090000
31.469231 0.691647 0.725464 0.030000
13.145824 -1.124468 0.635883 0.270000
13.415174 -2.649469 0.600916 0.050000
6.258093 -1.566402 0.601260 0.260000
5.962864 2.425446 0.125324 0.060000
6.289028 1.846608 0.119024 0.050000
6.465302 1.259880 0.117303 0.110000
6.631017 0.702974 0.110665 0.030000
6.657140 0.123390 0.103578 0.040000
6.597980 -0.442843 0.101319 0.030000
6.478843 -1.010206 0.093899 0.020000
6.209242 -1.555466 0.091168 0.080000
43.909500 26.333035 6.688315 0.030000
44.065372 18.531492 6.154716 0.020000
50.057816 13.703846 6.577416 0.050000
11.169801 1.374316 1.680024 0.210000
36.089386 0.721312 4.507673 0.320000
39.689861 -8.988116 4.935983 0.010000
6.211810 -1.569104 1.096135 2.529000
11.550960 5.896155 0.677818 0.170000
13.129295 3.130985 0.646658 0.010000
11.018171 1.345294 0.619510 0.060000
30.905664 0.626227 0.618748 0.030000
13.380587 -2.664969 0.555768 0.060000
6.243244 -1.571614 0.581202 0.210000
5.834613 2.332973 0.124645 0.060000
6.115581 1.763253 0.123261 0.040000
6.311289 1.206921 0.116704 0.100000
6.481524 0.675106 0.110171 0.030000
6.452344 0.109429 0.112992 0.040000
6.452815 -0.435622 0.100967 0.030000
6.318202 -0.978277 0.093598 0.020000
6.023018 -1.494040 0.095911 0.080000
43.828568 26.152294 6.457430 0.030000
56.918079 24.058559 7.588826 0.040000
50.050621 13.589531 6.346970 0.100000
11.135295 1.353798 1.639857 0.180000
36.120991 0.657420 4.367517 0.260000
13.138908 -1.188920 1.810637 0.040000
6.217148 -1.583931 1.076093 2.529000
11.581276 5.886917 0.627862 0.150000
13.088047 4.765594 0.622627 0.010000
17.800606 4.420933 0.593646 0.010000
10.983748 1.319758 0.584324 0.060000
18.859184 0.335632 0.541223 0.000000
13.126830 -1.164509 0.545683 0.060000
13.361091 -2.685181 0.510641 0.030000
6.253582 -1.586346 0.561174 0.220000
5.691556 2.230215 0.123890 0.050000
5.962047 1.685299 0.122570 0.050000
6.152277 1.153867 0.116091 0.110000
6.317129 0.641952 0.109619 0.020000
6.292483 0.101384 0.107545 0.040000
6.282559 -0.423880 0.100566 0.030000
6.172750 -0.956059 0.093301 0.020000
5.927474 -1.465846 0.090766 0.090000
48.120319 28.663704 6.812972 0.030000
57.001438 23.921103 7.323529 0.030000
50.038757 13.455050 6.136437 0.100000
11.036115 1.317076 1.589461 0.310000
36.097786 0.582457 4.232176 0.260000
6.207298 -1.589047 1.056048 2.129000
11.670884 5.913785 0.588196 0.140000
14.695842 5.426741 0.564281 0.030000
18.040361 4.445786 0.524364 0.010000
11.093928 1.317014 0.544601 0.060000
13.275624 0.208693 0.521176 0.010000
13.122415 -1.189451 0.505579 0.120000
6.243814 -1.596479 0.546111 0.350000
5.588013 2.153219 0.123333 0.050000
5.843219 1.623012 0.122029 0.040000
6.008249 1.101081 0.120519 0.120000
6.192728 0.609564 0.109174 0.030000
6.142690 0.088495 0.112106 0.040000
6.137477 -0.421677 0.105196 0.030000
6.062387 -0.938169 0.093080 0.030000
5.801731 -1.428248 0.090578 0.110000
48.263142 28.547190 6.602909 0.040000
46.340374 19.121395 5.827844 0.030000
50.061852 13.321183 5.940998 0.100000
11.031686 1.292115 1.554357 0.390000
35.080246 0.478849 3.984132 0.260000
14.716665 5.392354 0.504207 0.100000
18.170807 4.433539 0.454658 0.010000
11.074502 1.291766 0.509456 0.160000
13.266306 0.178656 0.481040 0.000000
13.188286 -1.228032 0.460607 0.120000
13.377582 -2.749528 0.415444 0.010000
6.284434 -1.625633 0.526108 0.790000
5.489373 2.081317 0.122809 0.050000
5.719392 1.560630 0.121474 0.040000
5.899049 1.059000 0.115078 0.110000
6.033319 0.576487 0.113635 0.030000
6.037901 0.076486 0.111788 0.050000
6.027402 -0.418784 0.104919 0.040000
5.942027 -0.920471 0.092831 0.030000
5.716377 -1.409861 0.085423 0.110000
51.825317 30.530119 6.794581 0.050000
46.611671 19.082262 5.643404 0.020000
50.045303 13.171647 5.720396 0.080000
11.012273 1.266885 1.514212 0.440000
35.107330 0.389866 3.843871 0.290000
13.130892 -1.273594 1.675300 0.010000
40.226349 -9.500788 4.350471 0.010000
6.228056 -1.623528 1.020974 0.400000
13.122079 3.011504 0.461194 0.000000
11.065074 1.266710 0.474338 0.290000
18.487144 0.204180 0.349761 0.010000
13.173994 -1.258127 0.410457 0.130000
13.393571 -2.794047 0.365320 0.040000
6.239386 -1.621440 0.511006 1.230000
5.405648 2.014720 0.117343 0.050000
5.630380 1.508934 0.116049 0.040000
5.769923 1.011501 0.119564 0.120000
5.953731 0.554977 0.108347 0.030000
5.913116 0.064094 0.111416 0.050000
5.912341 -0.415969 0.099629 0.040000
5.831773 -0.907562 0.087591 0.020000
5.590634 -1.372263 0.085235 0.120000
51.914703 30.337732 6.539096 0.050000
43.650166 17.642252 5.095315 0.050000
57.256081 14.958301 6.225865 0.060000
11.037852 1.242517 1.474188 0.470000
36.419231 0.305031 3.831980 0.140000
13.106505 -1.298882 1.625142 0.040000
40.344917 -9.662940 4.185176 0.020000
6.223301 -1.633547 1.000924 0.330000
13.028343 6.605546 0.419309 0.040000
13.066722 4.600872 0.426957 0.050000
13.132961 2.971871 0.416074 0.010000
11.010942 1.225794 0.439045 0.430000
13.272882 0.109100 0.390797 0.010000
13.189862 -1.297684 0.370351 0.170000
6.249915 -1.646170 0.490941 1.170000
5.312007 1.942914 0.116831 0.040000
5.531452 1.452030 0.115579 0.030000
5.695525 0.980089 0.114253 0.100000
5.834232 0.527683 0.107933 0.020000
5.838430 0.047679 0.106160 0.050000
5.807361 -0.417980 0.099348 0.040000
5.726505 -0.894576 0.087365 0.030000
5.515360 -1.358702 0.085088 0.120000
52.014225 30.135464 6.303602 0.040000
43.768379 17.500132 4.920094 0.050000
57.280579 14.754540 6.005169 0.080000
11.048503 1.212826 1.444105 0.280000
37.071701 0.192782 3.758265 0.110000
13.022226 -1.330318 1.574804 0.060000
40.252560 -9.779143 4.024501 0.000000
6.213630 -1.648680 0.985843 0.590000
11.006610 1.195834 0.403922 0.630000
13.155561 -1.328181 0.325147 0.210000
15.461060 -3.403972 0.208448 0.020000
5.233171 1.881393 0.116397 0.040000
5.457329 1.405602 0.115213 0.030000
5.591311 0.938085 0.113825 0.100000
5.749740 0.501079 0.102614 0.030000
5.728642 0.035574 0.105828 0.060000
5.722377 -0.419608 0.099120 0.040000
5.656435 -0.890899 0.082196 0.030000
5.419804 -1.330527 0.084944 0.140000
57.042194 32.856140 6.626843 0.030000
43.340866 17.132595 4.722610 0.060000
57.290192 14.540383 5.814396 0.070000
11.173915 1.195298 1.424367 0.340000
34.939510 0.068025 3.452232 0.280000
13.023098 -1.370162 1.534658 0.090000
17.834558 -4.070050 1.962185 0.000000
6.239239 -1.678140 0.970800 1.345000
14.578483 7.415908 0.281366 0.040000
16.906858 3.875022 0.234280 0.000000
10.882561 1.148542 0.378422 0.230000
15.525056 0.037770 0.246409 0.000000
13.176538 -1.372622 0.280037 0.120000
14.341408 -3.170337 0.196394 0.030000
5.179140 1.830349 0.116066 0.040000
5.378206 1.359078 0.114834 0.030000
5.531814 0.911959 0.108572 0.110000
5.650129 0.479149 0.107272 0.030000
5.653848 0.024140 0.105591 0.060000
5.647500 -0.426025 0.093901 0.040000
5.556154 -0.877836 0.086983 0.030000
5.344543 -1.316948 0.079798 0.120000
57.113598 32.558388 6.370920 0.040000
29.748194 11.341456 3.245586 0.010000
30.410212 7.338703 3.157434 0.020000
11.159693 1.160166 1.384199 0.290000
34.952328 -0.061294 3.326783 0.090000
13.023955 -1.410024 1.499512 0.040000
17.333475 -4.004269 1.861121 0.000000
6.229568 -1.693273 0.955718 0.920000
13.576071 6.751648 0.261280 0.050000
14.712520 5.123180 0.243193 0.040000
15.051774 3.339381 0.232447 0.010000
10.913221 1.119252 0.343392 0.070000
15.236090 -0.012608 0.200467 0.010000
13.327024 -2.949689 0.184566 0.030000
5.095401 1.763734 0.115600 0.040000
5.318996 1.317955 0.109526 0.030000
5.452500 0.875434 0.108230 0.100000
5.580634 0.452832 0.101993 0.030000
5.574163 0.007629 0.100321 0.050000
5.552504 -0.427863 0.098646 0.040000
5.491179 -0.879062 0.081808 0.030000
5.254164 -1.298694 0.084630 0.130000
29.052826 15.783759 3.305285 0.010000
29.830395 11.243435 3.130435 0.010000
30.427700 7.224421 3.047054 0.030000
11.160456 1.125303 1.349071 0.380000
17.289516 -4.049880 1.795836 0.000000
6.214910 -1.708483 0.935623 0.480000
12.761337 6.211023 0.237143 0.050000
13.537431 4.595601 0.233164 0.050000
14.032658 3.024863 0.213617 0.010000
11.018772 1.096398 0.308583 0.100000
14.211773 -0.057215 0.192628 0.010000
13.549481 -1.510174 0.190498 0.040000
12.604202 -2.808489 0.178204 0.030000
10.689296 -3.620471 0.215188 0.260000
5.071090 1.728280 0.110404 0.040000
5.239861 1.271413 0.114147 0.030000
5.407987 0.849577 0.108017 0.090000
5.506031 0.431399 0.101719 0.030000
5.504368 -0.003710 0.100097 0.050000
5.502623 -0.433801 0.093493 0.040000
5.411002 -0.870596 0.081630 0.040000
5.193996 -1.289826 0.079506 0.150000
29.101063 15.630040 3.199839 0.030000
16.719761 5.840773 1.881116 0.010000
30.475430 7.095661 2.951699 0.110000
11.156301 1.085326 1.318911 0.230000
12.740132 -1.460102 1.398584 0.010000
19.447432 -4.719074 1.908982 0.000000
6.230412 -1.733154 0.925572 0.380000
12.085101 5.748008 0.228657 0.050000
12.819011 4.246817 0.219992 1.000000
13.197522 2.763841 0.205467 0.010000
11.014618 1.056421 0.278423 0.100000
13.467501 -0.101458 0.185520 0.010000
11.629836 -1.292065 0.231298 0.020000
11.926372 -2.666427 0.171963 0.030000
10.665145 -3.660830 0.184974 0.260000
5.002156 1.671950 0.110015 0.040000
5.215357 1.245958 0.108988 0.020000
5.308759 0.807651 0.112603 0.080000
5.456424 0.410445 0.101511 0.030000
5.454665 -0.019664 0.099908 0.050000
5.417638 -0.435429 0.093266 0.040000
5.376118 -0.876247 0.076518 0.050000
5.118627 -1.271266 0.079378 0.130000
29.134493 15.466037 3.094315 0.020000
16.637028 5.729370 1.825486 0.020000
30.463255 6.960733 2.861164 0.160000
12.619743 -0.132063 1.373206 0.010000
12.675906 -1.496210 1.363281 0.040000
19.590000 -4.846220 1.868881 0.000000
6.215837 -1.753381 0.910458 0.360000
11.547127 5.377676 0.215876 0.060000
12.239416 3.960703 0.207415 0.050000
12.581291 2.562021 0.198108 0.010000
11.115156 1.033453 0.248600 0.090000
12.648050 -0.137140 0.178249 0.010000
11.620695 -1.332119 0.196125 0.060000
11.414577 -2.576176 0.160962 0.040000
10.640899 -3.696191 0.154779 0.140000
4.982748 1.641591 0.104851 0.040000
5.136235 1.199434 0.108609 0.020000
5.328987 0.798092 0.097620 0.350000
5.391819 0.389204 0.101264 0.020000
5.384870 -0.031003 0.099684 0.040000
5.362840 -0.446480 0.093081 0.040000
5.280931 -0.868087 0.081300 0.040000
5.078743 -1.277013 0.074252 0.150000
29.163115 15.291939 2.988742 0.060000
30.481182 6.821401 2.765692 0.050000
12.585800 -0.182594 1.337929 0.050000
12.596684 -1.532606 1.327939 0.040000
19.551506 -4.916749 1.808518 0.000000
6.221354 -1.778225 0.895380 0.370000
10.979420 4.991736 0.212959 0.070000
11.763926 3.721572 0.200285 0.060000
12.074561 2.387304 0.191136 0.010000
11.150981 0.994223 0.223547 0.090000
12.153635 -0.171597 0.171830 0.010000
11.566538 -1.373071 0.170831 0.050000
10.988040 -2.499313 0.155134 0.040000
4.928621 1.595546 0.104539 0.040000
5.121729 1.174170 0.103477 0.020000
5.249659 0.761548 0.102277 0.120000
5.347224 0.368365 0.096070 0.020000
5.340178 -0.046843 0.094508 0.040000
5.292853 -0.447821 0.092894 0.040000
5.241047 -0.873833 0.076175 0.040000
5.023562 -1.268068 0.074142 0.160000
29.211491 15.128148 2.903258 0.120000
30.474075 6.681533 2.685153 0.070000
12.576742 -0.227665 1.307738 0.240000
11.639894 -1.435582 1.235801 0.050000
19.543364 -5.006738 1.758162 0.000000
6.206767 -1.798471 0.885267 0.380000
10.629207 4.740021 0.201109 0.070000
11.352958 3.508701 0.188421 0.060000
11.642351 2.239037 0.179457 0.010000
11.181808 0.954899 0.198481 0.120000
11.689214 -0.205479 0.165492 0.020000
11.266415 -1.368800 0.165064 0.050000
10.611782 -2.436489 0.149386 0.050000
10.037697 -3.532659 0.138812 0.080000
4.914115 1.570283 0.099407 0.040000
5.072410 1.138219 0.103214 0.020000
5.205146 0.735690 0.102064 0.060000
5.297616 0.347411 0.095862 0.020000
5.285367 -0.057913 0.099324 0.030000
5.253052 -0.458585 0.092750 0.050000
5.165952 -0.870289 0.080992 0.050000
4.993664 -1.273641 0.074043 0.160000
29.235062 14.953880 2.817671 0.120000
30.576633 6.558733 2.614963 0.020000
12.617662 -0.271798 1.282680 0.540000
12.538480 -1.618515 1.267467 0.100000
6.207189 -1.818412 0.870194 0.640000
10.298785 4.498668 0.194349 0.080000
11.021291 3.332336 0.181900 0.050000
11.344528 2.123331 0.173249 0.010000
11.152740 0.909425 0.173236 0.100000
11.349961 -0.246965 0.159452 0.020000
10.926313 -1.365276 0.154189 0.050000
10.320988 -2.397033 0.143773 0.040000
6.572076 -1.994475 0.330486 0.060000
4.865070 1.519316 0.104090 0.040000
5.042894 1.112650 0.103042 0.020000
5.165537 0.714928 0.101884 0.060000
5.262910 0.331744 0.095714 0.010000
5.250674 -0.073562 0.094175 0.030000
5.198159 -0.464637 0.092584 0.060000
5.115962 -0.871247 0.080858 0.050000
4.948589 -1.269486 0.068941 0.130000
29.253799 14.769482 2.742033 0.130000
30.564777 6.403716 2.549355 0.080000
31.149435 2.779420 2.497408 0.140000
12.613770 -0.326809 1.262465 0.690000
11.626751 -1.525667 1.185432 0.090000
13.522496 -3.390130 1.303450 0.000000
6.207777 -1.848387 0.865084 0.410000
10.047391 4.308838 0.187988 0.080000
10.729233 3.176733 0.175559 0.070000
11.011807 2.001956 0.166929 0.020000
11.035403 -0.272994 0.158534 0.020000
10.580886 -1.346907 0.158356 0.050000
10.115656 -2.380944 0.138297 0.040000
6.607958 -2.038759 0.320415 0.140000
4.850565 1.494052 0.098958 0.040000
5.008476 1.081985 0.102838 0.020000
5.131023 0.689263 0.101698 0.050000
5.238298 0.311269 0.095573 0.010000
5.185865 -0.084824 0.098964 0.030000
5.168356 -0.475210 0.092467 0.070000
5.086063 -0.876820 0.080759 0.050000
4.908679 -1.275269 0.073815 0.150000
29.317297 14.595887 2.681553 0.120000
30.602583 6.264599 2.498936 0.200000
31.172245 2.640015 2.446949 0.110000
12.584785 -0.377299 1.242202 0.760000
11.582565 -1.566465 1.170164 0.150000
13.493526 -3.440602 1.278187 0.010000
6.218376 -1.878153 0.855001 0.330000
9.850507 4.145057 0.181865 0.080000
10.501767 3.042353 0.174465 0.070000
10.803572 1.907951 0.166036 0.020000
10.801130 -0.312469 0.152776 0.020000
10.366035 -1.356005 0.152761 0.060000
9.890232 -2.360240 0.132786 0.050000
6.578373 -2.059292 0.310261 0.270000
4.831143 1.463675 0.098794 0.040000
4.983959 1.056511 0.102680 0.020000
5.126324 0.674188 0.096630 0.040000
5.198593 0.295506 0.095411 0.010000
5.181167 -0.099898 0.093896 0.030000
5.123556 -0.486070 0.092310 0.080000
5.061273 -0.887278 0.075656 0.050000
4.888792 -1.280633 0.068743 0.140000
29.286222 14.400515 2.610745 0.130000
13.171169 3.979371 1.349929 0.000000
30.585548 6.119504 2.428352 0.160000
31.170086 2.500169 2.386423 0.080000
12.580701 -0.422312 1.222024 0.770000
11.533406 -1.607322 1.144884 0.180000
13.454543 -3.491284 1.257897 0.000000
6.208787 -1.898304 0.844900 0.320000
9.703135 4.007229 0.175968 0.080000
10.328920 2.929041 0.168593 0.080000
10.575352 1.813582 0.160090 0.020000
10.720953 0.741218 0.146483 0.010000
10.581664 -0.341659 0.147094 0.020000
10.186177 -1.364433 0.147260 0.060000
9.719976 -2.348498 0.132385 0.050000
4.816625 1.438392 0.098662 0.040000
4.964442 1.031133 0.102534 0.020000
5.091810 0.648523 0.096445 0.030000
5.198894 0.280527 0.090356 0.010000
5.141461 -0.115661 0.093733 0.030000
5.103751 -0.496451 0.092219 0.080000
5.021363 -0.893062 0.080530 0.060000
4.853798 -1.281303 0.068649 0.160000
29.354477 14.236939 2.570315 0.130000
13.147651 3.903962 1.334587 0.000000
13.172992 2.324260 1.303780 0.020000
13.215167 0.909909 1.273633 0.040000
12.576795 -0.477342 1.206809 0.800000
11.549387 -1.656988 1.134741 0.210000
13.450829 -3.556312 1.242645 0.000000
6.214470 -1.933183 0.839786 0.310000
9.570473 3.884685 0.170166 0.090000
10.150979 2.820633 0.162725 0.070000
10.446635 1.746124 0.154503 0.020000
10.576951 0.688469 0.140911 0.010000
10.452372 -0.379124 0.141617 0.020000
10.071595 -1.386613 0.141878 0.060000
9.549733 -2.336738 0.126984 0.050000
4.802203 1.408111 0.098512 0.050000
4.959826 1.011041 0.102448 0.020000
5.082099 0.633334 0.096363 0.030000
5.144274 0.259459 0.095135 0.010000
5.136750 -0.130754 0.093665 0.030000
5.063950 -0.507215 0.092076 0.080000
5.006570 -0.903329 0.075453 0.070000
4.838993 -1.291589 0.068572 0.160000
29.388039 14.057715 2.524736 0.140000
13.149031 3.834031 1.319330 0.000000
13.159292 2.259059 1.283502 0.070000
13.211261 0.854880 1.258418 0.060000
12.592693 -0.521990 1.191684 0.770000
11.515200 -1.697595 1.119501 0.240000
16.038128 -4.452377 1.371069 0.000000
6.209867 -1.953256 0.834699 0.280000
9.502128 3.798379 0.164666 0.090000
10.052530 2.738733 0.162164 0.070000
10.308002 1.673456 0.153871 0.020000
10.462931 0.636276 0.140420 0.010000
10.312973 -0.411799 0.141132 0.020000
9.987103 -1.413217 0.136559 0.060000
9.439850 -2.343844 0.126671 0.050000
7.847522 -2.769690 0.195932 0.070000
4.812406 1.398323 0.093502 0.050000
4.950129 0.995871 0.097366 0.020000
5.057474 0.612841 0.101222 0.030000
5.144575 0.244480 0.090080 0.010000
5.096936 -0.141537 0.098521 0.030000
5.059143 -0.517309 0.092025 0.080000
4.976672 -0.908902 0.075354 0.070000
4.799000 -1.292355 0.068465 0.160000
29.416477 13.883358 2.489161 0.130000
13.160372 2.204107 1.273301 0.090000
13.202247 0.804735 1.248208 0.050000
12.598663 -0.571866 1.186514 0.790000
11.551260 -1.751896 1.114393 0.210000
13.438196 -3.676483 1.217165 0.000000
6.240724 -1.997673 0.834614 0.810000
9.418855 3.706750 0.169108 0.090000
9.958985 2.661928 0.161634 0.070000
10.244068 1.617221 0.153495 0.020000
10.333817 0.588795 0.139906 0.010000
10.233659 -0.448325 0.140789 0.020000
9.887505 -1.435128 0.136217 0.060000
9.339964 -2.350758 0.126384 0.050000
8.742229 -3.257366 0.121454 0.060000
4.802886 1.373136 0.093384 0.050000
4.950416 0.980874 0.097311 0.020000
5.067772 0.598054 0.096194 0.030000
5.119853 0.228986 0.094958 0.010000
5.087142 -0.151708 0.093458 0.030000
5.064442 -0.532192 0.086984 0.060000
4.961866 -0.919188 0.075277 0.070000
4.799384 -1.312351 0.068392 0.150000
29.454985 13.704155 2.463596 0.130000
13.156549 2.144060 1.263067 0.080000
12.649817 -0.630879 1.181428 0.520000
11.557230 -1.801772 1.109223 0.190000
6.231218 -2.022841 0.829496 1.260000
9.380217 3.636015 0.163745 0.080000
9.920143 2.601173 0.161307 0.070000
10.185146 1.561101 0.148132 0.020000
10.304589 0.548228 0.139679 0.010000
10.179244 -0.479372 0.140532 0.020000
9.817901 -1.456465 0.135956 0.060000
9.290453 -2.376711 0.126159 0.050000
8.667243 -3.258802 0.121253 0.070000
4.793259 1.352930 0.098284 0.050000
4.960701 0.966068 0.097283 0.020000
5.058062 0.582865 0.096112 0.030000
5.145149 0.214486 0.089970 0.010000
5.082431 -0.166801 0.093389 0.030000
5.044638 -0.542573 0.086894 0.080000
4.957154 -0.934281 0.075209 0.070000
4.769389 -1.312925 0.068311 0.160000
29.497974 13.549988 2.453135 0.110000
13.167556 3.654464 1.288711 0.000000
13.162519 2.094184 1.257897 0.050000
31.293900 1.797875 2.259134 0.080000
11.633462 -1.865323 1.109186 0.140000
13.455806 -3.811133 1.206710 0.000000
6.196320 -2.028510 0.829384 1.741000
9.386078 3.591120 0.163593 0.080000
9.906008 2.555894 0.161102 0.070000
10.190816 1.526204 0.148018 0.020000
10.285264 0.512852 0.139497 0.010000
10.139922 -0.515132 0.140296 0.020000
9.798575 -1.491842 0.135774 0.060000
9.235847 -2.397760 0.125938 0.050000
8.617539 -3.274757 0.121064 0.070000
4.803544 1.338124 0.098256 0.060000
4.936172 0.940575 0.102124 0.020000
5.068347 0.568059 0.096084 0.030000
5.130440 0.199202 0.089875 0.010000
5.082718 -0.181798 0.093334 0.030000
5.039926 -0.557666 0.086825 0.090000
4.932242 -0.939777 0.080124 0.080000
4.779880 -1.337710 0.063246 0.130000
29.486261 13.379770 2.442471 0.100000
13.168705 3.594476 1.288491 0.010000
13.223261 2.055322 1.262911 0.030000
13.215350 0.645013 1.232648 0.020000
12.015806 -0.682883 1.139580 0.330000
11.644321 -1.910123 1.109048 0.110000
13.461954 -3.871026 1.206504 0.000000
6.206989 -2.063312 0.829282 1.792000
9.391844 3.551223 0.163460 0.080000
9.941589 2.526589 0.156086 0.060000
10.176585 1.485924 0.147831 0.020000
10.296028 0.473051 0.139377 0.010000
10.170695 -0.554531 0.135230 0.020000
9.769156 -1.522410 0.135584 0.060000
9.231422 -2.427850 0.125814 0.050000
8.588024 -3.300327 0.120892 0.070000
4.813747 1.328336 0.093246 0.060000
4.976191 0.941379 0.092231 0.020000
5.048638 0.552679 0.095976 0.030000
5.140629 0.189395 0.089865 0.010000
5.072912 -0.191988 0.093271 0.030000
5.030119 -0.567855 0.086762 0.080000
4.957729 -0.964275 0.075099 0.100000
4.749872 -1.338304 0.068166 0.170000
29.504324 13.220088 2.441925 0.140000
13.164760 3.539390 1.288276 0.040000
13.184431 1.994586 1.257584 0.070000
13.241195 0.600481 1.237550 0.020000
11.941395 -0.714314 1.139269 0.550000
6.259439 -1.407173 0.826858 0.000000
6.207372 -2.083308 0.829209 0.830000
9.491742 3.558156 0.158746 0.080000
9.972158 2.497169 0.156056 0.070000
10.247051 1.462269 0.147927 0.020000
10.321708 0.438555 0.134316 0.010000
10.176365 -0.589429 0.135115 0.020000
9.809915 -1.561637 0.135545 0.060000
9.247294 -2.472536 0.120690 0.050000
8.613977 -3.349838 0.120775 0.070000
4.814021 1.313320 0.098191 0.070000
4.961564 0.921077 0.097118 0.020000
5.058828 0.542872 0.095966 0.040000
5.155914 0.174685 0.089850 0.010000
5.083197 -0.206793 0.093243 0.030000
5.040501 -0.587660 0.086715 0.080000
4.932830 -0.969753 0.075014 0.100000
4.765348 -1.363011 0.068115 0.130000
29.537289 13.065692 2.441437 0.140000
13.116123 3.468465 1.282885 0.040000
13.230176 1.955436 1.262558 0.120000
13.237058 0.555394 1.237371 0.050000
11.917166 -0.754785 1.139055 0.660000
6.325276 -1.450939 0.831867 0.010000
6.202852 -2.108399 0.829104 1.230000
9.542116 3.539117 0.158807 0.080000
10.072344 2.489105 0.151288 0.060000
10.302520 1.438327 0.147982 0.020000
10.402267 0.410093 0.134420 0.010000
10.237024 -0.623273 0.135148 0.020000
9.865875 -1.610555 0.130509 0.060000
9.313432 -2.531280 0.120644 0.050000
8.675416 -3.423656 0.115661 0.060000
4.819212 1.303418 0.098167 0.060000
4.986655 0.916556 0.097166 0.020000
5.079016 0.533257 0.095983 0.040000
5.156106 0.164687 0.089814 0.010000
5.113492 -0.221197 0.088268 0.030000
5.030585 -0.592869 0.091670 0.100000
4.948210 -0.989462 0.074981 0.100000
4.760541 -1.373105 0.068064 0.120000
29.579706 12.936390 2.466067 0.140000
13.107153 3.413246 1.292657 0.050000
13.211124 1.905044 1.267321 0.100000
13.218006 0.505002 1.242134 0.070000
11.892924 -0.795275 1.143841 0.750000
6.315649 -1.471145 0.836767 0.030000
6.198223 -2.128510 0.834017 1.692000
9.691608 3.566985 0.159301 0.090000
10.187309 2.491289 0.156596 0.060000
10.432783 1.425820 0.148276 0.020000
10.517820 0.382301 0.134619 0.010000
10.312764 -0.661847 0.140202 0.020000
9.936711 -1.654225 0.135531 0.060000
9.379557 -2.590042 0.125598 0.050000
8.736733 -3.492513 0.120565 0.070000
4.869120 1.309393 0.093320 0.060000
5.011746 0.912036 0.097215 0.020000
5.089206 0.523451 0.095973 0.030000
5.186292 0.155263 0.089857 0.010000
5.098673 -0.231501 0.093191 0.040000
5.060976 -0.612272 0.086677 0.130000
4.943389 -0.999574 0.079930 0.100000
4.770922 -1.392910 0.068018 0.150000
13.213735 0.464858 1.256974 0.040000
11.873559 -0.830707 1.158659 0.840000
13.344627 -2.448076 1.226487 0.010000
6.275739 -1.476929 0.841642 1.000000
6.198689 -2.153524 0.838925 1.953000
9.846087 3.594930 0.164808 0.080000
10.357086 2.504543 0.157088 0.060000
10.612845 1.424268 0.148740 0.020000
10.668354 0.355161 0.139911 0.010000
10.463695 -0.708965 0.140421 0.020000
10.057935 -1.716914 0.135615 0.050000
9.485974 -2.663017 0.125605 0.050000
8.843630 -3.590483 0.120480 0.070000
4.889212 1.304777 0.093355 0.070000
5.036933 0.902517 0.097245 0.020000
5.129294 0.519218 0.096062 0.030000
5.176568 0.140056 0.094776 0.010000
5.143952 -0.245637 0.093257 0.040000
5.081343 -0.631904 0.091657 0.110000
4.968864 -1.024091 0.079906 0.120000
4.796493 -1.422426 0.067975 0.130000
29.555033 12.645535 2.554923 0.080000
31.387188 1.089114 2.371744 0.120000
11.884189 -0.865565 1.173557 0.800000
13.335440 -2.493334 1.246295 0.010000
6.240828 -1.482617 0.846529 0.050000
6.183857 -2.163846 0.848848 1.898000
10.069896 3.659228 0.165631 0.090000
10.561652 2.528446 0.162711 0.070000
10.817903 1.423195 0.149271 0.030000
10.873795 0.334092 0.140369 0.010000
10.624609 -0.755910 0.145666 0.020000
10.204140 -1.779143 0.140765 0.050000
9.642656 -2.750050 0.130690 0.050000
8.980712 -3.697876 0.120439 0.070000
4.929204 1.305543 0.093462 0.070000
5.057025 0.897901 0.097281 0.030000
5.169383 0.514985 0.096151 0.030000
5.211753 0.130728 0.094833 0.010000
5.174234 -0.260059 0.093282 0.040000
5.106625 -0.646422 0.091669 0.120000
4.979149 -1.038896 0.079878 0.100000
4.821967 -1.446942 0.067950 0.120000
29.597099 12.531137 2.604608 0.030000
11.244424 1.462539 1.195542 0.040000
31.414053 0.984409 2.426425 0.040000
11.884808 -0.900632 1.193429 0.740000
6.236103 -1.497728 0.851461 0.060000
6.194405 -2.193686 0.858765 1.898000
10.338300 3.744365 0.171648 0.080000
10.890440 2.594755 0.163816 0.050000
11.022839 1.427084 0.159821 0.020000
11.134212 0.314057 0.145974 0.010000
10.915705 -0.810345 0.146224 0.020000
10.415716 -1.860124 0.146016 0.060000
6.655736 -1.662814 0.331937 0.070000
9.198642 -3.848729 0.120447 0.060000
4.949188 1.305907 0.098516 0.080000
5.097018 0.898667 0.097388 0.020000
5.189570 0.505370 0.096168 0.040000
5.271946 0.121898 0.089957 0.010000
5.229525 -0.273984 0.088375 0.040000
5.142002 -0.665748 0.091690 0.120000
5.004624 -1.063413 0.079853 0.100000
4.827240 -1.461862 0.072909 0.120000
29.643837 12.431777 2.669361 0.020000
11.205050 1.426705 1.215306 0.120000
6.236351 -1.512781 0.866406 0.050000
6.194666 -2.208721 0.868710 0.790000
11.249114 2.666618 0.170019 0.060000
11.167964 1.419807 0.175173 0.100000
11.499610 0.296034 0.151861 0.010000
11.201775 -0.864912 0.156768 0.020000
10.722563 -1.954282 0.151467 0.060000
6.650903 -1.672945 0.341887 0.180000
9.441937 -4.019118 0.125449 0.050000
5.013901 1.322168 0.093745 0.080000
5.146913 0.904623 0.097540 0.030000
5.229646 0.501118 0.101256 0.040000
5.317034 0.117761 0.090059 0.020000
5.259793 -0.288426 0.093400 0.050000
5.177379 -0.685074 0.091710 0.110000
5.050095 -1.087546 0.079882 0.090000
4.857810 -1.491282 0.072879 0.130000
29.690126 12.352320 2.759187 0.020000
18.232475 4.684942 1.770767 0.000000
11.210463 1.401713 1.240228 0.320000
31.401947 0.813633 2.565761 0.040000
13.048110 -1.078825 1.315804 0.330000
17.913149 -3.687231 1.623810 0.000000
6.236613 -1.527815 0.876351 0.060000
6.215198 -2.238388 0.883653 0.330000
11.063347 4.008261 0.184522 0.080000
10.963964 1.360762 0.209421 0.100000
11.879910 0.283296 0.157806 0.010000
11.623134 -0.931854 0.157619 0.020000
11.069592 -2.057673 0.156989 0.050000
6.595765 -1.669074 0.361758 0.200000
9.715322 -4.193932 0.130513 0.060000
5.043882 1.322724 0.098826 0.080000
5.206805 0.910771 0.097720 0.030000
5.284635 0.502172 0.101404 0.040000
5.357205 0.108510 0.095130 0.010000
5.360184 -0.306469 0.083595 0.150000
5.222754 -0.704208 0.091758 0.080000
5.095552 -1.111698 0.084911 0.090000
4.893378 -1.520606 0.072863 0.120000
29.671825 12.251639 2.843766 0.020000
18.501762 4.714849 1.841582 0.010000
11.145998 1.370399 1.259943 0.370000
31.413065 0.743522 2.650530 0.020000
12.968347 -1.095447 1.340534 0.360000
17.868614 -3.718254 1.668579 0.000000
6.226780 -1.538042 0.886287 0.110000
6.205352 -2.248633 0.898590 0.390000
12.150361 2.868859 0.188124 0.070000
10.964378 1.335673 0.234329 0.140000
12.375282 0.267762 0.164042 0.010000
11.959277 -0.990482 0.173279 0.050000
11.492075 -2.184641 0.167620 0.040000
6.596013 -1.684126 0.376703 0.190000
10.095030 -4.436721 0.135601 0.060000
5.103488 1.343869 0.099060 0.100000
5.256687 0.916710 0.102872 0.030000
5.339625 0.503225 0.101551 0.050000
5.422384 0.099757 0.095267 0.020000
5.315140 -0.307406 0.103474 0.300000
5.308229 -0.727557 0.086894 0.070000
5.131024 -1.136023 0.084913 0.120000
4.939027 -1.554756 0.077855 0.120000
29.658304 12.161016 2.938395 0.050000
30.357309 8.059064 2.819970 0.060000
11.161300 1.350579 1.289910 0.480000
31.549025 0.680748 2.750652 0.010000
13.018807 -1.124632 1.380558 0.390000
6.282292 -1.567057 0.906324 0.220000
6.205504 -2.258687 0.913553 0.590000
12.085929 4.402860 0.203658 0.070000
12.702836 3.004427 0.200070 0.050000
10.974586 1.320756 0.264301 0.160000
12.004841 -2.324864 0.173437 0.050000
6.591071 -1.689277 0.391671 0.180000
10.378579 -4.621378 0.150655 0.060000
5.148371 1.349712 0.104199 0.100000
5.311581 0.922762 0.103038 0.030000
5.409612 0.504565 0.101739 0.070000
5.497466 0.096194 0.095450 0.030000
5.380415 -0.321158 0.103593 0.270000
5.378695 -0.751212 0.086990 0.070000
5.176482 -1.160175 0.089942 0.120000
4.984689 -1.588887 0.077848 0.120000
29.664192 12.100752 3.038187 0.050000
30.293621 7.977499 2.909502 0.110000
11.161509 1.335470 1.319854 0.670000
31.524822 0.624908 2.850383 0.010000
13.044190 -1.149279 1.415533 0.690000
6.232084 -1.558054 0.916227 0.220000
6.185469 -2.259126 0.928499 0.980000
10.964879 1.300438 0.299200 0.160000
13.830642 0.260579 0.182814 0.010000
13.067468 -1.149360 0.195581 0.020000
6.576130 -1.694619 0.406612 0.080000
10.828931 -4.897839 0.160803 0.050000
5.217879 1.376047 0.104478 0.100000
5.386280 0.939195 0.103294 0.030000
5.484502 0.511001 0.101958 0.080000
5.547553 0.092153 0.095566 0.030000
5.505801 -0.338723 0.093855 0.200000
5.444162 -0.774962 0.087073 0.070000
5.242045 -1.188925 0.090006 0.100000
5.050443 -1.627635 0.077875 0.130000
29.650030 12.040030 3.157926 0.020000
11.037055 1.303008 1.339409 0.690000
31.500414 0.579048 2.955150 0.010000
13.049373 -1.164329 1.455491 0.630000
17.483238 -3.721130 1.802564 0.000000
6.242222 -1.567935 0.936217 0.150000
6.190716 -2.274083 0.943457 1.230000
13.505140 4.975031 0.239490 0.050000
14.792850 3.544532 0.212534 0.020000
10.984989 1.290712 0.329217 0.160000
13.097645 -1.163931 0.235606 0.020000
13.181071 -2.642485 0.200327 0.040000
5.307287 1.407765 0.104829 0.090000
5.460965 0.955610 0.108550 0.030000
5.559392 0.517436 0.102178 0.080000
5.632619 0.088763 0.100775 0.030000
5.586061 -0.352207 0.099015 0.120000
5.534625 -0.798234 0.087222 0.040000
5.322796 -1.227385 0.090074 0.090000
5.106186 -1.666593 0.082876 0.100000
43.503971 18.031281 4.616375 0.030000
30.274761 7.886297 3.134115 0.030000
11.027253 1.287689 1.374327 0.910000
35.364349 0.611496 3.390361 0.020000
13.044543 -1.179589 1.500422 0.680000
17.553822 -3.760024 1.867604 0.000000
6.232280 -1.573181 0.951172 0.080000
6.205949 -2.288867 0.963442 1.270000
11.049898 1.291845 0.359391 0.330000
15.905898 0.265287 0.198249 0.010000
13.092842 -1.179154 0.270537 0.010000
14.512831 -2.982021 0.197541 0.040000
11.309651 -5.198869 0.210939 0.070000
5.376782 1.434083 0.110109 0.100000
5.550565 0.977330 0.108864 0.030000
5.634269 0.523853 0.107397 0.080000
5.727615 0.090601 0.096030 0.030000
5.651336 -0.365959 0.099134 0.090000
5.605078 -0.821907 0.092318 0.040000
5.393358 -1.256039 0.090152 0.100000
5.177036 -1.710243 0.082899 0.100000
43.663265 18.043655 4.801839 0.060000
50.003601 13.348189 5.090937 0.100000
11.027257 1.282560 1.409308 0.930000
35.884464 0.585810 3.566625 0.050000
13.074708 -1.194179 1.545447 0.610000
17.694666 -3.812592 1.937777 0.000000
6.232337 -1.578236 0.966153 0.070000
6.190899 -2.289229 0.983402 1.210000
16.987453 6.451965 0.259070 0.020000
13.126586 3.051983 0.356355 0.010000
11.040001 1.281525 0.394327 0.570000
18.660805 0.298109 0.190562 0.000000
13.117898 -1.188859 0.320567 0.030000
15.663613 -3.275089 0.214456 0.030000
6.329378 -1.614569 0.471266 0.090000
11.314820 -5.213937 0.255897 0.170000
5.471093 1.470895 0.110492 0.100000
5.630263 0.993859 0.109134 0.030000
5.739058 0.535862 0.107715 0.080000
5.817681 0.087307 0.101253 0.040000
5.741606 -0.379232 0.099320 0.090000
5.685542 -0.845370 0.092441 0.040000
5.479108 -1.294403 0.090233 0.110000
5.252980 -1.758798 0.082916 0.090000
43.658466 18.007896 4.981695 0.060000
50.058464 13.328522 5.286009 0.030000
11.022371 1.272354 1.439258 0.960000
35.089962 0.545404 3.614401 0.030000
13.089889 -1.209038 1.585432 0.550000
40.315922 -9.432887 4.030954 0.010000
6.217300 -1.578579 0.981113 0.060000
6.201037 -2.299109 1.003392 0.630000
13.074116 4.741148 0.397497 0.030000
13.161557 3.047487 0.401430 0.030000
11.015105 1.270918 0.429223 0.830000
13.321213 0.200133 0.366262 0.010000
13.218254 -1.212088 0.360743 0.030000
6.329434 -1.619624 0.486248 0.350000
11.314895 -5.224103 0.300860 0.150000
5.555502 1.502517 0.110830 0.100000
5.719850 1.015561 0.114448 0.030000
5.838848 0.547775 0.108020 0.080000
5.907760 0.084031 0.101476 0.040000
5.846874 -0.392219 0.099547 0.090000
5.765897 -0.863853 0.097582 0.040000
5.564750 -1.327787 0.095332 0.110000
5.338922 -1.807160 0.082961 0.100000
43.628742 17.966623 5.171466 0.020000
57.189972 15.277109 6.221878 0.070000
11.027362 1.267303 1.479252 0.950000
35.014900 0.528450 3.754143 0.060000
13.129942 -1.218456 1.635502 0.320000
40.296082 -9.463859 4.190789 0.020000
6.217344 -1.583652 1.001094 0.070000
13.064275 4.725774 0.447415 0.020000
13.151633 3.037130 0.446366 0.020000
11.005195 1.260580 0.469159 0.890000
13.198140 -1.212638 0.405689 0.040000
13.432592 -2.743309 0.370611 0.040000
6.314289 -1.614986 0.506226 1.000000
11.299793 -5.224539 0.340820 0.220000
5.669619 1.549711 0.111303 0.110000
5.844265 1.047967 0.109894 0.030000
5.938638 0.559689 0.108325 0.100000
6.017739 0.086138 0.101771 0.030000
5.947130 -0.405319 0.104760 0.090000
5.846348 -0.887335 0.102705 0.030000
5.670689 -1.375767 0.095431 0.080000
5.419852 -1.855637 0.087992 0.080000
46.440079 19.158861 5.678242 0.060000
57.194824 15.251318 6.461797 0.070000
11.017355 1.261963 1.519207 0.990000
35.094818 0.514483 3.889302 0.060000
40.230511 -9.455664 4.340650 0.010000
6.222291 -1.583631 1.021107 0.090000
14.715868 5.437438 0.479372 0.100000
13.131616 3.031581 0.491293 0.010000
11.015101 1.260641 0.504186 1.150000
18.415726 0.272696 0.384830 0.000000
13.163042 -1.213457 0.445595 0.060000
6.289050 -1.605541 0.526195 1.070000
5.783735 1.596905 0.111776 0.110000
5.943754 1.074859 0.115253 0.030000
6.068326 0.577175 0.108728 0.090000
6.122706 0.088130 0.107052 0.030000
6.057397 -0.418210 0.105000 0.080000
5.972008 -0.919915 0.097912 0.030000
5.756343 -1.409132 0.095530 0.060000
5.520996 -1.913692 0.083040 0.090000
46.365364 19.116726 5.867892 0.050000
57.164612 15.229892 6.691641 0.070000
11.042259 1.262312 1.554274 0.890000
35.064701 0.503464 4.009183 0.050000
39.456791 -9.280762 4.424281 0.000000
6.217253 -1.583783 1.036094 0.100000
13.146482 3.031682 0.541333 0.020000
11.025008 1.260703 0.539212 1.080000
13.183017 -1.218241 0.490630 0.070000
26.587374 -5.986580 0.292891 0.030000
6.273918 -1.600885 0.541173 0.350000
5.878034 1.633699 0.117159 0.110000
6.093068 1.112744 0.110784 0.030000
6.178113 0.589280 0.109060 0.090000
6.267788 0.085927 0.102423 0.040000
6.177662 -0.430909 0.105266 0.060000
6.077455 -0.942918 0.103101 0.040000
5.872184 -1.451921 0.095673 0.050000
5.601913 -1.962188 0.093071 0.090000
57.014950 23.726015 7.407840 0.040000
57.158890 15.233903 6.931643 0.070000
11.027170 1.261894 1.589233 0.880000
36.183899 0.518930 4.277165 0.020000
39.245522 -9.235295 4.558900 0.010000
6.222295 -1.588760 1.056089 0.190000
13.131476 3.026247 0.581274 0.010000
11.024917 1.260573 0.574212 1.060000
13.127706 -1.209482 0.540518 0.040000
16.959673 -3.616299 0.481573 0.040000
6.248679 -1.591440 0.561142 0.250000
6.061575 1.712247 0.112930 0.120000
6.232371 1.150418 0.111288 0.030000
6.362613 0.617837 0.104648 0.090000
6.422759 0.088895 0.102838 0.030000
6.328017 -0.448032 0.105595 0.060000
6.223194 -0.980134 0.103344 0.030000
5.993107 -1.499632 0.100812 0.050000
5.728340 -2.034761 0.088131 0.090000
57.004082 23.734856 7.667848 0.050000
57.138241 15.232591 7.181587 0.080000
11.041967 1.267032 1.629291 0.880000
36.368458 0.521897 4.432659 0.040000
40.561577 -4.355145 4.830479 0.170000
39.370724 -9.268526 4.729105 0.020000
6.197069 -1.579297 1.071058 0.270000
6.190886 -2.304653 1.098346 0.020000
13.073750 4.725222 0.647440 0.010000
13.146235 3.031329 0.636332 0.020000
11.029811 1.260520 0.614225 1.060000
17.010441 0.245007 0.591061 0.000000
13.042412 -1.201279 0.585327 0.050000
16.693117 -3.546630 0.546137 0.020000
6.253625 -1.591419 0.581156 0.170000
13.665790 -6.580016 0.491958 0.040000
6.210301 1.780107 0.113571 0.130000
6.426390 1.204162 0.106994 0.040000
6.517297 0.635803 0.105118 0.100000
6.602738 0.092361 0.098321 0.030000
6.538483 -0.468969 0.096067 0.060000
6.333652 -1.003022 0.103547 0.030000
6.149336 -1.561633 0.095989 0.050000
5.864751 -2.107161 0.088218 0.090000
46.075302 19.033974 6.461833 0.050000
57.147053 15.261903 7.416721 0.070000
11.026879 1.266615 1.664250 0.790000
37.332363 0.554483 4.675299 0.030000
57.405468 -6.250354 6.902422 0.220000
39.480549 -9.282049 4.899343 0.030000
6.212110 -1.584083 1.091080 0.360000
14.670564 5.420724 0.709194 0.040000
13.126121 3.030779 0.681278 0.030000
11.014627 1.265102 0.649202 0.950000
13.325603 0.194226 0.636254 0.000000
12.971937 -1.182772 0.625212 0.050000
16.702862 -3.541662 0.606182 0.020000
6.253490 -1.586476 0.596174 0.170000
13.630077 -6.550896 0.546974 0.020000
6.413661 1.869054 0.104432 0.130000
6.565584 1.246817 0.112516 0.040000
6.676788 0.663862 0.105639 0.100000
6.762613 0.100425 0.098768 0.040000
6.658735 -0.481686 0.101333 0.060000
6.504496 -1.044739 0.098838 0.030000
6.290268 -1.608942 0.096181 0.050000
6.021460 -2.194157 0.083304 0.100000
46.817467 19.407135 6.770161 0.030000
57.120499 15.310559 7.646835 0.070000
11.046579 1.276847 1.704340 0.880000
36.162052 0.556997 4.692254 0.030000
52.333916 -5.646092 6.541427 0.210000
39.007500 -9.141450 4.998632 0.030000
6.201881 -1.574332 1.106089 0.430000
6.190686 -2.299803 1.138364 0.010000
14.719823 5.451453 0.769437 0.100000
13.115910 3.035419 0.726269 0.030000
11.024438 1.270162 0.684247 1.040000
13.240310 0.202429 0.681062 0.000000
12.991720 -1.177557 0.670283 0.040000
16.702417 -3.526888 0.666236 0.020000
6.243344 -1.581743 0.616165 0.170000
15.697654 -7.716688 0.598038 0.150000
6.527559 1.926209 0.114942 0.130000
6.739606 1.300178 0.108168 0.050000
6.841278 0.692017 0.106173 0.100000
6.922474 0.108469 0.104216 0.040000
6.818992 -0.493619 0.101707 0.060000
6.660124 -1.076783 0.104125 0.040000
6.461577 -1.675673 0.096380 0.050000
6.152873 -2.266653 0.083377 0.100000
44.545044 18.483854 6.650796 0.020000
57.118614 15.374637 7.892071 0.060000
11.031395 1.281429 1.739318 0.780000
36.046173 0.584324 4.817054 0.030000
52.292458 -5.597593 6.736501 0.170000
38.961159 -9.092879 5.148693 0.030000
6.221921 -1.579022 1.126125 0.420000
6.160270 -2.280437 1.153357 0.010000
14.679687 5.450483 0.824329 0.090000
18.000299 4.403838 0.844107 0.050000
11.029154 1.280126 0.719297 0.790000
13.304988 0.213505 0.726273 0.000000
13.086681 -1.180904 0.715519 0.100000
16.767250 -3.525866 0.726410 0.010000
6.243209 -1.576799 0.631183 0.180000
15.697101 -7.696933 0.663110 0.500000
6.701089 2.004546 0.115686 0.140000
6.888703 1.348023 0.113735 0.050000
7.030667 0.725650 0.106792 0.120000
7.107344 0.117011 0.104730 0.040000
6.999342 -0.510168 0.102117 0.060000
6.815766 -1.108808 0.104412 0.040000
6.627709 -1.732483 0.091603 0.050000
6.299270 -2.338880 0.088491 0.100000
44.364594 18.479721 6.835311 0.090000
57.111523 15.448597 8.142330 0.070000
11.046000 1.296565 1.779413 0.690000
40.417908 0.700577 5.508905 0.050000
41.088802 -4.302587 5.527058 0.060000
39.612915 -9.211280 5.384957 0.030000
6.211679 -1.569290 1.146134 0.420000
6.165121 -2.275417 1.173388 0.020000
13.082172 4.779659 0.847666 0.060000
17.855431 4.385804 0.913662 0.050000
11.058757 1.295549 0.759432 0.310000
13.274589 0.227760 0.771247 0.000000
13.106273 -1.165691 0.760627 0.100000
13.365477 -2.685959 0.745652 0.010000
6.227873 -1.562164 0.651198 0.300000
15.721830 -7.691697 0.728195 2.254000
6.859622 2.082596 0.116390 0.130000
7.092515 1.411938 0.114505 0.040000
7.220153 0.754284 0.107393 0.110000
