# This PCD file was generated using the MATLAB® pcwrite function
# from Computer Vision Toolbox®.
# .PCD v.7 - Point Cloud Data file format
VERSION .7
FIELDS x y z intensity
SIZE 4 4 4 4
TYPE F F F F
COUNT 1 1 1 1
WIDTH 1283
HEIGHT 1
VIEWPOINT 0 0 0 1 0 0 0
POINTS 1283
DATA ascii
14.687368 5.575762 0.794815 0.160000
17.305355 4.400693 0.797281 0.010000
8.105159 0.944196 0.675415 0.240000
28.107946 0.706744 0.861747 0.090000
11.987435 -0.966845 0.693445 0.060000
7.511717 -1.227480 0.645793 0.020000
11.275450 -3.475833 0.657260 0.510000
6.224270 2.615485 0.126713 0.070000
6.581112 2.002248 0.115364 0.070000
6.768329 1.365703 0.118487 0.140000
6.999619 0.780065 0.106914 0.030000
6.996694 0.149898 0.104563 0.070000
6.963295 -0.455849 0.102224 0.050000
6.850115 -1.073107 0.094634 0.030000
6.581568 -1.673356 0.091702 0.100000
43.649994 26.501408 7.148269 0.030000
44.371342 18.935591 6.657022 0.060000
46.631165 12.967906 6.615736 0.050000
11.103811 1.412729 1.769996 0.070000
35.920448 0.876839 4.852814 0.110000
39.805595 -8.827521 5.386886 0.030000
11.363625 -3.543446 1.827251 0.090000
11.415728 5.888068 0.812436 0.110000
14.687321 5.570559 0.849796 0.060000
17.280287 4.394974 0.862195 0.010000
8.140100 0.944791 0.695509 0.230000
28.087772 0.700972 0.966674 0.110000
12.002328 -0.966707 0.733485 0.090000
7.461387 -1.213515 0.665714 0.020000
11.265251 -3.471174 0.697251 0.490000
6.397225 2.723817 0.127567 0.080000
6.739823 2.070281 0.121032 0.060000
6.987151 1.429923 0.114297 0.140000
7.189105 0.808699 0.107515 0.030000
7.181563 0.158440 0.105078 0.070000
7.143740 -0.477397 0.102615 0.050000
7.005839 -1.110150 0.099903 0.030000
6.788172 -1.754395 0.086940 0.100000
11.164677 5.763600 2.076331 0.000000
44.534180 19.017879 6.887755 0.050000
46.516266 12.935003 6.805316 0.060000
40.672234 0.985131 5.610628 0.270000
39.760258 -8.834015 5.556746 0.020000
11.403870 -3.562862 1.877284 0.070000
13.085574 4.859647 0.872973 0.060000
17.275213 4.389637 0.927162 0.010000
8.135036 0.944603 0.720495 0.190000
28.102591 0.695870 1.071695 0.140000
11.977324 -0.972333 0.773399 0.110000
7.436340 -1.214068 0.685647 0.050000
11.265243 -3.476321 0.737232 0.490000
6.550555 2.811751 0.133294 0.080000
6.938253 2.154096 0.121861 0.060000
7.171255 1.478457 0.114958 0.130000
7.368579 0.837123 0.113089 0.030000
7.371610 0.157061 0.110569 0.070000
7.334170 -0.498772 0.108033 0.040000
7.216867 -1.161099 0.095265 0.030000
6.914189 -1.807010 0.092073 0.090000
11.164655 5.758434 2.121312 0.000000
44.678017 19.049852 7.103251 0.040000
50.145470 13.957141 7.513596 0.040000
11.138692 1.408103 1.850070 0.020000
40.687290 0.959828 5.770575 0.330000
40.112038 -8.953069 5.767223 0.020000
11.398957 -3.573104 1.917234 0.060000
13.021485 6.888503 0.955348 0.060000
13.085635 4.849463 0.922935 0.070000
17.280331 4.374494 0.992120 0.010000
8.174963 0.945276 0.745602 0.050000
28.087894 0.665198 1.176544 0.110000
12.002406 -0.982001 0.813429 0.110000
7.456462 -1.223776 0.710663 0.020000
11.260331 -3.486564 0.777182 0.500000
6.768036 2.945958 0.129361 0.070000
7.101964 2.222225 0.127542 0.070000
7.365343 1.527165 0.120646 0.130000
7.588058 0.866332 0.113770 0.030000
7.596568 0.161370 0.111172 0.060000
7.569810 -0.529246 0.103535 0.030000
7.417966 -1.217276 0.100581 0.030000
7.156060 -1.902394 0.092350 0.080000
11.159825 5.743174 2.166244 0.010000
45.451778 19.338566 7.421348 0.020000
50.250439 13.928321 7.738765 0.060000
11.173676 1.403625 1.890145 0.030000
40.677628 0.919031 5.935399 0.340000
11.409222 -3.593076 1.962187 0.100000
13.085888 4.829281 0.972862 0.080000
13.152780 3.170397 0.931869 0.000000
28.118191 0.635388 1.281513 0.030000
12.017587 -0.996860 0.853414 0.090000
11.240326 -3.492095 0.817109 0.450000
6.926351 3.033969 0.140101 0.080000
7.335291 2.311710 0.128484 0.060000
7.599245 1.586655 0.121477 0.110000
7.782722 0.885045 0.119348 0.030000
7.826717 0.155777 0.111752 0.050000
7.760336 -0.555620 0.108934 0.030000
7.448209 -1.231754 0.115606 0.050000
7.312455 -1.974430 0.097491 0.070000
11.155201 5.717934 2.206138 0.010000
44.684322 18.928558 7.482821 0.070000
50.271049 13.867953 7.943597 0.070000
11.188761 1.393766 1.930148 0.100000
40.668198 0.868291 6.085187 0.190000
46.159138 -4.715322 6.838772 0.020000
11.394407 -3.608510 2.002091 0.340000
13.017061 6.843007 1.065168 0.020000
13.133145 3.144852 0.976723 0.010000
11.131979 1.371506 0.884907 0.050000
13.069999 -1.121965 0.920697 0.130000
13.384372 -2.651196 0.910833 0.040000
11.205337 -3.497894 0.851997 0.480000
7.168732 3.173654 0.136253 0.080000
7.558620 2.401002 0.129398 0.050000
7.823245 1.640954 0.122264 0.120000
8.022294 0.909637 0.120065 0.030000
8.016860 0.149399 0.117225 0.050000
7.965956 -0.586706 0.114355 0.030000
7.438241 -1.237037 0.140561 0.100000
7.478848 -2.046274 0.102658 0.070000
11.165382 5.702980 2.246109 0.010000
44.482307 18.749088 7.636628 0.060000
50.322052 13.788182 8.143435 0.080000
11.178959 1.378447 1.965066 0.170000
43.477783 0.840096 6.637422 0.190000
50.944523 -5.331918 7.703980 0.010000
41.666695 -9.540983 6.474103 0.000000
11.389688 -3.628750 2.042004 0.260000
14.812320 5.531901 1.134982 0.100000
17.733957 4.422457 1.193484 0.010000
11.077281 1.350327 0.919686 0.080000
13.025190 -1.137973 0.960521 0.210000
13.369639 -2.671647 0.955719 0.080000
11.195618 -3.518231 0.891896 0.510000
7.371668 3.282541 0.142188 0.080000
7.796934 2.490564 0.135354 0.060000
8.047327 1.690236 0.128032 0.100000
8.182046 0.922663 0.130530 0.120000
8.312010 0.145069 0.112979 0.040000
8.191667 -0.622408 0.119812 0.030000
7.443476 -1.252013 0.160519 0.130000
7.675620 -2.137540 0.107832 0.070000
11.155854 5.672645 2.285972 0.000000
44.136864 18.492006 7.749772 0.040000
50.323471 13.687495 8.333067 0.070000
11.089499 1.346655 1.984715 0.200000
43.453712 0.769036 6.797097 0.180000
45.590469 -4.827204 7.101874 0.020000
11.349795 -3.639644 2.076859 0.340000
13.008157 6.772476 1.159884 0.020000
14.862358 5.522655 1.190078 0.060000
17.888662 4.430183 1.258918 0.010000
11.082585 1.330315 0.949625 0.070000
13.254036 0.221449 1.021172 0.000000
13.015567 -1.163308 1.000402 0.240000
11.190910 -3.538453 0.926809 0.470000
7.629020 3.422476 0.148380 0.080000
8.045259 2.580336 0.136335 0.050000
8.301322 1.745111 0.128899 0.100000
8.162285 0.907208 0.150422 0.110000
8.592149 0.140433 0.113693 0.040000
8.447481 -0.662516 0.120330 0.030000
7.453722 -1.266875 0.175490 0.110000
7.867404 -2.228884 0.107993 0.060000
44.153458 18.386719 7.909426 0.040000
50.409779 13.593435 8.522944 0.020000
11.049920 1.320801 2.009516 0.260000
43.210373 0.663935 6.911072 0.190000
43.422871 -4.688069 6.926732 0.020000
11.335185 -3.665057 2.111727 0.420000
13.018804 6.732507 1.204764 0.010000
14.932406 5.513813 1.240229 0.030000
18.147964 4.459916 1.324706 0.010000
11.052992 1.304633 0.979453 0.060000
13.254506 0.191306 1.061062 0.010000
13.020954 -1.188338 1.035323 0.270000
11.206487 -3.573289 0.961721 0.330000
7.901286 3.567716 0.149630 0.090000
8.328289 2.685775 0.137466 0.050000
8.590117 1.810653 0.129896 0.110000
8.122610 0.886353 0.175241 0.120000
8.882464 0.125973 0.119397 0.040000
8.743480 -0.711856 0.120920 0.030000
7.453957 -1.281946 0.195435 0.050000
8.099551 -2.339475 0.113188 0.060000
43.994625 26.037003 8.762459 0.020000
41.528183 17.112278 7.607832 0.040000
11.025434 1.290235 2.034338 0.290000
40.483353 0.522729 6.618426 0.260000
51.245388 -5.718405 8.298335 0.020000
11.335669 -3.695181 2.146617 0.440000
13.019453 6.692348 1.249617 0.010000
13.139821 3.034355 1.141332 0.000000
11.063377 1.279699 1.014388 0.170000
12.981336 -1.214248 1.075124 0.270000
8.173552 3.712956 0.150881 0.100000
8.596597 2.775911 0.143502 0.050000
8.844291 1.855510 0.135727 0.110000
8.152840 0.871856 0.195266 0.120000
9.152798 0.111147 0.120047 0.030000
9.039492 -0.761177 0.116509 0.030000
47.223324 27.851261 9.567638 0.020000
41.590065 16.992874 7.762551 0.040000
11.045722 1.270491 2.069318 0.290000
40.445225 0.406501 6.747896 0.400000
42.745388 -4.851751 7.109357 0.020000
13.040111 6.652590 1.289523 0.020000
13.068962 4.632987 1.227090 0.010000
13.150398 2.999423 1.176230 0.000000
11.063805 1.254630 1.034296 0.250000
16.434992 0.166443 1.279274 0.020000
13.032015 -1.253394 1.105111 0.300000
13.401816 -2.806623 1.110303 0.020000
8.441106 3.843103 0.152063 0.100000
8.889721 2.876543 0.144641 0.060000
9.187981 1.927105 0.136890 0.090000
8.163169 0.851977 0.215219 0.070000
9.473216 0.092280 0.120814 0.030000
9.270476 -0.811799 0.126924 0.020000
8.574145 -2.575446 0.118550 0.060000
47.394905 27.743832 9.757689 0.030000
41.627197 16.863068 7.897167 0.020000
11.026222 1.240003 2.099154 0.280000
40.377235 0.284756 6.862267 0.350000
50.909893 -5.995906 8.576430 0.020000
11.195948 -3.718045 2.196168 0.270000
12.996548 6.571594 1.329109 0.020000
13.089633 4.593247 1.261997 0.010000
19.249992 4.595257 1.543088 0.000000
11.019405 1.218663 1.064047 0.330000
16.370857 0.115059 1.318916 0.030000
13.027595 -1.288613 1.139969 0.260000
13.412668 -2.856570 1.150146 0.010000
11.167971 -3.664391 1.056282 0.030000
8.758159 3.999185 0.158471 0.090000
9.187927 2.972252 0.150775 0.050000
9.472052 1.977536 0.142819 0.090000
9.728635 0.072150 0.126406 0.030000
9.566667 -0.871137 0.127476 0.020000
9.354831 -1.820343 0.118395 0.020000
8.836683 -2.705441 0.118752 0.060000
47.659992 27.713152 9.963269 0.020000
43.707195 17.596216 8.400328 0.010000
11.151382 1.227251 2.139434 0.220000
40.094471 0.159153 6.906062 0.300000
41.943233 -5.022529 7.211629 0.020000
11.191649 -3.758226 2.221007 0.210000
13.120207 4.558699 1.296949 0.040000
13.156761 2.919292 1.240949 0.000000
11.044909 1.189055 1.089003 0.700000
13.068467 -1.337949 1.169893 0.250000
11.188847 -3.714110 1.086152 0.140000
8.981284 4.098457 0.164422 0.100000
9.486242 3.062982 0.151891 0.050000
9.756232 2.022987 0.143730 0.090000
10.024785 1.057978 0.135843 0.030000
9.999255 0.042328 0.127001 0.030000
9.812854 -0.931451 0.132895 0.030000
9.531318 -1.896995 0.123571 0.020000
9.064215 -2.836125 0.123860 0.060000
44.514015 17.730665 8.682936 0.040000
42.157730 10.587376 7.805223 0.010000
11.186954 1.192797 2.174399 0.250000
8.245340 0.018178 1.637349 0.020000
42.096249 -5.200198 7.366370 0.030000
11.207514 -3.808059 2.255864 0.160000
16.034037 8.259075 1.613313 0.010000
13.086285 4.497928 1.326635 0.020000
13.197250 2.889953 1.270946 0.010000
11.170192 1.171341 1.119265 0.360000
8.407194 0.018790 0.952767 0.010000
13.099136 -1.377497 1.204826 0.130000
13.449312 -2.951124 1.214890 0.020000
11.214818 -3.768732 1.116017 0.190000
9.283627 4.239254 0.170735 0.100000
9.784545 3.153692 0.158007 0.050000
10.015500 2.062941 0.149555 0.080000
10.274821 1.057748 0.141495 0.030000
10.219872 0.011529 0.132463 0.020000
10.013857 -0.982629 0.138229 0.020000
9.818372 -2.001516 0.123931 0.020000
9.271489 -2.952157 0.118970 0.060000
52.448006 30.040825 11.194432 0.030000
47.151112 18.609217 9.268091 0.030000
42.150780 10.416919 7.884572 0.020000
11.212460 1.163189 2.199356 0.260000
8.265763 -0.006508 1.657311 0.060000
42.049091 -5.361460 7.455648 0.030000
16.193672 8.271934 1.668778 0.000000
30.409164 7.241526 2.377062 0.010000
11.175809 1.136369 1.139150 0.110000
8.277575 -0.003733 0.962345 0.020000
13.420019 -2.991783 1.239663 0.010000
11.180347 -3.799471 1.135813 0.190000
9.561467 4.354595 0.171889 0.110000
10.053345 3.218852 0.158951 0.050000
10.284970 2.093107 0.150371 0.080000
10.539867 1.057824 0.142187 0.030000
8.364592 -0.009483 0.257543 0.030000
10.235157 -1.048402 0.138563 0.020000
9.453742 -3.068706 0.124013 0.060000
52.512829 29.771542 11.323602 0.040000
43.956104 17.084610 8.749079 0.030000
42.173702 10.251999 7.974019 0.040000
11.238073 1.128600 2.219295 0.200000
8.256123 -0.026733 1.667210 0.080000
40.508343 -5.310262 7.261815 0.020000
29.120953 15.707305 2.690172 0.020000
30.456133 7.132223 2.426779 0.060000
11.111548 1.095076 1.153829 0.080000
8.303024 -0.028287 0.972320 0.050000
13.256167 -1.489711 1.259819 0.090000
13.410927 -3.042040 1.259453 0.030000
11.322363 -3.906862 1.160785 0.110000
9.784783 4.443870 0.177804 0.110000
10.322036 3.288991 0.164913 0.050000
10.559344 2.128368 0.151218 0.080000
10.785000 1.052500 0.147808 0.030000
8.395039 -0.033941 0.267532 0.080000
10.401154 -1.100269 0.148803 0.020000
10.176633 -2.169721 0.134241 0.020000
9.630995 -3.185350 0.129042 0.060000
52.617153 29.528002 11.457971 0.040000
43.930023 16.868780 8.828209 0.030000
42.142059 10.066085 8.048246 0.030000
8.281653 -0.056304 1.682167 0.240000
40.436035 -5.461948 7.336063 0.040000
40.696712 -10.748807 7.567093 0.010000
11.426964 -4.054321 2.370522 0.040000
7.839288 3.283142 1.058420 0.000000
30.463371 7.007119 2.486333 0.040000
11.157159 1.060870 1.173821 0.080000
8.218493 -0.054947 0.982000 0.060000
13.246980 -1.534968 1.279627 0.180000
13.406903 -3.097237 1.289237 0.020000
11.293083 -3.947503 1.180558 0.230000
7.935487 3.327779 0.298829 0.080000
10.556225 3.333484 0.165690 0.050000
8.041183 1.464437 0.302178 0.160000
11.020244 1.042003 0.148383 0.030000
8.340489 -0.060045 0.282292 0.110000
10.607457 -1.166329 0.149096 0.020000
10.358323 -2.256257 0.134394 0.020000
9.777966 -3.287572 0.134045 0.060000
52.845535 29.336903 11.577858 0.040000
42.644474 16.129744 8.627104 0.040000
47.971184 11.313818 9.193111 0.030000
8.267122 -0.081606 1.687035 0.290000
40.454323 -5.641850 7.395442 0.020000
40.634949 -10.925204 7.616276 0.020000
11.448153 -4.119000 2.390338 0.150000
7.874625 3.263760 1.073440 0.050000
11.192783 1.026491 1.188786 0.090000
8.223945 -0.079884 0.991922 0.070000
13.177720 -1.576357 1.294293 0.190000
11.344472 -4.021587 1.195417 0.280000
7.960948 3.303244 0.303804 0.340000
10.785416 3.377882 0.166453 0.050000
8.011834 1.428832 0.311969 0.420000
11.170681 1.019862 0.153693 0.040000
8.346050 -0.089962 0.287196 0.120000
10.773767 -1.233156 0.149282 0.020000
10.504912 -2.338482 0.139471 0.020000
9.960424 -3.414100 0.134051 0.060000
53.079395 29.120903 11.697666 0.030000
42.668709 15.899929 8.691314 0.020000
8.292558 -0.106178 1.702011 0.330000
40.342377 -5.809206 7.444529 0.010000
40.568336 -11.111751 7.680409 0.030000
11.363540 -4.140643 2.395036 0.200000
7.810966 3.192510 1.078009 0.070000
30.468636 6.721894 2.560287 0.020000
11.173719 0.976081 1.198549 0.060000
8.209414 -0.105185 0.996790 0.070000
13.143562 -1.622056 1.304034 0.180000
7.931969 3.247624 0.318522 0.390000
10.960082 3.396212 0.171977 0.050000
8.007288 1.403704 0.321864 1.000000
11.211318 0.985597 0.163672 0.070000
8.371498 -0.114516 0.297171 0.060000
10.919877 -1.290386 0.154450 0.020000
10.601318 -2.411667 0.144451 0.020000
10.057118 -3.502282 0.138976 0.060000
41.730366 15.302365 8.546641 0.050000
40.167606 9.003835 7.834141 0.030000
8.303104 -0.136018 1.711927 0.510000
40.350872 -5.999279 7.498845 0.030000
40.526855 -11.302763 7.729592 0.030000
11.344366 -4.186073 2.409817 0.460000
7.816622 3.157594 1.082894 0.300000
30.565634 6.613605 2.595138 0.000000
8.204976 -0.135294 1.001666 0.070000
7.387429 -0.785883 0.947113 0.060000
7.937625 3.212708 0.323407 0.440000
11.119944 3.404257 0.177424 0.040000
7.968036 1.362908 0.331610 0.590000
11.207155 0.940473 0.173493 0.150000
7.730134 -0.837055 0.327811 0.040000
10.682536 -2.475141 0.149427 0.020000
10.158919 -3.595349 0.138896 0.060000
52.266449 27.975479 11.596285 0.010000
41.684647 15.076395 8.560682 0.030000
40.001690 8.790657 7.822916 0.050000
8.323649 -0.165666 1.721871 0.660000
40.213745 -6.151969 7.507919 0.050000
40.545567 -11.502604 7.773898 0.020000
11.279870 -4.212295 2.404552 0.340000
7.777780 3.096839 1.082567 0.380000
30.583248 6.473825 2.619665 0.000000
8.185446 -0.160690 1.006521 0.080000
7.422985 -0.815225 0.952097 0.170000
19.536386 -5.161825 1.737567 0.000000
11.245111 3.396652 0.177723 0.050000
7.933795 1.322227 0.336370 0.680000
11.187995 0.895061 0.183275 0.170000
8.547807 -0.181151 0.297384 0.020000
7.730709 -0.867049 0.327701 0.110000
10.763958 -2.548595 0.149366 0.020000
52.416794 27.693180 11.630629 0.040000
43.247398 15.425231 8.881062 0.050000
39.921028 8.564090 7.816863 0.060000
11.247693 0.878502 2.283391 0.000000
8.319225 -0.195756 1.721747 0.590000
7.532456 -0.875468 1.587165 0.000000
40.474277 -11.699059 7.787982 0.010000
7.798337 3.067209 1.087511 0.460000
30.660686 6.345231 2.634389 0.020000
31.140814 2.699020 2.557087 0.060000
8.196019 -0.190493 1.006438 0.080000
7.388374 -0.835892 0.951930 0.150000
11.300759 3.362694 0.182742 0.040000
7.959270 1.297711 0.336345 1.040000
11.243752 0.856122 0.183275 0.100000
8.563378 -0.210858 0.297314 0.090000
7.671090 -0.888213 0.332467 0.110000
10.759917 -2.598681 0.149170 0.020000
10.181107 -3.709962 0.143528 0.060000
52.666039 27.467749 11.675442 0.050000
42.100765 14.748995 8.645553 0.040000
40.039391 8.386234 7.841511 0.040000
11.193579 0.832476 2.278078 0.010000
8.344769 -0.225309 1.731704 0.540000
7.528032 -0.905558 1.587042 0.000000
7.789202 3.022027 1.087319 0.340000
30.573961 6.173540 2.633524 0.040000
31.183559 2.554777 2.566663 0.050000
8.226671 -0.224931 1.011390 0.080000
7.419026 -0.870329 0.956882 0.110000
10.960225 4.691388 0.191792 0.120000
11.351434 3.328676 0.177748 0.040000
7.939848 1.267333 0.336181 1.466000
11.314518 0.817489 0.178316 0.150000
8.498953 -0.242116 0.302029 0.110000
10.796060 -2.657999 0.149043 0.020000
10.182173 -3.764933 0.138326 0.050000
53.029385 27.289494 11.725728 0.080000
42.199856 14.535837 8.650019 0.100000
40.237534 8.219890 7.871410 0.030000
11.174554 0.782121 2.272841 0.040000
8.330456 -0.260571 1.726536 0.420000
7.478437 -0.926493 1.581835 0.020000
7.705873 2.935452 1.076779 0.310000
30.626635 6.034524 2.633145 0.040000
31.171244 2.414516 2.566109 0.040000
8.222151 -0.250022 1.011285 0.070000
7.494766 -0.908904 0.961936 0.190000
10.941570 4.621019 0.191482 0.110000
11.327575 3.268191 0.182461 0.050000
7.990318 1.243296 0.336224 0.690000
8.504526 -0.272014 0.301933 0.130000
10.701365 -2.674816 0.148734 0.020000
10.152946 -3.805500 0.138099 0.070000
51.740833 26.200741 11.413314 0.040000
42.249447 14.296744 8.649260 0.130000
42.277725 8.437626 8.252549 0.040000
11.190400 0.737398 2.277716 1.000000
8.391076 -0.294471 1.741568 0.290000
7.438854 -0.947218 1.571654 1.000000
7.716445 2.905649 1.076696 0.280000
18.914911 5.852797 1.891891 0.000000
8.033796 1.226595 1.026282 0.010000
31.198935 2.275040 2.560663 0.050000
8.287796 -0.283789 1.016331 0.060000
7.460168 -0.929551 0.956769 0.220000
10.922915 4.550649 0.191172 0.110000
11.298826 3.202628 0.182142 0.040000
8.535109 -0.301415 0.296903 0.070000
10.960018 -1.559702 0.163554 0.020000
10.626858 -2.701247 0.148441 0.020000
10.073248 -3.822030 0.137829 0.060000
51.910465 25.964039 11.387877 0.060000
42.382732 14.129340 8.628984 0.120000
42.281456 8.247792 8.216852 0.080000
11.191193 0.697443 2.267570 0.130000
8.426644 -0.323795 1.741552 0.410000
7.379179 -0.963327 1.561439 0.120000
46.293644 -22.015390 9.389839 0.060000
19.051050 5.795413 1.887033 0.000000
7.964697 1.180300 1.015930 0.020000
31.241854 2.125909 2.540220 0.050000
8.363548 -0.322345 1.016385 0.050000
7.455757 -0.959623 0.951646 0.230000
8.170182 3.082157 0.318529 0.250000
11.165768 3.100062 0.181413 0.040000
11.457022 0.690251 0.163215 0.030000
10.860529 -1.586594 0.158194 0.020000
10.517071 -2.713352 0.148109 0.020000
9.963268 -3.824136 0.137534 0.060000
7.952736 2.992330 1.857643 0.000000
42.452106 13.905740 8.598334 0.050000
42.310650 8.033423 8.186131 0.090000
11.222050 0.653026 2.267485 0.110000
8.432231 -0.353675 1.736455 0.440000
7.389669 -0.988112 1.556374 0.110000
45.006840 -21.633959 9.112896 0.040000
19.142208 5.737185 1.877055 0.000000
7.965189 1.155324 1.010838 1.000000
31.229496 1.990722 2.519686 0.040000
7.441156 -0.979888 0.946532 0.230000
18.018108 -5.250515 1.623273 0.000000
19.210106 -8.493754 1.749329 0.000000
8.101633 3.005831 0.318066 0.320000
11.047527 3.007800 0.175762 0.040000
11.317910 0.642578 0.162675 0.020000
10.670647 -1.595250 0.162667 0.020000
10.372002 -2.711130 0.147739 0.020000
9.782344 -3.777593 0.137235 0.060000
7.953433 2.957374 1.847515 0.000000
43.688259 14.093805 8.777262 0.030000
42.414280 7.850522 8.145721 0.070000
8.442817 -0.383459 1.731372 0.420000
7.430319 -1.022358 1.561353 0.100000
44.972439 -21.919485 9.061744 0.070000
19.188786 5.658136 1.856882 0.000000
7.925894 1.119602 1.000603 0.130000
31.272083 1.861661 2.479316 0.050000
12.629969 -0.651592 1.271300 0.050000
7.431650 -1.005056 0.941414 0.240000
13.490320 -3.800873 1.316840 0.000000
8.142035 2.986638 0.308100 0.340000
10.879476 2.904563 0.174939 0.040000
11.047467 1.707605 0.160928 0.080000
11.129013 0.583969 0.156964 0.030000
10.855624 -0.546467 0.152048 0.030000
10.500883 -1.608485 0.157174 0.020000
10.156480 -2.685235 0.142273 0.020000
9.586518 -3.736336 0.136877 0.060000
7.984028 2.927991 1.837486 0.010000
8.083640 1.140041 1.706098 0.010000
7.501073 -1.061010 1.561394 0.090000
44.018398 -21.681780 8.805135 0.060000
29.473551 13.478426 2.747808 0.250000
7.901595 1.084167 0.990408 0.160000
31.274897 1.721874 2.428804 0.050000
7.407064 -1.025494 0.931274 0.240000
13.491618 -3.865787 1.296602 0.010000
18.199572 -8.197616 1.627791 0.000000
8.147730 2.951777 0.297985 0.170000
10.696439 2.801057 0.169077 0.040000
10.814044 1.623120 0.160005 0.070000
10.939923 0.535357 0.151290 0.030000
10.661044 -0.570198 0.151452 0.030000
10.295743 -1.602395 0.151661 0.020000
10.011329 -2.677995 0.136921 0.030000
9.405511 -3.684775 0.131597 0.070000
45.813438 14.333724 9.008703 0.020000
8.024374 1.103973 1.685809 0.020000
43.851768 -21.844614 8.699093 0.090000
29.526571 13.329635 2.687393 0.240000
16.305222 4.548668 1.585228 0.010000
7.887116 1.058940 0.975276 0.170000
31.312332 1.602772 2.373458 0.050000
12.051026 -0.702432 1.199600 0.040000
7.407569 -1.050452 0.921182 0.270000
13.462551 -3.911260 1.271356 0.050000
13.610736 -5.908940 1.309318 0.010000
10.443786 2.676197 0.167953 0.040000
10.605534 1.544131 0.154167 0.080000
10.720840 0.486171 0.145535 0.030000
10.406296 -0.585061 0.145732 0.030000
10.110695 -1.600920 0.146184 0.020000
9.790616 -2.642197 0.131477 0.020000
9.184128 -3.613984 0.126282 0.060000
45.862801 14.119980 8.913037 0.040000
8.069762 1.084857 1.680856 1.000000
11.356714 -3.245157 2.273346 0.000000
45.285553 -22.838028 8.889145 0.050000
29.514811 13.169620 2.621766 0.250000
16.236942 4.462455 1.554729 0.030000
7.857723 1.028408 0.965085 0.120000
13.241526 0.580411 1.257476 0.030000
12.031766 -0.737716 1.174418 0.080000
7.407992 -1.070392 0.906109 0.250000
13.551496 -5.944971 1.279029 0.050000
9.933292 3.741627 0.165581 0.120000
10.200966 2.561563 0.156893 0.040000
10.337034 1.463993 0.148168 0.070000
10.471749 0.436391 0.144700 0.030000
10.216632 -0.603678 0.140167 0.030000
9.895461 -1.590022 0.140662 0.020000
9.564713 -2.596497 0.126058 0.020000
8.952542 -3.533405 0.125977 0.070000
53.256538 24.676168 10.956598 0.020000
45.832264 13.904834 8.782156 0.020000
8.075279 1.060014 1.665778 1.000000
41.375263 1.887173 7.410834 0.020000
11.367723 -3.294882 2.253190 0.000000
44.750149 -22.792503 8.677915 0.060000
29.537683 13.030308 2.546308 0.230000
13.166502 3.444297 1.317927 0.050000
7.808359 0.997531 0.944842 0.110000
11.967514 -0.773861 1.149115 0.080000
7.408401 -1.090351 0.896036 0.280000
15.876356 -4.880478 1.349055 0.010000
9.666505 3.571487 0.164252 0.120000
9.923222 2.441222 0.155721 0.040000
10.063523 1.383741 0.147156 0.080000
10.192485 0.396054 0.138821 0.030000
9.991879 -0.617967 0.134528 0.030000
9.645041 -1.569796 0.135084 0.020000
9.338798 -2.550816 0.125638 0.030000
8.715779 -3.442905 0.120695 0.060000
40.691662 18.394009 8.285420 0.060000
8.030928 1.029251 1.640548 0.160000
39.710125 1.671656 7.020683 0.050000
11.363556 -3.334877 2.228030 0.010000
44.840839 -23.075468 8.582098 0.060000
13.083776 5.147922 1.349044 0.030000
7.828874 0.972974 0.929804 0.100000
31.354460 1.259251 2.172289 0.030000
11.923162 -0.804624 1.123885 0.090000
7.428916 -1.114908 0.880998 0.310000
13.450650 -4.061203 1.185767 0.010000
13.564155 -6.074513 1.213580 0.020000
9.409440 3.416555 0.158005 0.100000
9.660378 2.326168 0.154607 0.040000
9.829825 1.314271 0.141287 0.080000
9.923220 0.355909 0.132968 0.030000
9.737036 -0.627831 0.128826 0.020000
7.566288 -1.149991 0.256220 0.050000
9.007039 -2.462154 0.125101 0.020000
8.413331 -3.318694 0.125367 0.070000
41.627342 18.621803 8.333710 0.080000
8.071330 1.010058 1.630582 0.270000
53.114304 2.065664 9.177158 0.010000
42.054943 -3.545128 7.217413 0.100000
11.309040 -3.355796 2.192810 0.020000
44.860546 -23.304708 8.466296 0.080000
13.060118 5.082585 1.313739 0.060000
16.419769 4.331319 1.449718 0.120000
7.834186 0.958110 0.919762 0.090000
31.361462 1.164625 2.101955 0.040000
11.928897 -0.839429 1.098770 0.100000
7.399248 -1.130424 0.865863 0.270000
9.137475 3.256336 0.151699 0.090000
9.392467 2.216054 0.143498 0.040000
9.536235 1.238653 0.135240 0.080000
9.673949 0.316146 0.127170 0.030000
9.467003 -0.627984 0.123120 0.030000
7.496340 -1.151276 0.241032 0.070000
8.740664 -2.392225 0.119666 0.030000
8.166378 -3.218388 0.120096 0.070000
41.557087 18.396006 8.172686 0.070000
8.031881 0.984389 1.605383 0.260000
39.795628 1.414000 6.814946 0.020000
43.129211 -3.764776 7.269401 0.080000
11.314775 -3.390601 2.167695 0.040000
44.879658 -23.498846 8.320623 0.060000
29.546232 12.621371 2.279807 0.100000
16.391151 4.265943 1.399400 0.100000
7.834621 0.938188 0.899689 0.070000
13.234989 0.415678 1.141846 0.010000
11.904569 -0.869772 1.063594 0.070000
7.429760 -1.154789 0.850852 0.260000
13.503027 -4.174963 1.115480 0.020000
13.581647 -6.193924 1.138180 0.010000
8.810890 3.075050 0.150173 0.110000
9.039916 2.084261 0.147088 0.040000
9.227634 1.162730 0.134152 0.070000
9.329589 0.279545 0.126135 0.030000
9.151871 -0.624019 0.122312 0.030000
7.491764 -1.171312 0.225946 0.080000
8.459088 -2.312603 0.119227 0.030000
7.949611 -3.127505 0.114868 0.060000
41.243828 18.070719 7.960657 0.060000
8.077091 0.975290 1.595467 0.140000
39.938148 1.297057 6.719882 0.050000
43.051796 -3.880766 7.128767 0.150000
44.267582 -9.689517 7.385350 0.010000
11.310442 -3.420561 2.132572 0.030000
13.086855 5.003377 1.233514 0.020000
16.417044 4.226615 1.349320 0.170000
7.844959 0.923457 0.879661 0.070000
11.910220 -0.899559 1.033497 0.090000
7.420089 -1.169922 0.835770 0.170000
13.582614 -6.238767 1.098016 0.010000
8.533720 2.924715 0.148891 0.110000
8.791796 1.984510 0.141069 0.040000
8.958835 1.097570 0.133208 0.050000
9.055120 0.249283 0.125306 0.030000
8.866636 -0.614480 0.121603 0.030000
7.517290 -1.195755 0.205921 0.170000
8.187606 -2.237789 0.118796 0.030000
7.742925 -3.041448 0.114648 0.070000
41.346485 17.953196 7.815486 0.050000
50.309803 14.335643 8.800446 0.010000
40.739929 1.212416 6.716660 0.020000
43.825619 -4.070925 7.115079 0.060000
44.290421 -9.818607 7.249928 0.020000
11.386630 -3.479039 2.112553 0.030000
47.661148 -25.401554 8.495812 0.030000
15.150009 5.892808 1.307206 0.020000
11.910778 -0.924443 1.003406 0.100000
13.494566 -4.244862 1.040197 0.010000
13.593796 -6.293379 1.047842 0.010000
8.296173 2.795161 0.142789 0.110000
8.503671 1.883974 0.139943 0.040000
8.181189 0.962525 0.165677 0.170000
8.760571 0.223655 0.119442 0.030000
8.541314 -0.600708 0.120805 0.030000
7.472338 -1.196561 0.190801 0.090000
7.880638 -2.138669 0.123364 0.040000
7.561356 -2.959874 0.104477 0.080000
41.211044 17.741280 7.619343 0.110000
50.283382 14.175824 8.604780 0.070000
40.677246 1.111748 6.566121 0.060000
48.250740 -4.628127 7.629564 0.110000
44.293056 -9.932972 7.084508 0.020000
47.689621 -25.555321 8.300313 0.020000
14.967513 5.769530 1.241271 0.050000
17.289188 4.393604 1.282217 0.060000
13.246903 0.331295 1.031562 0.000000
11.941439 -0.953732 0.968377 0.100000
13.495354 -4.279688 0.995070 0.010000
13.579574 -6.328511 1.007674 0.020000
7.989202 2.634253 0.141390 0.110000
8.265357 1.794412 0.133988 0.040000
8.146726 0.936934 0.145491 0.370000
8.465996 0.197991 0.123578 0.030000
8.271077 -0.590881 0.120136 0.030000
7.447587 -1.206963 0.170697 0.120000
7.765123 -2.110821 0.108165 0.030000
7.354587 -2.868799 0.099276 0.070000
43.801075 18.770075 7.899931 0.090000
50.256580 14.036001 8.409188 0.090000
40.669174 1.032129 6.415802 0.060000
51.488728 -5.057308 7.941424 0.070000
44.330452 -10.036724 6.934218 0.010000
11.397865 -3.533577 2.042379 0.020000
14.849416 5.677472 1.180620 0.070000
17.319901 4.364388 1.227188 0.080000
8.224910 0.935901 0.835699 0.010000
13.257498 0.306658 0.986498 0.000000
11.961909 -0.973215 0.933358 0.080000
11.324936 -3.480729 0.887373 0.020000
13.605658 -6.377836 0.957558 0.040000
7.781266 2.525270 0.135442 0.100000
8.002035 1.704353 0.132966 0.040000
8.082173 0.915767 0.125244 0.340000
8.206346 0.178033 0.117826 0.030000
8.010742 -0.575865 0.119513 0.030000
7.457937 -1.221676 0.145669 0.130000
7.543727 -2.040049 0.107851 0.040000
7.167814 -2.777342 0.094128 0.080000
51.000401 21.864851 8.925238 0.040000
50.249744 13.901653 8.188669 0.140000
11.253810 1.384827 1.980286 0.100000
40.711365 0.938452 6.270563 0.030000
51.000660 -5.125696 7.674893 0.110000
41.721333 -9.509620 6.389361 0.010000
11.358072 -3.539193 2.002254 0.030000
43.016216 -23.175241 7.161950 0.030000
14.805622 5.621825 1.125298 0.060000
13.123247 3.134532 1.011660 0.040000
11.162113 1.362008 0.904950 0.080000
28.187889 0.636319 1.391700 0.000000
11.305331 -3.495960 0.847265 0.090000
13.601364 -6.407741 0.907435 0.030000
7.533516 2.405504 0.134350 0.100000
7.773529 1.624981 0.127075 0.040000
7.877978 0.871849 0.124548 0.130000
7.936683 0.157865 0.117047 0.040000
7.830597 -0.569295 0.114067 0.030000
7.423079 -1.227289 0.130557 0.070000
7.347628 -1.983776 0.102548 0.030000
6.981124 -2.690902 0.093962 0.080000
44.837894 18.975756 7.688399 0.070000
50.277328 13.792840 8.003335 0.090000
11.219304 1.364309 1.940119 0.190000
43.536320 0.931619 6.532914 0.050000
46.153641 -4.685311 6.808869 0.120000
41.728077 -9.578935 6.234120 0.020000
11.368654 -3.563848 1.962189 0.040000
43.023685 -23.279476 6.986580 0.030000
13.070895 4.823864 1.007803 0.070000
11.072796 1.330420 0.869599 0.070000
28.159197 0.581108 1.296419 0.010000
13.040192 -1.127408 0.885598 0.100000
13.384545 -2.656084 0.880815 0.100000
11.275537 -3.501385 0.807167 0.220000
13.622271 -6.447145 0.852342 0.020000
7.315582 2.296329 0.128375 0.110000
7.554815 1.555780 0.126247 0.040000
7.658703 0.832660 0.118830 0.110000
7.756826 0.149437 0.111546 0.030000
7.605269 -0.553589 0.108537 0.030000
7.423227 -1.232214 0.110539 0.050000
7.141229 -1.912717 0.102273 0.030000
6.768960 -2.579946 0.093821 0.080000
45.400215 19.136974 7.575466 0.060000
50.284492 13.708714 7.798038 0.020000
11.144915 1.338045 1.894827 1.000000
43.498032 0.866515 6.357571 0.080000
46.135456 -4.755012 6.628561 0.080000
41.759926 -9.652751 6.073927 0.030000
11.369142 -3.583696 1.922116 0.040000
43.147171 -23.436514 6.816317 0.020000
13.071505 4.799055 0.957712 0.100000
17.744991 4.388175 1.053384 0.060000
11.083173 1.315745 0.834572 0.110000
13.243977 0.246847 0.861239 0.000000
13.080672 -1.146490 0.845633 0.100000
13.390045 -2.675817 0.835755 0.040000
11.195369 -3.487772 0.767007 0.240000
15.736157 -7.671823 0.838307 0.110000
7.112441 2.197422 0.127477 0.110000
7.366014 1.492172 0.120517 0.040000
7.459424 0.793855 0.113165 0.130000
7.507064 0.134651 0.110839 0.030000
7.400021 -0.542518 0.108042 0.040000
7.187313 -1.186724 0.110092 0.040000
6.970028 -1.850966 0.097056 0.030000
6.592268 -2.493315 0.093682 0.080000
44.911968 18.818577 7.298005 0.070000
56.984219 15.509648 8.557229 0.150000
11.025656 1.305957 1.839395 0.550000
43.484737 0.801891 6.182294 0.040000
46.122093 -4.814600 6.443302 0.060000
39.561462 -9.168101 5.614985 0.030000
11.364439 -3.593641 1.882067 0.050000
13.067019 4.779149 0.907625 0.100000
17.874945 4.400905 0.988770 0.050000
11.058557 1.300399 0.799450 0.260000
13.334365 0.233741 0.816425 0.000000
13.076077 -1.161415 0.800565 0.100000
11.170574 -3.493101 0.726923 0.240000
15.696335 -7.672347 0.773201 0.500000
6.934021 2.114008 0.121701 0.110000
7.162201 1.428257 0.119748 0.040000
7.260036 0.760031 0.112519 0.110000
7.312292 0.120919 0.110279 0.040000
7.169584 -0.521928 0.107517 0.040000
6.996582 -1.150371 0.109730 0.040000
6.783817 -1.789522 0.096798 0.040000
6.410386 -2.396781 0.093566 0.080000
44.606495 18.613588 7.051443 0.030000
57.085747 15.462409 8.332316 0.070000
11.035936 1.296280 1.804386 0.730000
40.562363 0.712887 5.634329 0.060000
46.043262 -4.850438 6.257961 0.100000
39.592712 -9.211960 5.464902 0.030000
11.339548 -3.593971 1.842000 0.090000
17.994886 4.413424 0.929129 0.040000
11.058852 1.290550 0.759414 0.400000
13.254785 0.217379 0.771156 0.000000
13.076387 -1.171246 0.755529 0.090000
16.726934 -3.516820 0.776339 0.020000
11.135685 -3.493623 0.686829 0.220000
15.737359 -7.716331 0.708144 2.320000
6.745685 2.025385 0.120880 0.120000
6.968305 1.369551 0.114023 0.040000
7.085548 0.731684 0.111958 0.100000
7.112425 0.112089 0.109725 0.040000
6.999329 -0.510187 0.107116 0.040000
6.835858 -1.113424 0.104447 0.040000
6.622697 -1.732597 0.096589 0.040000
6.279082 -2.329265 0.088474 0.080000
44.330734 18.424171 6.805016 0.050000
57.102558 15.403656 8.077139 0.070000
11.031234 1.286335 1.764336 0.730000
40.518570 0.672646 5.469063 0.060000
45.929283 -4.876892 6.057563 0.080000
38.920696 -9.078908 5.218640 0.040000
11.349951 -3.608609 1.796972 0.050000
14.694550 5.455713 0.839388 0.180000
13.115574 3.045213 0.781305 0.020000
11.049137 1.280490 0.724351 1.000000
13.006614 -1.177419 0.710323 0.070000
16.667089 -3.517765 0.721178 0.020000
11.151061 -3.508202 0.651815 0.200000
15.677253 -7.702241 0.643039 7.743000
6.597067 1.952545 0.115221 0.120000
6.784380 1.311000 0.118325 0.040000
6.866260 0.692477 0.111240 0.110000
6.967465 0.109331 0.104336 0.040000
6.808981 -0.493829 0.106680 0.040000
6.675218 -1.081495 0.104147 0.030000
6.436391 -1.666154 0.096350 0.040000
6.127481 -2.247154 0.088384 0.080000
44.604977 18.490059 6.635975 0.040000
57.114414 15.339733 7.841930 0.070000
11.031517 1.276467 1.729300 0.820000
36.076668 0.565069 4.772062 0.030000
52.268295 -5.627694 6.636325 0.220000
38.916691 -9.108404 5.058518 0.030000
11.345152 -3.613555 1.756941 0.060000
14.670190 5.430462 0.779230 0.160000
13.120787 3.040477 0.736301 0.030000
11.024425 1.270143 0.689247 0.730000
12.961726 -1.178132 0.670203 0.060000
16.692530 -3.532060 0.661191 0.020000
11.196636 -3.532187 0.611844 0.280000
6.443341 1.884589 0.114567 0.120000
6.615287 1.262772 0.112705 0.040000
6.731668 0.669896 0.110805 0.100000
6.782596 0.100789 0.103822 0.040000
6.678718 -0.481322 0.106387 0.040000
6.489377 -1.040065 0.108816 0.030000
6.275271 -1.609229 0.096141 0.040000
5.996164 -2.179657 0.088292 0.080000
46.862209 19.423050 6.755337 0.040000
57.135860 15.295961 7.616821 0.060000
11.036703 1.271694 1.694295 0.900000
36.082413 0.545689 4.632003 0.050000
57.439919 -6.240188 7.037552 0.210000
39.434883 -9.258194 4.974313 0.040000
11.345352 -3.618406 1.716923 0.060000
84.465141 -47.545090 11.094593 0.050000
13.150898 3.041218 0.691382 0.020000
11.014614 1.265083 0.654202 0.690000
28.128792 0.427772 0.675763 0.000000
13.012121 -1.192004 0.625282 0.050000
16.667704 -3.532297 0.596125 0.020000
11.176744 -3.532421 0.571791 0.150000
6.294615 1.816728 0.113927 0.110000
6.471081 1.220002 0.112169 0.040000
6.547086 0.646357 0.110235 0.110000
6.627625 0.097821 0.103406 0.040000
6.523472 -0.469274 0.101026 0.040000
6.348745 -1.007734 0.103569 0.030000
6.139146 -1.551826 0.095999 0.040000
5.829362 -2.087854 0.093198 0.080000
56.898350 23.742043 7.882600 0.060000
57.122089 15.266609 7.366673 0.070000
11.031904 1.266748 1.654264 0.870000
36.077972 0.536116 4.491954 0.040000
40.591038 -4.339926 4.925613 0.170000
39.385307 -9.258557 4.814181 0.020000
11.335362 -3.613450 1.676915 0.060000
8.743717 -3.777178 1.414539 0.000000
13.121226 3.030832 0.641265 0.020000
11.024716 1.265423 0.614230 0.740000
16.925373 0.248397 0.585851 0.000000
13.042330 -1.196261 0.580345 0.050000
16.733326 -3.555825 0.536208 0.020000
11.247411 -3.560926 0.531869 0.240000
6.120989 1.743390 0.113201 0.100000
6.277062 1.166259 0.116463 0.030000
6.407496 0.623679 0.109787 0.090000
6.442647 0.094259 0.107910 0.030000
6.368105 -0.452265 0.105684 0.040000
6.213100 -0.975326 0.103335 0.030000
5.977918 -1.489921 0.100808 0.050000
5.723245 -2.029857 0.088136 0.080000
56.993683 23.759769 7.637913 0.040000
57.147877 15.257945 7.136706 0.070000
11.041993 1.267069 1.619291 0.890000
36.233341 0.534513 4.377353 0.040000
39.799881 -4.254201 4.688865 0.120000
39.260117 -9.225307 4.638976 0.020000
11.330482 -3.613378 1.631902 0.060000
8.728703 -3.772354 1.384517 0.010000
14.705626 5.431765 0.609325 0.020000
13.136341 3.031286 0.596306 0.020000
11.009907 1.260267 0.579171 0.890000
17.040508 0.250823 0.526160 0.000000
13.132717 -1.209368 0.535532 0.050000
11.297902 -3.579798 0.486930 0.200000
5.967250 1.675415 0.117547 0.100000
6.152660 1.133871 0.116018 0.030000
6.232899 0.600313 0.114244 0.080000
6.297674 0.091482 0.107522 0.040000
6.202657 -0.430430 0.105333 0.040000
6.082454 -0.942823 0.103115 0.030000
5.867076 -1.447037 0.100678 0.050000
5.596831 -1.957266 0.088076 0.090000
57.029369 23.761425 7.373009 0.050000
57.163513 15.259143 6.891749 0.070000
11.017102 1.266739 1.579225 0.980000
35.718945 0.525375 4.180974 0.020000
39.785221 -4.248877 4.523844 0.110000
11.330477 -3.608249 1.596921 0.070000
8.708510 -3.757610 1.349519 0.010000
14.690882 5.426702 0.549268 0.070000
13.131472 3.031376 0.546293 0.020000
11.014997 1.260493 0.544185 1.180000
17.485596 0.259587 0.462354 0.000000
13.162829 -1.208626 0.490613 0.080000
13.422373 -2.743816 0.455583 0.010000
11.293007 -3.579745 0.446917 0.120000
5.818428 1.612554 0.116925 0.100000
6.003455 1.091005 0.115469 0.040000
6.098211 0.582730 0.113827 0.090000
6.147702 0.088609 0.107119 0.030000
6.077393 -0.417827 0.105053 0.040000
5.992004 -0.919532 0.097965 0.030000
5.756343 -1.409132 0.095530 0.040000
5.500795 -1.904096 0.088023 0.080000
46.355007 19.136568 5.857938 0.060000
57.179111 15.260284 6.661791 0.080000
11.032191 1.267157 1.544265 0.860000
35.039524 0.518132 3.969172 0.040000
41.118378 -4.398297 4.506769 0.160000
40.089561 -9.418650 4.420420 0.010000
11.325583 -3.608196 1.556908 0.050000
8.723681 -3.762210 1.319541 0.010000
14.686027 5.426810 0.494255 0.130000
13.136589 3.031639 0.501307 0.020000
11.019992 1.265718 0.509217 0.990000
18.330729 0.271049 0.389602 0.000000
13.183052 -1.213056 0.440648 0.080000
13.397304 -2.734130 0.410553 0.010000
11.283017 -3.574789 0.406909 0.130000
11.314820 -5.229343 0.365841 0.100000
5.699409 1.560265 0.116420 0.100000
5.884052 1.058713 0.115038 0.030000
5.988533 0.565645 0.108477 0.090000
6.032723 0.086407 0.106811 0.040000
5.972125 -0.404841 0.104827 0.040000
5.856346 -0.887143 0.102732 0.030000
5.665594 -1.370863 0.095436 0.050000
5.419852 -1.855637 0.087992 0.070000
46.355297 19.147253 5.672977 0.060000
57.204311 15.281596 6.436934 0.070000
11.017285 1.266999 1.509225 0.940000
35.079666 0.529379 3.839317 0.060000
13.200029 -1.227243 1.670653 0.050000
40.300694 -9.454044 4.265838 0.020000
11.330603 -3.602934 1.511940 0.060000
13.116723 3.031442 0.451254 0.030000
11.010098 1.265675 0.469191 1.040000
18.515795 0.279870 0.315117 0.000000
13.392325 -2.729059 0.365558 0.020000
11.076409 -3.488620 0.376690 0.300000
11.289534 -5.209696 0.330848 0.150000
5.615012 1.528662 0.111082 0.110000
5.769553 1.031515 0.114638 0.040000
5.873745 0.553445 0.108132 0.080000
5.927743 0.084396 0.106530 0.040000
5.851860 -0.392142 0.104560 0.050000
5.750804 -0.859141 0.097560 0.040000
5.564750 -1.327787 0.095332 0.060000
5.323733 -1.797449 0.082957 0.090000
45.725895 18.891254 5.370379 0.050000
50.043243 13.317641 5.445931 0.050000
11.022293 1.272243 1.469257 0.960000
34.989662 0.548172 3.699150 0.070000
13.114805 -1.208670 1.615499 0.270000
40.310520 -9.423282 4.110976 0.010000
11.320421 -3.587980 1.471969 0.090000
13.078884 4.751186 0.412547 0.040000
13.111636 3.041493 0.411277 0.060000
11.014997 1.275899 0.434241 0.770000
13.271017 0.209155 0.371164 0.000000
13.147897 -1.193414 0.355629 0.040000
16.648264 -3.511346 0.236148 0.020000
11.061230 -3.473762 0.336705 0.300000
11.289459 -5.199531 0.285885 0.250000
5.510798 1.486659 0.110654 0.100000
5.645151 0.999127 0.114192 0.040000
5.759054 0.536245 0.107769 0.090000
5.822667 0.087384 0.106266 0.040000
5.756604 -0.378945 0.099360 0.050000
5.685446 -0.840371 0.092459 0.050000
5.458908 -1.284807 0.095216 0.060000
5.257979 -1.758702 0.082930 0.090000
43.623169 18.027334 4.951675 0.070000
50.003223 13.347651 5.235936 0.130000
11.027192 1.282467 1.434308 0.950000
35.109489 0.575930 3.574565 0.050000
13.094639 -1.193889 1.570500 1.000000
11.310253 -3.573007 1.426997 0.120000
48.493122 -26.567865 4.958612 0.010000
18.434582 4.529377 0.245701 0.020000
13.112720 -1.178938 0.315590 0.040000
15.336744 -3.181350 0.218951 0.030000
11.071236 -3.468422 0.296751 0.280000
11.279196 -5.179559 0.240932 0.190000
5.426389 1.455036 0.110316 0.090000
5.590366 0.988094 0.109008 0.030000
5.654157 0.529217 0.112469 0.080000
5.737600 0.090774 0.101057 0.040000
5.666320 -0.365690 0.104174 0.050000
5.599983 -0.817004 0.092323 0.030000
5.408451 -1.260750 0.090174 0.050000
5.161847 -1.700533 0.082895 0.090000
43.553268 18.046659 4.771563 0.080000
49.972740 13.397736 5.056040 0.140000
11.022093 1.292499 1.399332 0.760000
35.134045 0.616866 3.449780 0.050000
13.074472 -1.179108 1.525502 0.550000
17.699265 -3.787390 1.907882 0.000000
11.305058 -3.557975 1.392039 0.120000
55.679955 -30.567434 5.372508 0.030000
14.893822 5.576678 0.260352 0.040000
8.146996 0.880829 0.445287 0.060000
15.805508 0.283331 0.208054 0.010000
13.341729 -2.679524 0.230609 0.030000
11.081134 -3.458103 0.261814 0.240000
5.336981 1.423319 0.109965 0.100000
5.490768 0.966183 0.108667 0.030000
5.584279 0.522896 0.107263 0.080000
5.667517 0.094432 0.100888 0.030000
5.575953 -0.347418 0.104006 0.050000
5.529517 -0.793349 0.092227 0.040000
5.332794 -1.227193 0.090101 0.060000
5.075796 -1.647189 0.087869 0.110000
43.462879 18.090576 4.596488 0.040000
30.283840 7.936535 3.119326 0.040000
11.141644 1.319867 1.379745 0.600000
31.474840 0.598286 3.030155 0.010000
13.049199 -1.159442 1.485509 0.400000
17.648569 -3.743133 1.847914 0.000000
11.304767 -3.537849 1.357113 0.090000
55.698334 -30.451237 5.147986 0.070000
13.807292 5.125826 0.245840 0.050000
14.648221 3.521703 0.227071 0.040000
8.146871 0.890920 0.420323 0.130000
14.695455 0.277107 0.195133 0.010000
13.097358 -1.148934 0.235661 0.010000
13.210875 -2.631912 0.200444 0.040000
11.121218 -3.457206 0.226922 0.170000
11.076432 -5.028177 0.175965 0.060000
5.262474 1.396887 0.109672 0.100000
5.406071 0.949558 0.108384 0.030000
5.499391 0.516269 0.107017 0.070000
5.587449 0.097918 0.095692 0.030000
5.510787 -0.338646 0.098869 0.050000
5.444054 -0.769982 0.092091 0.050000
5.272135 -1.193349 0.090068 0.060000
5.030147 -1.613039 0.082876 0.110000
29.678589 12.115590 3.158281 0.020000
30.322945 7.997661 3.019654 0.020000
11.131449 1.334803 1.344774 0.750000
31.539309 0.639877 2.935477 0.010000
13.074107 -1.148816 1.445613 0.270000
11.329770 -3.532222 1.317199 0.050000
55.787479 -30.373672 4.918505 0.040000
12.884500 4.743140 0.227008 0.060000
13.558517 3.235801 0.218164 0.040000
8.126830 0.895610 0.400288 0.160000
13.775256 0.279503 0.187740 0.010000
12.009577 -1.014761 0.238320 0.010000
12.537302 -2.449725 0.184363 0.040000
11.327542 -3.518101 0.182234 0.120000
10.631176 -4.756619 0.165812 0.050000
5.207785 1.380855 0.104470 0.090000
5.351273 0.938507 0.108200 0.030000
5.429499 0.509929 0.106811 0.070000
5.517366 0.101576 0.095522 0.030000
5.430419 -0.320182 0.098727 0.060000
5.383586 -0.746136 0.092022 0.040000
5.201478 -1.159696 0.090009 0.070000
4.994591 -1.583697 0.077893 0.120000
29.677521 12.185967 3.053539 0.020000
30.332067 8.058231 2.914902 0.100000
11.161139 1.355485 1.314928 0.530000
31.468447 0.698915 2.830510 0.010000
11.916379 -1.000522 1.323141 0.390000
7.787603 -1.323588 1.021160 0.000000
51.144398 -27.570084 4.366801 0.040000
12.264050 4.501252 0.214489 0.050000
12.826746 3.061792 0.205607 0.050000
8.111598 0.910395 0.380303 0.190000
12.950040 0.283718 0.180601 0.010000
11.949092 -0.985805 0.208270 0.020000
11.888700 -2.267096 0.178349 0.040000
10.281776 -4.528216 0.150749 0.060000
5.133182 1.359422 0.104195 0.090000
5.291393 0.932377 0.103021 0.030000
5.364511 0.508684 0.106637 0.060000
5.452187 0.110330 0.095385 0.030000
5.320030 -0.302329 0.108506 0.110000
5.303122 -0.722673 0.091899 0.050000
5.161019 -1.135449 0.084993 0.090000
4.943834 -1.544662 0.077905 0.110000
29.691233 12.266592 2.958874 0.020000
18.352261 4.681833 1.881070 0.020000
11.145837 1.375306 1.284961 0.370000
31.467258 0.774254 2.735786 0.040000
11.996141 -0.983900 1.298411 0.330000
7.802461 -1.313229 1.001237 0.010000
34.387058 -18.014154 2.948567 0.010000
11.663500 4.264745 0.202042 0.060000
12.239373 2.920555 0.193549 0.060000
8.101352 0.925256 0.365332 0.190000
12.364779 0.292529 0.174106 0.010000
11.943692 -0.960794 0.178348 0.050000
11.441304 -2.145625 0.172633 0.030000
10.651602 -3.210900 0.156611 0.040000
9.988120 -4.338769 0.140686 0.050000
5.073481 1.343276 0.103979 0.090000
5.211682 0.915829 0.107751 0.030000
5.314438 0.512744 0.101521 0.040000
5.362095 0.113586 0.100162 0.020000
5.385070 -0.301010 0.088680 0.240000
5.237655 -0.698922 0.091816 0.050000
5.095456 -1.106699 0.084929 0.080000
4.918469 -1.525126 0.072912 0.120000
29.654968 12.346278 2.859074 0.020000
11.160419 1.400681 1.260093 0.360000
11.960651 -0.954464 1.268427 0.610000
33.388527 -11.801228 2.709054 0.030000
11.122351 4.059363 0.194866 0.060000
11.741492 2.806018 0.186823 0.060000
8.101116 0.940327 0.345387 0.190000
11.909398 0.308829 0.167978 0.010000
11.597537 -0.902376 0.167662 0.020000
7.552411 -1.220581 0.340922 0.040000
10.308517 -3.052424 0.151305 0.050000
9.638778 -4.115420 0.140605 0.060000
5.033693 1.332531 0.098836 0.080000
5.176702 0.915177 0.102657 0.030000
5.254449 0.511595 0.101360 0.040000
5.321924 0.122837 0.095091 0.020000
5.299703 -0.282642 0.088526 0.250000
5.197279 -0.679692 0.091782 0.050000
5.054889 -1.077471 0.084932 0.080000
4.872711 -1.485995 0.072938 0.120000
29.653261 12.446557 2.779442 0.020000
31.419823 0.923977 2.571218 0.010000
11.940145 -0.924760 1.243484 0.730000
7.847052 -1.287260 0.971450 0.030000
33.381462 -11.681012 2.619482 0.020000
10.744926 3.922129 0.188371 0.080000
11.328129 2.718122 0.175417 0.060000
8.125768 0.960858 0.330527 0.190000
11.519114 0.321393 0.157006 0.010000
11.251383 -0.843958 0.156975 0.020000
7.547067 -1.200625 0.325982 0.120000
10.041101 -2.927487 0.141071 0.050000
9.420875 -3.964530 0.130597 0.060000
4.988797 1.326670 0.098697 0.080000
5.106811 0.908838 0.102451 0.030000
5.219360 0.515924 0.101285 0.040000
5.271742 0.131878 0.094994 0.020000
5.239414 -0.268812 0.093420 0.140000
5.146810 -0.655654 0.091740 0.070000
5.019416 -1.053146 0.084930 0.090000
4.837142 -1.456671 0.072954 0.120000
29.596659 12.540783 2.699643 0.050000
8.088820 0.967677 1.005463 0.310000
31.493172 1.020655 2.501768 0.050000
11.909655 -0.895229 1.213514 0.740000
13.472524 -4.176262 1.310398 0.000000
13.581617 -6.219644 1.333087 0.010000
10.456731 3.826630 0.177263 0.070000
10.979440 2.646432 0.174241 0.050000
11.203611 0.345373 0.151272 0.010000
10.925102 -0.780196 0.156361 0.020000
7.491529 -1.171647 0.315945 0.160000
9.833949 -2.816417 0.135943 0.050000
9.177566 -3.794160 0.130595 0.060000
4.929000 1.315523 0.098499 0.070000
5.081720 0.913358 0.102403 0.030000
5.169273 0.519965 0.101169 0.040000
5.241652 0.136302 0.094932 0.010000
5.214240 -0.259275 0.088389 0.080000
5.101421 -0.636539 0.096693 0.080000
4.994038 -1.033629 0.084936 0.110000
4.826761 -1.436867 0.073000 0.130000
29.579533 12.660714 2.635044 0.050000
8.038678 0.976773 0.990366 0.280000
31.391552 1.113982 2.431849 0.070000
11.924033 -0.859874 1.193683 0.770000
7.429577 -1.155049 0.920851 0.050000
13.446362 -4.111642 1.280569 0.010000
13.575451 -6.154641 1.303312 0.020000
10.183329 3.741397 0.171233 0.080000
10.645569 2.585045 0.168141 0.060000
10.867197 1.459109 0.159534 0.060000
