# This PCD file was generated using the MATLAB® pcwrite function
# from Computer Vision Toolbox®.
# .PCD v.7 - Point Cloud Data file format
VERSION .7
FIELDS x y z intensity
SIZE 4 4 4 4
TYPE F F F F
COUNT 1 1 1 1
WIDTH 1286
HEIGHT 1
VIEWPOINT 0 0 0 1 0 0 0
POINTS 1286
DATA ascii
13.432180 -2.795251 0.895422 0.010000
6.263942 -1.626723 0.716053 1.424000
7.036905 3.006081 0.140286 0.080000
7.411222 2.263137 0.133501 0.050000
7.625568 1.517128 0.126288 0.080000
7.804060 0.815441 0.119145 0.030000
7.793052 0.085101 0.116401 0.030000
7.731683 -0.626181 0.108597 0.030000
7.580331 -1.339188 0.100551 0.030000
6.502428 -1.730175 0.171285 0.050000
44.514954 18.130686 7.339412 0.030000
57.003296 14.998952 8.820383 0.010000
11.041590 1.251087 1.884233 0.350000
40.518299 0.355752 5.967890 0.310000
45.559437 -5.231183 6.640287 0.030000
38.823307 -9.297957 5.802577 0.030000
6.091872 -1.586753 1.190757 0.350000
13.031502 6.618427 1.014371 0.020000
13.085008 4.614226 0.972060 0.040000
18.414692 4.405895 1.085199 0.010000
11.019691 1.234478 0.844104 0.410000
12.917663 -1.254704 0.864805 0.270000
13.402879 -2.825652 0.850232 0.030000
6.274471 -1.651452 0.695988 1.424000
6.854431 2.872563 0.139313 0.080000
7.198274 2.154039 0.132540 0.060000
7.431863 1.448425 0.120526 0.090000
7.584963 0.766236 0.118390 0.030000
7.583391 0.066101 0.110783 0.040000
7.516436 -0.615302 0.108076 0.030000
7.334419 -1.293889 0.100078 0.030000
6.482663 -1.740501 0.156195 0.050000
49.151848 28.606960 8.585472 0.030000
44.459415 17.925320 7.138501 0.030000
57.077473 14.811109 8.609877 0.100000
11.052254 1.221414 1.849151 0.240000
40.576172 0.227388 5.817562 0.120000
45.547592 -5.370774 6.459735 0.020000
38.765953 -9.413471 5.636997 0.020000
6.097293 -1.606597 1.175697 0.330000
18.545425 4.378650 1.015438 0.010000
11.020371 1.204633 0.803994 1.170000
13.317177 0.083294 0.840822 0.000000
12.873377 -1.285374 0.814575 0.310000
16.479372 -3.656861 0.850173 0.020000
6.284905 -1.671182 0.675942 0.810000
6.671969 2.739063 0.133341 0.080000
7.030056 2.060838 0.121754 0.050000
7.223340 1.369417 0.119688 0.100000
7.385779 0.722432 0.112707 0.030000
7.373718 0.047082 0.110165 0.040000
7.271194 -0.604997 0.107474 0.030000
7.113694 -1.258110 0.099635 0.030000
6.427629 -1.736480 0.136066 0.110000
50.106670 28.900682 8.484055 0.010000
43.620758 17.370333 6.814246 0.050000
57.102325 14.592444 8.364126 0.130000
11.167667 1.203695 1.829386 0.300000
36.894859 0.089188 5.172432 0.120000
46.097294 -5.594864 6.345336 0.010000
38.663620 -9.529828 5.466296 0.030000
6.077445 -1.611905 1.155625 0.310000
13.048798 6.514143 0.904027 0.020000
13.101908 4.529920 0.866789 0.020000
13.138218 2.900437 0.830827 0.010000
11.051032 1.175343 0.768965 0.440000
12.879259 -1.325104 0.769442 0.310000
6.295338 -1.690913 0.655895 0.420000
6.524118 2.626230 0.127535 0.080000
6.841912 1.962217 0.120896 0.060000
7.039524 1.305886 0.118972 0.110000
7.206580 0.678993 0.112078 0.030000
7.159046 0.027967 0.109534 0.040000
7.111128 -0.603062 0.107063 0.040000
6.913061 -1.226947 0.099227 0.040000
6.377678 -1.737382 0.120932 0.140000
50.206387 28.688417 8.248524 0.030000
43.620003 17.176001 6.618519 0.050000
57.191753 14.394984 8.128623 0.070000
11.178332 1.174022 1.794303 0.270000
36.852547 -0.031112 5.026874 0.140000
40.783298 -5.058480 5.498450 0.000000
38.475838 -9.622799 5.290458 0.030000
6.098055 -1.641461 1.140569 0.460000
13.015576 6.428694 0.848622 0.010000
14.755357 5.151788 0.848417 0.080000
19.125477 4.400258 0.882031 0.010000
15.194322 -0.000496 0.770409 0.000000
13.430852 -2.959590 0.699805 0.030000
6.300856 -1.715756 0.640817 0.900000
6.341548 2.497711 0.126581 0.080000
6.688474 1.879264 0.120188 0.060000
6.845806 1.237164 0.118211 0.120000
7.017382 0.635362 0.111422 0.030000
6.994364 0.009810 0.109037 0.040000
6.915973 -0.596798 0.106577 0.030000
6.762623 -1.204806 0.093916 0.040000
6.347914 -1.747899 0.105815 0.120000
50.692642 28.653402 8.064661 0.030000
43.505787 16.904589 6.392210 0.050000
57.197186 14.145943 7.882709 0.070000
11.218990 1.144924 1.759301 0.180000
36.745571 -0.167598 4.866085 0.280000
40.621193 -5.185946 5.317552 0.020000
38.840958 -9.870429 5.175489 0.020000
6.118582 -1.665998 1.120531 1.250000
13.036661 6.379272 0.798493 0.040000
14.726943 5.076432 0.793062 0.160000
13.140273 2.805790 0.740479 0.010000
11.157262 1.122643 0.694046 0.080000
13.279932 -0.041947 0.705257 0.010000
6.281103 -1.726063 0.620727 1.598000
6.223404 2.400449 0.120911 0.080000
6.515232 1.785930 0.119388 0.060000
6.691998 1.174225 0.112576 0.120000
6.858095 0.597323 0.105865 0.030000
6.814698 -0.008616 0.103499 0.040000
6.760920 -0.594749 0.101180 0.030000
6.556977 -1.173757 0.098495 0.040000
6.313056 -1.753513 0.090703 0.110000
48.929230 27.321283 7.540101 0.030000
43.658993 16.763140 6.217082 0.050000
57.232197 13.917435 7.646948 0.080000
11.229751 1.110252 1.724199 0.630000
36.743443 -0.297130 4.720596 0.250000
40.634594 -5.340112 5.152011 0.030000
39.070580 -10.090575 5.040269 0.020000
6.103912 -1.681227 1.105436 1.898000
13.043050 6.314585 0.743269 0.020000
14.698543 5.001094 0.732707 0.120000
13.161263 2.761367 0.690368 0.000000
11.148122 1.082589 0.658873 0.060000
15.011546 -0.103630 0.664548 0.010000
13.418032 -3.059487 0.599400 0.010000
6.286633 -1.750888 0.600649 1.553000
6.070528 2.287483 0.125092 0.070000
6.371709 1.708185 0.113725 0.050000
6.543080 1.116363 0.111972 0.100000
6.663789 0.558576 0.110214 0.030000
6.660015 -0.026581 0.103028 0.040000
6.605853 -0.592718 0.100783 0.030000
6.386435 -1.147019 0.098149 0.040000
6.147129 -1.706682 0.090444 0.120000
49.039616 27.074215 7.304468 0.010000
44.269264 16.770233 6.108700 0.040000
57.252888 13.653646 7.411019 0.080000
11.290502 1.076538 1.689232 1.466000
36.691704 -0.447616 4.574901 0.210000
12.659555 -1.488154 1.808273 0.010000
41.210510 -10.865132 5.152977 0.010000
6.099348 -1.701245 1.085350 2.254000
13.039522 6.244688 0.692999 0.040000
14.734625 4.951960 0.682618 0.070000
29.956562 6.823907 0.704311 0.030000
11.094086 1.036675 0.623560 0.100000
13.324342 -1.560961 0.589725 0.080000
13.414205 -3.114405 0.554185 0.010000
6.287165 -1.775809 0.580558 1.644000
5.927471 2.184725 0.124337 0.090000
6.218257 1.625214 0.118016 0.050000
6.379164 1.058213 0.111328 0.120000
6.524499 0.520920 0.104710 0.030000
6.480322 -0.045044 0.107491 0.050000
6.440788 -0.590879 0.100359 0.030000
6.246078 -1.129704 0.097847 0.040000
6.006388 -1.669371 0.090215 0.110000
51.197899 27.960541 7.358397 0.020000
44.413456 16.578638 5.923363 0.090000
57.238800 13.379226 7.164960 0.080000
35.569580 -0.573212 4.321502 0.350000
12.655523 -1.533092 1.768095 0.040000
39.776905 -10.646395 4.835044 0.020000
14.775814 4.897941 0.627524 0.040000
13.148499 2.656416 0.604944 0.010000
11.114843 1.002194 0.588486 0.090000
15.148999 -0.215632 0.559489 0.010000
6.287696 -1.800730 0.560466 1.598000
5.809218 2.092444 0.123685 0.070000
6.049905 1.536955 0.122248 0.050000
6.250147 1.005733 0.110796 0.100000
6.350190 0.482557 0.109112 0.030000
6.310546 -0.058298 0.106998 0.040000
6.290720 -0.588753 0.099975 0.030000
6.080520 -1.102888 0.102515 0.040000
5.870647 -1.631964 0.090000 0.110000
46.447075 24.947157 6.479785 0.060000
44.358986 16.318300 5.717250 0.080000
57.269402 13.120646 6.924076 0.080000
11.092703 0.973080 1.593331 0.250000
35.062675 -0.712229 4.124660 0.190000
12.646505 -1.578108 1.722904 0.070000
6.274154 -1.162673 1.052808 0.000000
6.115382 -1.750836 1.055207 0.430000
13.047478 6.105201 0.587500 0.010000
11.120713 0.962446 0.548353 0.100000
27.360115 -3.781593 0.358106 0.040000
13.451840 -3.238358 0.458821 0.020000
6.298321 -1.830459 0.540383 1.509000
5.690965 2.000163 0.123033 0.070000
5.936089 1.474783 0.116720 0.040000
6.086218 0.947565 0.115152 0.100000
6.210791 0.449881 0.108627 0.030000
6.185857 -0.075689 0.106608 0.040000
6.105454 -0.577318 0.104534 0.040000
5.985360 -1.094691 0.097297 0.050000
5.724799 -1.589768 0.094776 0.110000
46.750252 24.813709 6.270078 0.040000
44.493000 16.136532 5.526923 0.070000
57.275204 12.851589 6.683088 0.080000
11.158440 0.939443 1.563377 0.190000
35.130901 -0.860435 3.984286 0.240000
12.652593 -1.627817 1.672735 0.100000
39.910778 -11.062713 4.508843 0.020000
6.141183 -1.790294 1.040128 1.466000
13.078861 6.040992 0.532343 0.020000
14.833500 4.774446 0.512215 0.100000
13.165756 2.552077 0.509600 0.000000
11.141567 0.922967 0.513261 0.110000
14.871325 -0.325603 0.458354 0.010000
13.332759 -1.720333 0.454154 0.010000
13.402843 -3.284121 0.408523 0.010000
5.602336 1.928471 0.117535 0.080000
5.797539 1.397098 0.121070 0.040000
5.977018 0.905485 0.109711 0.100000
6.076391 0.417302 0.108155 0.030000
6.041075 -0.088464 0.106183 0.040000
6.005582 -0.584213 0.099247 0.040000
5.839908 -1.072472 0.097000 0.050000
5.619353 -1.566765 0.089587 0.130000
47.796356 25.044243 6.148664 0.040000
43.972607 15.667455 5.258818 0.030000
57.326584 12.553419 6.437112 0.050000
11.234283 0.901017 1.528432 0.250000
12.762531 -0.315388 1.652900 0.120000
11.515213 -1.494044 1.525262 0.100000
6.300185 -1.212074 1.022692 0.000000
6.106337 -1.795889 1.020016 1.953000
21.563541 10.599990 0.381436 0.020000
15.432601 3.010883 0.432222 0.000000
11.132441 0.882932 0.473088 0.100000
12.561365 -1.649966 0.417401 0.010000
13.414122 -3.343732 0.358330 0.010000
5.503792 1.851570 0.116992 0.070000
5.713526 1.345498 0.115658 0.040000
5.857890 0.858177 0.114224 0.090000
5.971985 0.385296 0.107764 0.030000
5.941381 -0.105376 0.105860 0.050000
5.885591 -0.586530 0.103926 0.050000
5.744830 -1.069293 0.096763 0.050000
5.518892 -1.543685 0.089410 0.130000
47.149952 24.367771 5.864460 0.030000
43.997780 15.423572 5.072975 0.130000
41.770424 8.801321 4.612539 0.080000
12.723615 -0.365977 1.607610 0.280000
11.496183 -1.539270 1.485043 0.150000
6.345983 -1.251148 1.007666 0.010000
6.096775 -1.816003 0.999916 2.388000
13.141411 5.922536 0.432065 0.040000
13.118102 4.006732 0.429882 0.040000
13.153197 2.437146 0.419139 0.000000
11.168387 0.838741 0.438017 0.100000
12.726869 -0.366478 0.397604 0.010000
11.634278 -1.547648 0.400361 0.030000
9.315461 -2.157275 0.422043 0.020000
5.425052 1.785051 0.116539 0.070000
5.609600 1.288497 0.115175 0.040000
5.758675 0.816269 0.113809 0.100000
5.872483 0.358386 0.107404 0.030000
5.831594 -0.117481 0.105528 0.050000
5.790622 -0.588331 0.098671 0.050000
5.644574 -1.056192 0.091550 0.060000
5.423431 -1.520509 0.089247 0.130000
47.305428 24.111437 5.663910 0.070000
44.037937 15.179957 4.892172 0.100000
41.973888 8.640666 4.482471 0.070000
12.644622 -0.412315 1.557231 0.310000
11.537321 -1.593363 1.449949 0.120000
6.326326 -1.266454 0.987558 0.020000
6.107387 -1.845750 0.984833 2.320000
17.484907 8.151701 0.291688 0.040000
19.085014 6.077071 0.263152 0.050000
15.540168 2.893326 0.322065 0.000000
11.214236 0.799740 0.402991 0.090000
12.662834 -0.412584 0.362265 0.020000
11.605142 -1.588085 0.365135 0.100000
9.190550 -2.159576 0.396708 0.040000
5.336410 1.713340 0.116041 0.080000
5.530573 1.236975 0.114777 0.030000
5.669458 0.774553 0.113421 0.100000
5.757983 0.331188 0.107004 0.030000
5.751909 -0.133992 0.100259 0.060000
5.695640 -0.590150 0.098416 0.040000
5.539293 -1.043224 0.096324 0.060000
5.353170 -1.506834 0.084114 0.130000
57.186733 28.983644 6.497824 0.040000
43.988400 14.919623 4.711073 0.060000
42.351540 8.523336 4.358020 0.090000
12.650683 -0.462061 1.517062 0.420000
11.503199 -1.633877 1.409709 0.150000
6.331843 -1.291298 0.972479 0.070000
6.133188 -1.885208 0.969753 1.010000
13.070217 5.736488 0.336186 0.050000
15.596437 2.834576 0.271993 0.000000
11.265085 0.760836 0.367979 0.060000
12.959251 -0.476735 0.312800 0.040000
11.571115 -1.633598 0.324876 0.110000
9.211596 -2.209053 0.361579 0.080000
11.222985 -4.335523 0.253923 0.380000
5.272393 1.662124 0.110684 0.060000
5.476267 1.200947 0.109502 0.030000
5.575147 0.737740 0.113038 0.100000
5.693488 0.304967 0.101738 0.030000
5.652106 -0.145924 0.104954 0.060000
5.610656 -0.591778 0.098188 0.050000
5.484316 -1.044259 0.091176 0.060000
5.247614 -1.478851 0.083943 0.130000
57.224239 28.625160 6.261587 0.050000
44.991505 15.039148 4.634135 0.030000
30.612879 5.897348 3.147605 0.050000
12.646734 -0.512017 1.481865 0.460000
11.494142 -1.678949 1.379518 0.170000
6.332361 -1.316237 0.957388 1.000000
6.103437 -1.895706 0.949636 0.770000
14.240542 6.264306 0.256203 0.060000
15.049805 4.484509 0.246699 0.060000
15.363707 2.720264 0.225960 0.010000
13.025506 -0.535312 0.267755 0.050000
12.831933 -1.914208 0.247123 0.090000
11.249619 -4.414880 0.213697 0.170000
5.213459 1.605985 0.110321 0.070000
5.392228 1.149310 0.114090 0.030000
5.530647 0.711902 0.107826 0.090000
5.603875 0.283228 0.106423 0.040000
5.582420 -0.162243 0.099711 0.060000
5.545776 -0.598003 0.092996 0.050000
5.389143 -1.036080 0.090958 0.050000
5.187447 -1.469983 0.078819 0.140000
29.397694 13.970117 3.279443 0.020000
30.031538 9.622056 3.109933 0.010000
30.700808 5.759374 3.047320 0.020000
12.692775 -0.561015 1.446803 0.360000
11.495095 -1.723810 1.344353 0.160000
6.317691 -1.331466 0.942293 1.000000
6.109050 -1.925549 0.934540 1.644000
13.177349 5.638852 0.246102 0.060000
13.128335 3.757508 0.258981 0.040000
14.373613 2.456292 0.212394 0.010000
13.041649 -0.589884 0.232594 0.050000
12.323728 -3.308967 0.180611 0.040000
5.154428 1.554846 0.109977 0.070000
5.332923 1.113186 0.108801 0.030000
5.446238 0.680280 0.107488 0.090000
5.549281 0.262198 0.101203 0.030000
5.507626 -0.173677 0.099474 0.060000
5.460793 -0.599631 0.092768 0.040000
5.329071 -1.032212 0.085816 0.060000
5.107066 -1.451538 0.083678 0.130000
29.470842 13.821895 3.169082 0.010000
16.756754 4.956380 1.862925 0.020000
30.689028 5.604470 2.951713 0.050000
31.283384 1.995343 2.904847 0.020000
12.758991 -0.619647 1.416757 0.300000
11.526221 -1.778113 1.314232 0.140000
6.293118 -1.351885 0.927153 0.570000
6.089476 -1.945872 0.919413 2.254000
12.475472 5.210390 0.227677 0.070000
12.920944 3.623622 0.227942 0.060000
11.420085 1.819340 0.277317 0.010000
13.027700 -0.640031 0.197370 0.030000
12.618293 -1.978072 0.181328 0.050000
11.700804 -3.160834 0.169536 0.040000
10.893582 -4.356487 0.157984 0.080000
5.110216 1.514010 0.104710 0.060000
5.278604 1.077139 0.108526 0.030000
5.361816 0.648639 0.112150 0.120000
5.489593 0.246070 0.095987 0.030000
5.442830 -0.184920 0.099263 0.060000
5.390902 -0.605971 0.092562 0.040000
5.248894 -1.023746 0.085638 0.070000
5.051898 -1.442574 0.078567 0.130000
29.499561 13.642798 3.063490 0.020000
30.716871 5.470346 2.851286 0.130000
31.276234 1.860549 2.804327 0.100000
11.592424 -1.836764 1.289187 0.110000
6.278461 -1.367095 0.907058 0.550000
6.110182 -1.980427 0.904338 2.191000
11.946743 4.880260 0.210070 0.070000
12.529614 3.431167 0.206204 0.060000
11.236705 1.735886 0.256528 0.040000
12.857391 0.682014 0.181840 0.010000
11.996779 -1.904962 0.179977 0.050000
11.198516 -3.045415 0.163654 0.040000
10.470512 -4.199543 0.152463 0.070000
5.060991 1.473060 0.104429 0.070000
5.239199 1.046398 0.103308 0.020000
5.337230 0.628201 0.102010 0.100000
5.414977 0.224619 0.100712 0.030000
5.388044 -0.195953 0.094079 0.040000
5.310821 -0.602504 0.092366 0.050000
5.188810 -1.019896 0.085496 0.090000
5.011918 -1.443322 0.073460 0.150000
29.537868 13.483851 2.967998 0.060000
31.263950 1.730603 2.718811 0.090000
12.030003 -0.663195 1.299691 0.490000
11.623442 -1.886087 1.264084 0.090000
6.304057 -1.396574 0.897015 0.510000
6.100498 -1.995578 0.894257 2.129000
11.402895 4.554805 0.202440 0.080000
12.048455 3.226934 0.199189 0.060000
11.197640 1.690222 0.231256 1.000000
12.348745 0.607278 0.175235 0.010000
12.103213 -0.672669 0.174836 0.020000
11.515841 -1.859128 0.168892 0.050000
10.781594 -2.948364 0.157926 0.040000
10.092722 -4.056735 0.147008 0.070000
5.041583 1.442701 0.099266 0.070000
5.194782 1.015541 0.103078 0.030000
5.287718 0.602248 0.101784 0.050000
5.390282 0.209161 0.095590 0.010000
5.313141 -0.202407 0.098859 0.040000
5.265925 -0.608365 0.092227 0.050000
5.138819 -1.020854 0.085362 0.080000
4.946534 -1.424589 0.078359 0.160000
29.521351 13.313817 2.882322 0.140000
16.527964 4.652531 1.701197 0.010000
31.326612 1.602036 2.648495 0.130000
11.935782 -0.699877 1.264309 0.450000
6.294468 -1.416724 0.886915 0.410000
11.007677 4.302210 0.195470 0.070000
11.597098 3.033274 0.192291 0.060000
11.178558 1.644922 0.211038 0.160000
11.884995 0.538402 0.168768 0.010000
11.658310 -0.681173 0.168643 0.020000
11.094867 -1.812182 0.167968 0.050000
6.728932 -1.571488 0.357468 0.040000
9.810788 -3.957080 0.136642 0.070000
4.997262 1.406846 0.099017 0.070000
5.130452 0.979285 0.107775 0.030000
5.248109 0.581486 0.101603 0.040000
5.315680 0.187729 0.095316 0.020000
5.278339 -0.213075 0.098729 0.040000
5.205923 -0.609532 0.097066 0.060000
5.073627 -1.012119 0.090224 0.080000
4.916648 -1.430144 0.073260 0.130000
29.504847 13.143801 2.791646 0.140000
16.435015 4.550898 1.655576 0.040000
31.329025 1.487356 2.568075 0.120000
11.916522 -0.735161 1.239127 0.630000
32.454464 -6.352457 2.536869 0.070000
6.294781 -1.431684 0.876860 0.300000
6.116614 -2.050187 0.869096 0.330000
10.676585 4.095851 0.188838 0.080000
11.250064 2.876637 0.180803 0.060000
11.169392 1.604831 0.185865 0.120000
11.536045 0.481746 0.157646 0.010000
11.283488 -0.693335 0.162619 0.020000
10.754177 -1.778683 0.162203 0.050000
6.704250 -1.586926 0.347346 0.130000
9.498368 -3.833023 0.131288 0.070000
4.952928 1.370972 0.103768 0.080000
5.105853 0.958828 0.102635 0.030000
5.188503 0.560341 0.101369 0.040000
5.290876 0.177252 0.095212 0.010000
5.223541 -0.224127 0.098544 0.040000
5.156028 -0.615489 0.096913 0.060000
5.043741 -1.017674 0.085125 0.080000
4.871465 -1.421008 0.073176 0.150000
29.542801 12.999759 2.721209 0.160000
80.358559 13.531855 5.910863 0.110000
31.356462 1.368062 2.512702 0.130000
11.887346 -0.775653 1.218900 0.680000
6.285192 -1.451835 0.866760 0.610000
6.096836 -2.060531 0.859005 0.560000
10.404811 3.925634 0.182496 0.080000
10.952528 2.745934 0.174540 0.060000
11.206873 0.435433 0.156615 0.010000
10.973559 -0.699254 0.156788 0.020000
10.473667 -1.754032 0.156562 0.050000
6.664380 -1.592654 0.337221 0.120000
9.246594 -3.742829 0.130966 0.070000
4.943326 1.350803 0.098668 0.080000
5.076242 0.938258 0.102481 0.030000
5.178806 0.545171 0.096287 0.040000
5.241172 0.161297 0.095023 0.010000
5.173646 -0.230083 0.098392 0.040000
5.136141 -0.620852 0.091842 0.080000
5.003653 -1.013441 0.085036 0.120000
4.836376 -1.416679 0.073101 0.130000
29.575264 12.880598 2.655850 0.100000
17.452587 2.605189 1.610999 0.000000
31.358644 1.263323 2.447318 0.120000
11.872989 -0.805842 1.193750 0.750000
13.349017 -2.423171 1.276592 0.020000
6.270413 -1.462083 0.856683 0.590000
6.107421 -2.090316 0.853922 1.120000
10.187548 3.781466 0.176393 0.080000
10.689781 2.625881 0.173408 0.070000
10.901698 1.484756 0.164719 0.040000
10.967793 0.385864 0.150807 0.010000
10.718812 -0.714117 0.151068 0.020000
10.268432 -1.742942 0.151068 0.060000
9.045304 -3.676654 0.125686 0.070000
4.913907 1.320234 0.098477 0.070000
5.061641 0.917993 0.097367 0.030000
5.149099 0.529599 0.096152 0.040000
5.211370 0.150725 0.094906 0.010000
5.173851 -0.240063 0.093355 0.040000
5.091245 -0.626713 0.091703 0.080000
4.978766 -1.018900 0.079951 0.180000
4.791193 -1.407543 0.073017 0.130000
13.251958 1.855653 1.312245 0.000000
31.380796 1.158931 2.391987 0.120000
11.888792 -0.845491 1.178644 0.750000
13.334851 -2.463358 1.251405 0.020000
6.290915 -1.486658 0.846645 0.480000
6.097737 -2.105467 0.843841 1.230000
9.990089 3.647679 0.170380 0.090000
10.486570 2.532009 0.162529 0.060000
10.783416 0.352346 0.145201 0.010000
10.518945 -0.722946 0.150513 0.020000
10.103284 -1.736086 0.145662 0.050000
9.541526 -2.691977 0.130642 0.060000
8.863997 -3.610115 0.125461 0.060000
4.884391 1.294665 0.098305 0.080000
5.036933 0.902517 0.097245 0.020000
5.134389 0.514315 0.096057 0.030000
5.176568 0.140056 0.094776 0.010000
5.139049 -0.250731 0.093225 0.040000
5.066345 -0.632191 0.091617 0.080000
4.943760 -1.019589 0.084857 0.150000
4.781399 -1.417714 0.067953 0.130000
29.565933 12.600792 2.539784 0.110000
13.203686 3.329970 1.322599 0.010000
11.268992 1.488087 1.175701 0.010000
13.219762 0.409927 1.266786 0.030000
11.869505 -0.880812 1.163462 0.670000
13.365856 -2.512699 1.231302 0.020000
6.291311 -1.506636 0.841572 0.390000
6.093051 -2.120523 0.833772 1.466000
9.812340 3.529273 0.164476 0.080000
10.298330 2.438387 0.161689 0.060000
10.533915 1.367747 0.148324 0.020000
10.554130 0.312947 0.144456 0.010000
10.359276 -0.740989 0.145029 0.020000
9.933137 -1.729325 0.140243 0.060000
9.355794 -2.655527 0.130293 0.050000
8.697973 -3.558285 0.125220 0.070000
4.859779 1.274190 0.098165 0.080000
5.012321 0.882042 0.097105 0.020000
5.099683 0.498647 0.095908 0.040000
5.146861 0.124485 0.094640 0.010000
5.109150 -0.256305 0.093126 0.040000
5.031352 -0.632861 0.091523 0.070000
4.928872 -1.024857 0.079799 0.160000
4.746201 -1.408405 0.072896 0.110000
29.697475 12.528481 2.489859 0.020000
13.144912 3.268926 1.297219 0.030000
11.214822 1.447116 1.155407 0.040000
13.235564 0.370278 1.251680 0.070000
11.890211 -0.915367 1.148388 0.680000
6.266424 -1.512095 0.836487 0.660000
6.078354 -2.135789 0.828677 2.069000
9.689088 3.436896 0.163811 0.080000
10.144796 2.360433 0.160999 0.070000
10.374985 1.309674 0.152693 0.020000
10.419838 0.275387 0.138966 0.010000
10.204605 -0.758936 0.139559 0.020000
9.813268 -1.736603 0.134903 0.050000
9.165063 -2.619174 0.129930 0.050000
8.547043 -3.511167 0.125001 0.060000
4.860080 1.259211 0.093110 0.080000
4.977793 0.856358 0.101920 0.020000
5.065060 0.477962 0.100741 0.040000
5.127056 0.114103 0.094550 0.010000
5.084347 -0.266782 0.093023 0.040000
5.006453 -0.638339 0.091438 0.080000
4.908971 -1.030239 0.079727 0.200000
4.731409 -1.418671 0.067819 0.120000
13.068213 4.917620 1.338148 0.010000
13.126009 3.213609 1.281963 0.050000
13.251367 0.330629 1.236573 0.030000
17.034384 -3.468215 1.402328 0.010000
6.292103 -1.546591 0.831425 0.350000
6.078751 -2.155766 0.823604 0.880000
9.580737 3.349805 0.163204 0.070000
10.036076 2.293357 0.155465 0.060000
10.270976 1.257692 0.147229 0.020000
10.275440 0.242616 0.138467 0.010000
10.089914 -0.776136 0.139196 0.020000
9.708384 -1.743613 0.134603 0.050000
9.074984 -2.615898 0.129707 0.050000
8.411206 -3.468761 0.124804 0.060000
4.850465 1.239023 0.093010 0.080000
4.987900 0.851569 0.096928 0.010000
5.065264 0.467983 0.095704 0.040000
5.127248 0.104105 0.094513 0.010000
5.059543 -0.277259 0.092919 0.040000
4.991647 -0.648625 0.091361 0.080000
4.904177 -1.040314 0.074677 0.120000
4.696210 -1.409362 0.072762 0.110000
13.074292 4.862763 1.327959 0.010000
13.116982 3.163445 1.276753 0.050000
11.211299 1.372090 1.140119 0.100000
13.024002 -1.108852 1.195628 0.680000
13.373616 -2.652466 1.200803 0.020000
9.517090 3.278574 0.162773 0.080000
9.991946 2.247504 0.155180 0.050000
10.226655 1.221836 0.146980 0.020000
10.251116 0.207144 0.138271 0.010000
10.075492 -0.806417 0.139045 0.020000
9.668775 -1.764376 0.134423 0.050000
9.065574 -2.646065 0.124570 0.060000
8.381691 -3.494331 0.124632 0.060000
4.855656 1.229121 0.092986 0.080000
4.968274 0.831171 0.101801 0.020000
5.060457 0.457889 0.095654 0.030000
5.112538 0.088821 0.094418 0.010000
5.054723 -0.287371 0.097869 0.040000
4.991934 -0.663622 0.091306 0.060000
4.879264 -1.045810 0.079591 0.080000
4.691499 -1.424455 0.072693 0.110000
16.139746 6.146001 1.530733 0.020000
13.103051 3.108187 1.271512 0.040000
11.137188 1.325681 1.134753 0.060000
13.243011 0.245472 1.231235 0.030000
12.999869 -1.154322 1.195396 0.690000
6.262588 -1.572161 0.831253 0.080000
10.156832 2.255682 0.150641 0.060000
10.401922 1.210209 0.142394 0.020000
10.391677 0.179849 0.133537 0.010000
10.196331 -0.849110 0.139202 0.020000
9.784889 -1.822180 0.139511 0.050000
9.101499 -2.695423 0.134481 0.140000
8.539057 -3.616339 0.124589 0.050000
4.880733 1.224582 0.098035 0.090000
5.023277 0.832243 0.096949 0.020000
5.085631 0.448351 0.100684 0.030000
5.142724 0.079397 0.094462 0.010000
5.080005 -0.301890 0.097881 0.030000
5.017217 -0.678140 0.091318 0.060000
4.889536 -1.060635 0.084563 0.110000
4.706880 -1.444164 0.072660 0.110000
11.127712 1.295421 1.154616 0.320000
13.238604 0.210271 1.261093 0.020000
13.015363 -1.184141 1.225326 0.670000
13.400231 -2.742118 1.240540 0.010000
6.237662 -1.577676 0.841168 0.070000
9.979499 3.417436 0.169496 0.070000
10.520314 2.337639 0.156894 0.060000
10.716467 1.236220 0.148312 0.020000
10.711974 0.165944 0.144321 0.010000
10.492400 -0.903486 0.149773 0.020000
10.066645 -1.911819 0.144913 0.050000
9.111828 -2.715302 0.154434 0.170000
8.792171 -3.776520 0.124654 0.060000
4.935436 1.240633 0.098237 0.090000
5.058162 0.837894 0.102061 0.010000
5.145619 0.449500 0.100845 0.040000
5.207808 0.075643 0.094618 0.020000
5.140186 -0.310739 0.098005 0.040000
5.082684 -0.701891 0.091401 0.060000
4.945101 -1.089576 0.084600 0.090000
4.757637 -1.483199 0.072648 0.110000
16.329546 6.144269 1.631223 0.010000
30.317696 7.824492 2.483991 0.020000
11.053031 1.273877 1.184341 0.700000
13.025544 -1.199095 1.265298 0.490000
13.365243 -2.747918 1.275427 0.010000
6.247813 -1.587538 0.856158 0.070000
10.470753 3.616861 0.176520 0.060000
11.012992 2.462060 0.168643 0.060000
10.985886 1.266311 0.169127 0.060000
11.182065 0.164929 0.150545 0.010000
10.928455 -0.955163 0.155719 0.020000
10.418468 -2.005134 0.155485 0.050000
9.106847 -2.720508 0.184402 0.260000
9.105824 -3.965583 0.134770 0.050000
4.980140 1.256492 0.098413 0.100000
5.137872 0.854441 0.097330 0.020000
5.200513 0.455552 0.101011 0.040000
5.277891 0.071985 0.094787 0.010000
5.205365 -0.319492 0.098143 0.050000
5.142960 -0.715739 0.091507 0.060000
5.000570 -1.113518 0.084656 0.100000
4.823295 -1.516947 0.072694 0.130000
16.379175 6.154984 1.696393 0.020000
30.342583 7.814545 2.599020 0.180000
11.043051 1.268575 1.214295 0.970000
31.508495 0.475688 2.544782 0.060000
12.975367 -1.195184 1.300182 0.440000
6.227682 -1.582978 0.871122 0.060000
10.937012 3.815807 0.183477 0.060000
11.000792 1.266469 0.204167 0.110000
11.716952 0.175156 0.156979 0.010000
11.459684 -1.015018 0.161883 0.020000
10.935946 -2.130264 0.161370 0.040000
9.111780 -2.720505 0.209415 0.330000
9.571008 -4.231720 0.134995 0.050000
5.039637 1.282617 0.103666 0.090000
5.197561 0.870569 0.102546 0.030000
5.275308 0.466987 0.101249 0.030000
5.327868 0.072924 0.099921 0.020000
5.325752 -0.337153 0.088391 0.160000
5.208331 -0.734490 0.091608 0.080000
5.071036 -1.137172 0.084752 0.100000
4.858755 -1.541291 0.077696 0.120000
29.673763 11.891668 2.827433 0.120000
30.322491 7.803755 2.708929 0.250000
11.037960 1.268349 1.249282 0.950000
31.513317 0.470394 2.649776 0.050000
13.025431 -1.204391 1.345279 0.360000
6.212549 -1.578322 0.886100 0.080000
12.147279 2.768783 0.187744 0.060000
10.965802 1.260669 0.239054 0.090000
12.061188 -1.088529 0.168180 0.020000
11.448521 -2.260488 0.167224 0.050000
9.116796 -2.725520 0.239410 0.380000
10.046368 -4.507684 0.140210 0.060000
5.114048 1.314048 0.103977 0.100000
5.252263 0.886620 0.102749 0.030000
5.340200 0.473231 0.101441 0.040000
5.422863 0.074762 0.095176 0.030000
5.290611 -0.332898 0.108315 0.320000
5.288699 -0.752954 0.091749 0.080000
5.126504 -1.161114 0.084808 0.080000
4.939602 -1.584750 0.077745 0.110000
29.653549 11.885840 2.947360 0.170000
30.312206 7.803154 2.818901 0.250000
11.042868 1.268315 1.284295 0.930000
31.513016 0.469966 2.764775 0.020000
13.065415 -1.208773 1.385367 0.700000
17.173143 -3.701607 1.676826 0.000000
6.262871 -1.597435 0.906161 0.250000
12.201661 4.365051 0.208820 0.060000
10.990623 1.266035 0.269139 0.080000
13.111748 0.196818 0.175700 0.010000
12.802761 -1.164359 0.174834 0.020000
12.086550 -2.413314 0.173322 0.050000
9.111527 -2.715729 0.269433 0.230000
10.379908 -4.691383 0.155398 0.050000
5.178557 1.340288 0.104243 0.110000
5.331865 0.908148 0.103036 0.030000
5.434895 0.490047 0.101751 0.060000
5.497754 0.081197 0.095395 0.030000
5.440909 -0.344967 0.093663 0.190000
5.384078 -0.771112 0.086930 0.050000
5.181864 -1.180076 0.089882 0.110000
5.000261 -1.618594 0.077778 0.120000
29.657482 11.925501 3.062519 0.050000
30.331244 7.838122 2.929082 0.050000
11.037695 1.273106 1.314299 0.990000
31.492279 0.494207 2.864812 0.010000
13.055120 -1.199115 1.425376 0.700000
17.313427 -3.724163 1.742109 0.000000
6.207267 -1.568549 0.921123 0.530000
55.436810 -30.595226 4.861765 0.120000
13.713980 3.213793 0.213488 0.050000
11.050234 1.282051 0.304355 0.280000
14.016470 0.219130 0.183145 0.010000
12.955495 -2.611726 0.179852 0.050000
9.131459 -2.715439 0.294486 0.300000
10.900451 -4.976483 0.160697 0.050000
5.252872 1.376718 0.104572 0.110000
5.406372 0.934579 0.103329 0.030000
5.494692 0.501194 0.101949 0.080000
5.572740 0.082633 0.095596 0.030000
5.531084 -0.353241 0.093867 0.110000
5.469445 -0.789481 0.087085 0.050000
5.262424 -1.208538 0.089987 0.080000
5.055826 -1.647535 0.077815 0.090000
29.606998 11.934114 3.177420 0.020000
30.300566 7.857116 3.044074 0.020000
11.037412 1.282974 1.349336 0.910000
31.481516 0.518602 2.974876 0.010000
13.054825 -1.189266 1.465413 0.650000
17.458694 -3.746641 1.812405 0.000000
6.202133 -1.563702 0.936128 0.590000
55.480301 -30.550283 5.107048 0.090000
14.358696 5.321494 0.228006 0.020000
11.005151 1.281060 0.339234 0.240000
13.112890 -1.178697 0.250591 0.020000
13.176320 -2.657633 0.215259 0.030000
9.136284 -2.710456 0.324518 0.220000
5.322271 1.408034 0.109870 0.090000
5.490877 0.961203 0.103649 0.030000
5.574377 0.517705 0.107218 0.080000
5.662627 0.089356 0.095856 0.030000
5.591156 -0.357110 0.099010 0.090000
5.549718 -0.802946 0.087244 0.040000
5.342984 -1.237000 0.090091 0.070000
5.111281 -1.671496 0.082871 0.120000
43.493988 18.025978 4.646329 0.050000
49.958057 13.397894 4.936001 0.090000
11.022144 1.292574 1.379332 0.750000
35.274052 0.624732 3.400174 0.050000
13.059527 -1.179321 1.505462 0.640000
17.664131 -3.777987 1.887825 0.000000
6.217092 -1.563470 0.951168 0.580000
55.624577 -30.543364 5.337453 0.030000
14.963330 5.603014 0.260631 0.040000
10.979885 1.290467 0.369203 0.140000
13.351771 -2.684406 0.250617 0.030000
11.329417 -5.188543 0.226029 0.100000
5.391491 1.449367 0.110204 0.120000
5.560467 0.982521 0.108910 0.030000
5.674083 0.534636 0.102541 0.070000
5.727506 0.095581 0.101048 0.040000
5.681234 -0.360385 0.099233 0.090000
5.635085 -0.821314 0.087399 0.040000
5.408342 -1.255770 0.095192 0.080000
5.202127 -1.714764 0.082947 0.110000
43.595943 18.157202 4.852086 0.070000
49.960987 13.477213 5.141306 0.160000
11.146512 1.319777 1.429758 0.650000
35.137863 0.666636 3.534976 0.040000
13.104101 -1.163648 1.555637 0.610000
17.859365 -3.799546 1.968256 0.000000
6.181675 -1.544200 0.966147 0.830000
48.509556 -26.377405 4.929363 0.020000
17.125006 6.579586 0.269904 0.020000
13.125793 3.091938 0.366501 0.010000
11.019403 1.311100 0.404383 0.120000
18.989594 0.364417 0.191666 0.000000
13.142210 -1.153406 0.325762 0.020000
13.361281 -2.664367 0.290717 0.050000
9.080288 -2.666722 0.379535 0.090000
11.288458 -5.144467 0.266087 0.140000
5.470806 1.485893 0.110547 0.110000
5.654779 1.019333 0.109293 0.030000
5.738770 0.550859 0.107770 0.080000
5.822392 0.102400 0.101321 0.030000
5.781312 -0.363469 0.099482 0.080000
5.690145 -0.825297 0.097528 0.040000
5.503912 -1.283926 0.090337 0.070000
5.277783 -1.748321 0.083020 0.100000
45.423180 19.051035 5.220181 0.060000
49.983654 13.571949 5.336720 0.070000
11.151133 1.334740 1.464826 0.770000
34.861816 0.706026 3.624403 0.040000
13.118803 -1.153511 1.595714 0.570000
6.201620 -1.543892 0.986201 0.640000
48.330467 -26.191481 5.114588 0.050000
13.082459 4.826286 0.407836 0.040000
13.175104 3.122741 0.406745 0.030000
11.039021 1.326349 0.439492 0.120000
13.324927 0.265161 0.381513 0.010000
13.161801 -1.138193 0.370871 0.010000
13.365876 -2.649441 0.335785 0.030000
6.439701 -1.632514 0.486488 0.150000
11.292956 -5.124542 0.311173 0.260000
5.569829 1.537798 0.110998 0.110000
5.719370 1.040556 0.114540 0.030000
5.848367 0.572962 0.108139 0.090000
5.932276 0.109506 0.101635 0.030000
5.856380 -0.367051 0.104665 0.070000
5.775416 -0.838666 0.097701 0.040000
5.589362 -1.307312 0.095473 0.080000
5.368629 -1.791588 0.083096 0.110000
50.868626 21.577873 6.033797 0.090000
57.185986 15.736876 6.288577 0.060000
34.720299 0.767905 3.739264 0.060000
13.158378 -1.137933 1.645876 0.520000
6.196390 -1.534045 1.001224 0.370000
48.352409 -26.061827 5.330130 0.060000
13.076851 4.851000 0.457913 0.030000
13.119697 3.136499 0.456652 0.060000
10.988748 1.335260 0.474394 0.080000
13.186309 -1.117867 0.411010 0.010000
6.449455 -1.622399 0.506551 0.400000
11.277184 -5.089984 0.351261 0.160000
5.663949 1.584609 0.111418 0.100000
5.838582 1.082846 0.115009 0.030000
5.957963 0.595065 0.108507 0.080000
6.022054 0.121209 0.106913 0.030000
5.981562 -0.374636 0.099964 0.070000
5.880780 -0.856651 0.097909 0.040000
5.710119 -1.344988 0.090648 0.080000
5.454366 -1.829972 0.088177 0.110000
50.860683 21.701973 6.244240 0.120000
57.247608 15.882257 6.514281 0.070000
11.150183 1.374472 1.534972 0.420000
35.533352 0.847721 3.951686 0.020000
13.112803 -1.113949 1.685846 0.390000
6.033142 -2.152372 1.023499 0.000000
14.707585 5.607273 0.489982 0.130000
11.023170 1.360795 0.509579 0.110000
13.268867 0.308802 0.461530 0.010000
13.240893 -1.101983 0.456212 0.020000
25.225508 -5.372352 0.236619 0.030000
6.429024 -1.602860 0.526570 0.610000
5.752961 1.636304 0.116842 0.120000
5.957793 1.125137 0.115477 0.040000
6.062464 0.622071 0.108880 0.090000
6.156851 0.133811 0.102311 0.030000
6.086529 -0.372644 0.105245 0.060000
6.006139 -0.874254 0.098171 0.040000
5.805664 -1.373181 0.095793 0.070000
5.555210 -1.873048 0.088281 0.100000
50.901817 21.871948 6.474982 0.070000
48.205395 13.406342 5.746466 0.100000
11.154695 1.394415 1.575058 0.520000
35.396626 0.919675 4.071598 0.070000
13.087128 -1.084582 1.725889 0.350000
44.971355 -10.067342 4.995758 0.020000
6.170742 -1.504641 1.031266 0.090000
6.022721 -2.132623 1.038546 0.000000
17.241577 4.375494 0.517018 0.050000
11.077590 1.386714 0.544818 0.160000
13.290383 -1.081197 0.501419 0.030000
13.384069 -2.574593 0.476112 0.040000
6.363217 -1.564187 0.546543 1.060000
5.886595 1.708877 0.117461 0.110000
6.086906 1.172618 0.115990 0.040000
6.226859 0.655225 0.109432 0.090000
6.266625 0.145897 0.107643 0.030000
6.221695 -0.380056 0.105570 0.060000
6.116489 -0.892162 0.103392 0.040000
5.911219 -1.401165 0.095964 0.060000
5.681349 -1.930624 0.083396 0.110000
46.337963 19.985327 6.151052 0.060000
48.331596 13.572926 5.982418 0.040000
11.139210 1.413975 1.615091 0.530000
35.244797 0.996322 4.196487 0.050000
13.131605 -1.063910 1.776082 0.340000
44.913486 -9.944106 5.181067 0.020000
6.175497 -1.494622 1.051316 0.090000
6.088109 -2.156485 1.068628 1.000000
13.099346 4.960900 0.608382 0.020000
13.142602 3.226441 0.597047 0.030000
11.017209 1.400413 0.584712 0.090000
29.926121 0.873006 0.482107 0.000000
11.921950 -0.922578 0.553438 0.050000
13.348179 -2.535457 0.526165 0.030000
6.378067 -1.558975 0.566601 1.000000
6.050044 1.792040 0.113197 0.120000
6.255738 1.235881 0.111666 0.040000
6.346357 0.682519 0.109846 0.090000
6.456316 0.164551 0.103207 0.040000
6.371776 -0.382164 0.100954 0.060000
6.282046 -0.918978 0.098724 0.040000
6.052055 -1.443475 0.096174 0.060000
5.771990 -1.963912 0.088509 0.090000
45.764236 19.893810 6.289216 0.090000
57.216389 16.364031 7.255998 0.030000
11.123655 1.438572 1.645142 0.400000
35.382462 1.098427 4.347228 0.050000
44.865261 -9.800647 5.356476 0.010000
6.160077 -1.474968 1.066349 0.170000
6.062513 -2.127007 1.078671 1.000000
13.093464 5.000629 0.653515 0.020000
16.771887 4.335997 0.650646 0.080000
11.051440 1.435947 0.619933 0.120000
30.853878 0.985446 0.579948 0.020000
11.871089 -0.883692 0.593450 0.070000
6.357552 -1.534419 0.581639 0.870000
6.230237 -2.196956 0.573843 0.010000
6.198496 1.874916 0.108892 0.130000
6.394658 1.293552 0.112243 0.040000
6.535472 0.731168 0.105520 0.080000
6.610999 0.182517 0.103678 0.040000
6.566944 -0.388409 0.096440 0.050000
6.442495 -0.940909 0.099062 0.030000
6.187700 -1.475883 0.096408 0.050000
5.938492 -2.040737 0.088658 0.100000
45.631248 20.020552 6.489342 0.050000
47.618690 13.673117 6.300932 0.050000
11.147862 1.473877 1.690337 0.260000
44.378113 1.506472 5.547238 0.020000
44.882584 -9.685954 5.536949 0.010000
6.154738 -1.460141 1.086391 0.250000
6.046985 -2.102373 1.098722 1.000000
14.777947 5.817814 0.720950 0.140000
16.671354 4.353836 0.715451 0.070000
11.155563 1.477820 0.655361 0.180000
13.251087 0.427804 0.646928 0.000000
11.885503 -0.858558 0.633581 0.090000
18.172945 -3.533543 0.620049 0.010000
6.372305 -1.524208 0.601715 0.740000
6.234897 -2.181937 0.593912 0.020000
6.341827 1.962658 0.114593 0.120000
6.558477 1.356700 0.112906 0.040000
6.679871 0.763939 0.106019 0.110000
6.780693 0.200789 0.099189 0.040000
6.701906 -0.385842 0.101802 0.050000
6.592850 -0.958032 0.099391 0.030000
6.353627 -1.522713 0.096667 0.050000
6.099816 -2.107641 0.083830 0.080000
45.290154 20.053476 6.638576 0.060000
47.843472 13.916658 6.522427 0.150000
57.333515 2.153506 7.273479 0.050000
6.164410 -1.445008 1.101472 0.260000
5.985916 -2.048570 1.108763 0.560000
14.796459 5.887980 0.776260 0.100000
13.140046 3.340917 0.732468 0.030000
11.209695 1.518736 0.690655 0.100000
31.479233 1.201617 0.812387 0.000000
14.830091 -1.077387 0.690455 0.440000
13.375713 -2.425405 0.661647 0.030000
6.351791 -1.499651 0.616753 0.820000
6.239460 -2.161919 0.613998 0.090000
6.490170 2.050515 0.115306 0.130000
6.702301 1.419466 0.113514 0.050000
6.858975 0.812377 0.106667 0.120000
6.950278 0.224040 0.099718 0.040000
6.846879 -0.383065 0.102191 0.060000
6.748205 -0.975060 0.099733 0.040000
6.514460 -1.564641 0.096931 0.060000
6.271222 -2.179371 0.084011 0.090000
44.720734 19.997011 6.786880 0.070000
45.607876 13.413993 6.449722 0.050000
57.264587 2.326392 7.498944 0.110000
12.066870 -0.834462 1.829157 0.100000
6.148990 -1.425355 1.116505 0.120000
5.995670 -2.038455 1.128826 0.320000
14.790345 5.937652 0.836429 0.220000
16.136908 4.303152 0.833868 0.060000
11.233915 1.554059 0.730850 0.120000
13.279409 0.503029 0.737282 0.000000
14.814198 -1.037868 0.740560 0.250000
18.788052 -3.552261 0.756587 0.010000
6.198554 -2.117768 0.634056 0.150000
6.603795 2.122685 0.120871 0.140000
6.895840 1.498205 0.109312 0.050000
7.028080 0.860625 0.107287 0.120000
7.104853 0.246987 0.105207 0.040000
7.056839 -0.379044 0.102754 0.060000
6.873360 -0.982683 0.105031 0.040000
6.554221 -1.553932 0.112075 0.040000
6.412250 -2.231679 0.084184 0.110000
41.485493 18.710777 6.513652 0.090000
45.096401 13.468748 6.573591 0.030000
57.279575 2.555876 7.729838 0.020000
6.168743 -1.415048 1.136595 0.090000
5.985058 -2.008708 1.143909 0.260000
14.892870 6.059416 0.897150 0.110000
16.026209 4.330835 0.888683 0.050000
11.218143 1.588616 0.770938 0.080000
12.063432 -0.765574 0.754393 0.140000
13.353745 -2.336159 0.756922 0.020000
6.406293 -1.478750 0.656974 0.840000
6.167754 -2.078406 0.649122 0.190000
6.821372 2.251893 0.116920 0.120000
7.064454 1.571429 0.115025 0.050000
7.217074 0.914235 0.112980 0.130000
7.324237 0.281194 0.105906 0.040000
7.226808 -0.375788 0.103210 0.060000
7.078800 -1.003752 0.105489 0.040000
6.533585 -1.524414 0.137131 0.130000
6.573356 -2.288622 0.089393 0.100000
44.041397 20.172876 7.100764 0.070000
46.080856 13.981464 6.913071 0.080000
11.959995 -0.746732 1.894204 0.070000
6.138134 -1.385684 1.151625 0.080000
5.989731 -1.993671 1.158977 0.270000
15.965215 4.374473 0.943686 0.040000
13.242565 0.587027 0.822499 0.000000
12.097650 -0.730059 0.794614 0.110000
19.502911 -3.559122 0.908429 0.040000
6.345499 -1.439963 0.671959 0.820000
6.238071 -2.097136 0.669236 0.600000
6.974509 2.349825 0.122683 0.120000
7.262884 1.655244 0.115854 0.050000
7.401082 0.967769 0.113659 0.120000
7.503724 0.309637 0.106481 0.030000
7.461764 -0.371287 0.103840 0.050000
7.279242 -1.024917 0.105934 0.040000
6.573456 -1.518686 0.147256 0.100000
6.769866 -2.364854 0.084623 0.110000
41.223125 19.044546 6.859211 0.080000
44.814228 13.792136 6.919061 0.080000
41.442745 7.154034 6.165576 0.110000
6.162886 -1.375282 1.171728 0.050000
5.974120 -1.964020 1.174047 0.340000
13.086440 5.324434 0.959704 0.040000
15.516414 4.300681 0.992241 0.050000
11.800350 -1.921055 0.814411 0.040000
6.355157 -1.424848 0.692041 0.720000
6.202164 -2.052889 0.689307 0.780000
7.162257 2.468423 0.128614 0.110000
7.461122 1.749057 0.116720 0.050000
7.614892 1.031875 0.114456 0.110000
7.738105 0.344131 0.107221 0.030000
7.671629 -0.362266 0.104421 0.050000
7.519772 -1.050315 0.106467 0.040000
6.673603 -1.526806 0.157488 0.070000
6.946065 -2.426508 0.089854 0.100000
41.010136 19.174866 7.029141 0.070000
44.590965 13.937282 7.084019 0.100000
6.147370 -1.350630 1.186780 0.060000
6.019046 -1.963251 1.199167 0.990000
13.129631 3.589881 0.973369 0.100000
31.346792 1.767017 1.404149 0.020000
11.749202 -1.867172 0.854478 0.040000
6.349640 -1.400005 0.707119 0.870000
6.166269 -2.008624 0.704378 1.180000
7.364727 2.602325 0.129641 0.120000
7.674344 1.843139 0.122627 0.050000
7.833701 1.096077 0.115266 0.100000
7.942383 0.383032 0.112899 0.030000
7.876482 -0.353360 0.109989 0.040000
7.730116 -1.066289 0.106957 0.040000
7.152560 -2.502567 0.090110 0.090000
41.306801 19.579758 7.266423 0.090000
45.092609 14.340988 7.351832 0.090000
40.812160 7.406122 6.404870 0.070000
52.291420 3.169775 7.904101 0.010000
49.462185 -3.088664 7.368446 0.130000
11.641010 -1.858349 1.974240 0.000000
6.187119 -1.339940 1.206923 0.210000
5.978165 -1.919062 1.209225 1.090000
13.078593 5.458941 1.060184 0.040000
15.329641 4.376732 1.097037 0.080000
13.197559 2.130869 0.983122 0.010000
13.204453 0.730846 0.952936 0.000000
12.775733 -0.642552 0.931711 0.050000
11.763341 -1.827022 0.889665 0.170000
6.354204 -1.379987 0.727206 0.880000
6.160738 -1.983799 0.724456 0.660000
7.601904 2.751894 0.130816 0.140000
7.892374 1.947314 0.128583 0.050000
8.032500 1.159877 0.121022 0.090000
8.186558 0.427698 0.118702 0.030000
8.096236 -0.339167 0.115616 0.040000
7.895155 -1.068165 0.117381 0.030000
7.749978 -1.841027 0.099129 0.050000
7.353851 -2.568742 0.095389 0.090000
41.152454 19.781214 7.436771 0.040000
46.299110 15.002800 7.742445 0.030000
42.396713 7.910091 6.810884 0.040000
40.129650 -7.324057 6.213329 0.000000
6.176603 -1.315192 1.221988 0.110000
5.962554 -1.889411 1.224295 0.490000
13.107209 3.704160 1.058736 0.100000
15.044561 2.550932 1.094506 0.020000
31.241159 2.029234 1.624850 0.040000
12.654611 -0.589991 0.966591 0.100000
11.611757 -1.750022 0.919556 0.160000
6.348686 -1.355143 0.742284 0.340000
6.175313 -1.963571 0.739569 0.350000
7.843889 2.911556 0.132041 0.120000
8.085612 2.041032 0.129436 0.050000
8.305916 1.245129 0.122052 0.090000
8.460740 0.472957 0.119586 0.030000
8.375992 -0.323807 0.116403 0.040000
8.170583 -1.087894 0.118026 0.040000
7.885105 -1.848496 0.114454 0.040000
7.580233 -2.639437 0.100718 0.090000
50.199577 24.723791 9.268779 0.040000
45.732601 15.061576 7.846186 0.080000
41.117622 7.855713 6.772342 0.030000
11.322217 0.680884 2.012848 0.000000
43.097256 -2.288294 6.774801 0.090000
40.165802 -7.143882 6.364095 0.040000
6.007397 -1.883625 1.244434 0.310000
13.055666 5.598178 1.155643 0.010000
13.125638 3.779343 1.109064 0.060000
31.218111 2.173433 1.730327 0.030000
12.618362 -0.530822 1.006716 0.110000
11.545433 -1.686409 0.954619 0.280000
6.353154 -1.330127 0.762389 0.970000
6.184780 -1.938459 0.759688 0.310000
8.061056 3.060723 0.138162 0.110000
8.373055 2.176542 0.135690 0.050000
8.544421 1.324692 0.127971 0.080000
8.744729 0.528406 0.120533 0.030000
8.690850 -0.312756 0.112266 0.030000
8.405909 -1.103408 0.123583 0.030000
8.196497 -1.917526 0.110010 0.030000
7.801629 -2.710210 0.101032 0.130000
52.077564 26.072943 9.838702 0.050000
45.379192 15.219396 7.965852 0.050000
11.231319 0.724078 2.032771 0.010000
47.431068 -2.298248 7.591085 0.050000
40.241943 -6.962942 6.514968 0.040000
6.180757 -1.275215 1.252148 0.040000
5.976610 -1.844244 1.254500 0.350000
13.064014 5.678187 1.200963 0.020000
15.275113 4.590139 1.257690 0.070000
15.196205 2.713498 1.195507 0.010000
31.195158 2.312633 1.835786 0.040000
12.572226 -0.476824 1.041797 0.120000
11.559477 -1.641261 0.989824 0.310000
6.342638 -1.305379 0.777453 1.060000
6.194356 -1.918327 0.774788 1.060000
8.292933 3.225175 0.144379 0.120000
8.615709 2.301212 0.136787 0.060000
8.842641 1.420420 0.129105 0.110000
9.023718 0.583759 0.121467 0.030000
8.970510 -0.292397 0.113071 0.040000
8.686253 -1.118023 0.119260 0.030000
8.457502 -1.967536 0.110505 0.040000
7.992730 -2.766578 0.106322 0.080000
52.605156 26.682018 10.152347 0.050000
41.839172 14.202977 7.527828 0.040000
42.676987 8.608676 7.334218 0.040000
11.210479 0.763575 2.062864 1.000000
41.772987 -1.828887 6.858053 0.100000
40.273220 -6.787826 6.655702 0.020000
6.165255 -1.250545 1.262199 0.050000
5.991281 -1.829015 1.269595 0.300000
13.047571 5.747738 1.241179 0.030000
12.571190 -0.426945 1.071980 0.110000
11.563535 -1.596285 1.020002 0.300000
6.173554 -1.878773 0.789881 1.466000
8.529714 3.394721 0.150627 0.120000
8.903069 2.441740 0.138059 0.050000
9.140764 1.521148 0.130258 0.090000
9.332606 0.644685 0.122500 0.030000
9.280165 -0.271463 0.113958 0.030000
8.981664 -1.137388 0.124960 0.030000
8.713305 -2.007662 0.116024 0.030000
8.244299 -2.846793 0.111680 0.080000
52.671497 27.097389 10.419066 0.070000
41.754471 14.425826 7.683437 0.090000
42.682171 8.838247 7.490086 0.050000
11.174544 0.807785 2.092935 1.000000
46.131142 -1.808479 7.704514 0.140000
39.922916 -6.524763 6.730766 0.030000
6.174830 -1.230413 1.277299 0.050000
6.010938 -1.813709 1.289703 1.250000
29.270611 14.476384 2.295983 0.050000
16.448202 3.121998 1.350296 0.010000
13.223766 1.000548 1.148991 0.010000
12.585234 -0.381796 1.107185 0.120000
11.587686 -1.555925 1.050216 0.320000
6.157956 -1.849103 0.799950 1.509000
8.796310 3.574859 0.151993 0.130000
9.195317 2.587344 0.144364 0.050000
9.448886 1.622066 0.131437 0.090000
9.641481 0.705593 0.128533 0.030000
9.584807 -0.250643 0.119830 0.030000
9.281990 -1.151638 0.125691 0.030000
9.029490 -2.066617 0.116630 0.040000
8.505866 -2.926816 0.117066 0.070000
53.444988 27.916029 10.784132 0.060000
41.769093 14.685602 7.834443 0.080000
42.682686 9.052782 7.630886 0.010000
11.123735 0.846746 2.112947 0.060000
41.995003 -1.450631 7.150042 0.110000
39.974167 -6.344153 6.841573 0.040000
6.174313 -1.205473 1.292391 0.050000
5.975069 -1.769407 1.294774 1.553000
13.069279 5.907870 1.326831 0.020000
13.105541 4.023433 1.264920 0.010000
30.577122 6.335352 2.164129 0.030000
12.604289 -0.336534 1.137403 0.120000
11.677015 -1.524319 1.080567 0.210000
6.177626 -1.833779 0.815059 1.060000
9.057715 3.764899 0.153382 0.120000
9.462776 2.722490 0.145564 0.050000
9.742010 1.722698 0.132576 0.090000
9.915377 0.765849 0.129472 0.030000
9.874370 -0.225093 0.120681 0.030000
9.537122 -1.156771 0.131338 0.030000
9.209814 -2.083204 0.127039 0.130000
6.153457 -1.807404 0.315089 0.030000
53.170277 28.140312 10.919250 0.050000
41.992653 14.999297 8.011194 0.060000
46.562630 -1.406354 8.037138 0.130000
40.180958 -6.195716 6.992666 0.030000
6.234249 -1.204398 1.312551 0.190000
13.158811 4.109340 1.300379 0.060000
13.164316 2.524349 1.244501 0.010000
11.200304 0.906926 1.103360 0.000000
12.688224 -0.285045 1.172814 0.090000
12.553764 -1.617819 1.157508 0.280000
9.304207 3.949634 0.159712 0.130000
9.759846 2.878207 0.146918 0.050000
9.965231 1.816971 0.138509 0.080000
10.184176 0.831009 0.130416 0.030000
10.098836 -0.195807 0.126376 0.030000
9.822355 -1.166310 0.132047 0.030000
9.203997 -2.043381 0.147172 0.160000
6.157950 -1.782350 0.325193 0.040000
53.538170 28.736437 11.202430 0.020000
41.987701 15.238750 8.147073 0.080000
49.346989 11.040558 9.075686 0.010000
46.673054 -1.184677 8.168252 0.050000
40.272194 -6.014359 7.108580 0.040000
6.193477 -1.165191 1.317591 0.370000
5.984248 -1.729297 1.314947 0.340000
29.219183 15.034508 2.567927 0.010000
13.183072 2.584590 1.279774 0.020000
11.259365 0.952973 1.128686 0.010000
12.612227 -0.236566 1.192796 0.080000
12.587817 -1.572269 1.187767 0.290000
