# This PCD file was generated using the MATLAB® pcwrite function
# from Computer Vision Toolbox®.
# .PCD v.7 - Point Cloud Data file format
VERSION .7
FIELDS x y z intensity
SIZE 4 4 4 4
TYPE F F F F
COUNT 1 1 1 1
WIDTH 1286
HEIGHT 1
VIEWPOINT 0 0 0 1 0 0 0
POINTS 1286
DATA ascii
50.279263 28.274649 8.272176 0.030000
43.650982 16.861464 6.637431 0.060000
57.168842 14.019332 8.167167 0.090000
11.229255 1.124952 1.804254 0.140000
36.556461 -0.236782 5.015336 0.190000
40.692562 -5.285349 5.522370 0.020000
6.543969 -1.167965 1.178494 0.080000
6.627934 -1.901634 1.215986 2.129000
13.017467 6.328675 0.858256 0.020000
14.737333 5.046369 0.862978 0.100000
13.210308 2.796928 0.795630 0.010000
11.127629 1.096906 0.738873 0.070000
13.285184 -0.062033 0.755197 0.010000
9.070860 -0.912711 0.691033 0.090000
6.505168 -1.156763 0.648429 0.520000
6.543480 -1.851152 0.645947 0.240000
6.406632 2.493957 0.126737 0.100000
6.738861 1.860244 0.115248 0.060000
6.911190 1.218431 0.113312 0.120000
7.057853 0.611132 0.111438 0.040000
7.024933 -0.019609 0.109007 0.040000
6.966743 -0.635814 0.101564 0.030000
6.778373 -1.244530 0.098810 0.040000
6.504841 -1.844856 0.090864 0.100000
50.364853 28.017122 8.031440 0.030000
43.516838 16.584635 6.421050 0.050000
57.214264 13.771056 7.921360 0.070000
36.599678 -0.385485 4.879894 0.290000
40.751297 -5.458705 5.371878 0.030000
6.599751 -1.206867 1.168495 0.230000
6.618372 -1.921747 1.195886 2.320000
13.043646 6.274351 0.808121 0.050000
14.718918 4.971204 0.807650 0.160000
11.113503 1.056775 0.698687 0.110000
14.976875 -0.129518 0.724362 0.010000
9.066514 -0.942690 0.660910 0.110000
6.470418 -1.167357 0.628298 1.120000
6.549024 -1.875959 0.620869 0.760000
6.278585 2.391505 0.121022 0.090000
6.570522 1.772004 0.114481 0.050000
6.737372 1.155091 0.112623 0.120000
6.893568 0.572998 0.105867 0.030000
6.845267 -0.038035 0.103469 0.040000
6.786585 -0.629264 0.101118 0.030000
6.602831 -1.217887 0.098451 0.040000
6.152267 -1.716659 0.110421 0.140000
49.091404 26.944212 7.569122 0.030000
43.353043 16.292307 6.184533 0.060000
57.215019 13.506978 7.660378 0.080000
11.201002 1.044690 1.723881 0.090000
36.037647 -0.515484 4.662942 0.170000
12.750149 -1.526645 1.868367 0.010000
6.585106 -1.222059 1.143400 0.560000
6.618903 -1.946668 1.175795 1.100000
13.045035 6.209568 0.752884 0.020000
14.735221 4.911726 0.747471 0.270000
13.152771 2.681154 0.700048 0.000000
11.104362 1.016721 0.663514 0.110000
13.262244 -0.157159 0.664783 0.010000
9.087258 -0.977189 0.630836 0.110000
6.445763 -1.182759 0.608177 1.130000
6.519369 -1.891456 0.600734 0.770000
6.120723 2.278461 0.120190 0.090000
6.417083 1.689051 0.113772 0.050000
6.583456 1.097133 0.112006 0.120000
6.704370 0.529367 0.105211 0.040000
6.690584 -0.056001 0.102999 0.040000
6.636518 -0.627137 0.100735 0.030000
6.402102 -1.181725 0.098061 0.050000
6.127598 -1.732079 0.095299 0.170000
51.175045 27.809050 7.637777 0.030000
43.407581 16.078918 6.018880 0.030000
57.215565 13.247731 7.444413 0.080000
36.080757 -0.659207 4.532519 0.280000
9.045927 -1.015810 1.400592 0.020000
6.565437 -1.237383 1.128291 0.520000
13.046603 6.134768 0.702609 0.080000
14.761414 4.857420 0.692337 0.420000
13.148943 2.626236 0.654833 0.000000
11.135118 0.982433 0.628466 0.090000
9.092994 -1.011993 0.605721 0.090000
6.456279 -1.207507 0.593112 0.930000
5.992650 2.175972 0.124474 0.080000
6.278547 1.611384 0.113122 0.050000
6.419623 1.033966 0.116344 0.130000
6.574969 0.496883 0.104752 0.030000
6.520890 -0.074272 0.107488 0.050000
6.471453 -0.625298 0.100311 0.030000
6.271839 -1.169217 0.097768 0.050000
6.022152 -1.709076 0.090109 0.140000
46.404621 24.780436 6.719057 0.030000
44.638569 16.307737 5.967944 0.090000
57.256493 12.974401 7.188501 0.070000
11.157847 0.959142 1.643449 0.160000
35.563988 -0.803359 4.320632 0.280000
8.991412 -1.036730 1.365372 0.040000
14.772897 4.787829 0.637108 0.240000
29.993128 6.494898 0.608182 0.030000
11.130978 0.942474 0.593306 0.110000
15.085613 -0.301898 0.569003 0.010000
6.436622 -1.222813 0.573003 0.760000
5.849594 2.073214 0.123719 0.090000
6.115098 1.528221 0.117386 0.050000
6.290618 0.981504 0.110812 0.100000
6.380759 0.453137 0.109083 0.030000
6.351113 -0.087526 0.106996 0.040000
6.291282 -0.618766 0.104865 0.030000
6.106295 -1.142383 0.097435 0.040000
5.886411 -1.671669 0.089894 0.100000
46.554764 24.544075 6.498568 0.040000
44.648808 16.063660 5.757061 0.110000
57.272507 12.695576 6.937504 0.070000
11.148816 0.914108 1.603258 0.130000
36.057541 -0.973662 4.246286 0.230000
8.921900 -1.057936 1.330111 0.110000
6.546311 -1.277610 1.088091 0.080000
13.059558 5.995376 0.597124 0.010000
14.819086 4.733906 0.582027 0.260000
13.171091 2.526973 0.564521 0.010000
11.151844 0.903014 0.553214 0.120000
5.756062 1.996427 0.118189 0.080000
5.976561 1.450554 0.116736 0.040000
6.126690 0.923336 0.115168 0.100000
6.261356 0.420845 0.108651 0.030000
6.201429 -0.105396 0.106538 0.040000
6.156211 -0.616352 0.104521 0.030000
5.991029 -1.129588 0.097182 0.050000
5.735564 -1.629569 0.094656 0.130000
47.521011 24.762985 6.401903 0.050000
44.455418 15.745651 5.550372 0.080000
57.283409 12.416487 6.731493 0.080000
11.244534 0.881027 1.578384 0.200000
12.742788 -0.335953 1.702773 0.080000
8.852374 -1.079162 1.299851 0.120000
6.541748 -1.297627 1.068005 0.160000
13.056127 5.920480 0.546836 0.030000
14.820571 4.664124 0.526771 0.190000
11.157784 0.858230 0.523062 0.110000
12.696135 -0.342429 0.497614 0.020000
12.546703 -1.675453 0.472269 0.080000
10.629181 -3.907498 0.438966 0.170000
5.642698 1.909223 0.122569 0.070000
5.837915 1.377867 0.121104 0.040000
6.017477 0.881237 0.114726 0.110000
6.111959 0.387978 0.108139 0.030000
6.076644 -0.117788 0.106167 0.050000
6.016141 -0.614034 0.104164 0.040000
5.860670 -1.112082 0.096907 0.050000
5.625022 -1.601663 0.089472 0.130000
48.171268 24.775972 6.258647 0.030000
44.202805 15.386501 5.343375 0.090000
41.836342 8.721726 4.842418 0.030000
12.803922 -0.389663 1.667732 0.160000
8.712696 -1.091692 1.259439 0.140000
6.572452 -1.331990 1.052957 0.370000
13.067692 5.845872 0.496588 0.040000
13.168530 2.412233 0.474087 0.010000
11.208646 0.819344 0.483050 0.110000
12.667120 -0.387828 0.452369 0.040000
11.609535 -1.568309 0.450221 0.170000
10.635421 -3.967260 0.403760 0.120000
5.544072 1.837339 0.117044 0.080000
5.738988 1.320963 0.120634 0.040000
5.883365 0.833660 0.114199 0.100000
5.997459 0.360780 0.107739 0.030000
5.956941 -0.135102 0.110790 0.050000
5.901163 -0.616237 0.103856 0.040000
5.755403 -1.099095 0.096680 0.060000
5.514468 -1.573775 0.089287 0.130000
47.238213 23.929165 5.923060 0.050000
44.133827 15.100901 5.132131 0.070000
41.965187 8.544749 4.682095 0.100000
8.758520 -1.130730 1.234413 0.140000
6.547796 -1.347392 1.032835 0.580000
13.054358 5.765786 0.446255 0.030000
15.480941 2.841907 0.396720 0.000000
11.254495 0.780343 0.448025 0.130000
12.658184 -0.437861 0.412160 0.040000
11.565414 -1.609015 0.409954 0.280000
7.027387 -1.506237 0.488491 0.110000
11.227175 -4.305767 0.344045 0.350000
5.475235 1.776010 0.116637 0.070000
5.635061 1.263962 0.120151 0.040000
5.799147 0.792040 0.113825 0.100000
5.892958 0.333774 0.107366 0.030000
5.852165 -0.147092 0.105472 0.060000
5.816288 -0.622845 0.098610 0.040000
5.630043 -1.081493 0.096418 0.060000
5.444207 -1.560100 0.084154 0.120000
47.245258 23.595119 5.681834 0.050000
44.159054 14.857092 4.926289 0.040000
42.203625 8.389874 4.522140 0.110000
12.736086 -0.490650 1.577179 0.240000
8.844514 -1.179018 1.214458 0.200000
6.543328 -1.372409 1.012730 0.580000
13.065924 5.691177 0.396007 0.040000
13.136147 3.852161 0.399355 0.040000
13.200867 2.303163 0.383765 0.010000
6.791417 -1.455692 0.473063 0.170000
11.243630 -4.375299 0.298829 0.380000
5.371691 1.699014 0.116080 0.080000
5.570853 1.222744 0.114830 0.030000
5.689838 0.754940 0.113401 0.100000
5.798455 0.306959 0.107019 0.030000
5.772371 -0.158623 0.105221 0.060000
5.701213 -0.620049 0.098320 0.040000
5.565068 -1.082719 0.091244 0.060000
5.343747 -1.537020 0.083978 0.120000
57.257046 28.439730 6.540986 0.030000
44.069904 14.575995 4.745009 0.020000
42.800873 8.291644 4.428332 0.060000
12.787235 -0.544533 1.537112 0.080000
8.850249 -1.213823 1.189343 0.210000
6.569033 -1.406868 0.997669 0.530000
45.981560 -21.503805 4.625877 0.100000
15.934937 7.091830 0.283702 0.050000
13.112707 3.776864 0.354013 0.040000
6.766761 -1.471094 0.452941 0.260000
11.239885 -4.435235 0.258596 0.360000
5.312674 1.647893 0.110736 0.070000
5.481828 1.171030 0.114405 0.030000
5.620535 0.718624 0.108085 0.090000
5.698953 0.280049 0.106660 0.030000
5.677690 -0.175421 0.099911 0.060000
5.636334 -0.626274 0.093127 0.040000
5.464799 -1.069637 0.091031 0.060000
5.273485 -1.523345 0.078845 0.120000
57.289879 28.066210 6.289680 0.020000
46.956085 15.311051 4.850276 0.060000
30.672197 5.668334 3.176908 0.020000
8.891156 -1.257974 1.169286 0.170000
45.796021 -21.711699 4.434618 0.030000
14.564894 6.300506 0.262184 0.060000
13.133862 3.722406 0.313865 0.050000
11.394607 1.833579 0.352304 0.010000
13.257271 -0.625907 0.273023 0.010000
14.464699 -2.297840 0.204959 0.040000
6.762280 -1.496129 0.437836 0.240000
11.246126 -4.494998 0.223390 0.200000
5.238824 1.586449 0.115315 0.080000
5.447422 1.140384 0.109201 0.030000
5.536126 0.687002 0.107747 0.100000
5.639264 0.263921 0.101444 0.030000
5.617892 -0.186568 0.099713 0.050000
5.536244 -0.623209 0.097877 0.040000
5.409822 -1.070672 0.085884 0.060000
5.177915 -1.495189 0.083700 0.130000
29.437494 13.715724 3.308602 0.010000
30.110758 9.398423 3.139309 0.010000
30.680058 5.533845 3.071428 0.040000
31.294315 1.930101 3.024635 0.010000
11.998405 -0.594154 1.399867 0.110000
6.539801 -1.442305 0.962461 0.310000
51.617416 -24.901836 4.727958 0.020000
13.451818 5.669114 0.246931 0.070000
14.302923 4.055166 0.233153 0.050000
11.255957 1.766022 0.321691 0.030000
13.068068 -0.664409 0.237386 0.010000
13.522218 -2.175832 0.192952 0.040000
6.767906 -1.525953 0.417740 0.200000
5.204527 1.550823 0.105093 0.080000
5.353302 1.093573 0.108782 0.030000
5.486614 0.661049 0.107522 0.080000
5.564662 0.242489 0.101169 0.030000
5.533100 -0.198194 0.099449 0.050000
5.481364 -0.629242 0.092711 0.040000
5.319539 -1.057417 0.090697 0.060000
5.122843 -1.491224 0.078571 0.120000
29.505919 13.552390 3.203172 0.010000
16.853395 4.868123 1.887850 0.010000
30.767672 5.410831 2.981199 0.020000
31.302135 1.795557 2.934154 0.010000
12.044434 -0.643171 1.369804 0.330000
11.607796 -1.861621 1.329135 0.090000
6.525226 -1.462533 0.947347 0.490000
17.592129 -7.844975 1.842519 0.000000
12.695227 5.224582 0.233304 0.070000
13.036855 3.575797 0.238066 0.030000
11.226986 1.715550 0.296428 0.060000
13.766908 0.714401 0.194335 0.010000
13.589922 -0.749247 0.188432 0.010000
12.745268 -2.080677 0.186278 0.040000
10.945764 -4.470526 0.162696 0.070000
5.135485 1.499473 0.109722 0.070000
5.288985 1.057335 0.108479 0.030000
5.402205 0.629427 0.107184 0.080000
5.495058 0.221152 0.100908 0.030000
5.468304 -0.209437 0.099238 0.060000
5.391272 -0.625986 0.097488 0.040000
5.254468 -1.053644 0.085541 0.070000
5.057567 -1.477472 0.078452 0.130000
29.539087 13.403421 3.087704 0.010000
16.735695 4.756088 1.822125 0.030000
17.024227 2.751351 1.790426 0.020000
31.354769 1.671891 2.838831 0.050000
11.960212 -0.679663 1.334448 0.520000
11.658906 -1.915560 1.304067 0.070000
6.535742 -1.487281 0.932283 0.640000
12.131791 4.878786 0.215547 0.070000
12.719950 3.414791 0.211640 0.060000
11.188029 1.664905 0.266137 1.000000
13.018511 0.625089 0.182049 0.010000
12.148605 -0.696914 0.204864 0.040000
9.045768 -1.376880 0.309239 0.070000
10.507231 -4.288856 0.152227 0.060000
5.091177 1.463636 0.104473 0.090000
5.249568 1.026574 0.108262 0.030000
5.342695 0.603283 0.106931 0.080000
5.460365 0.205503 0.095760 0.030000
5.393414 -0.215872 0.099019 0.040000
5.331392 -0.632115 0.092309 0.040000
5.194288 -1.044795 0.085417 0.080000
4.992196 -1.458721 0.078351 0.140000
29.596981 13.264817 3.002339 0.060000
16.588165 4.633442 1.766284 0.040000
31.292507 1.541006 2.748181 0.110000
11.901081 -0.720674 1.299141 0.690000
6.541247 -1.512143 0.922205 0.630000
11.597750 4.563520 0.207981 0.080000
12.179101 3.194431 0.199409 0.060000
11.173864 1.624718 0.240951 0.210000
12.459874 0.549396 0.175310 0.010000
12.139452 -0.736987 0.174691 0.040000
9.011197 -1.397491 0.294072 0.070000
10.179922 -4.170066 0.141814 0.070000
5.051951 1.422878 0.104219 0.080000
5.200164 0.995641 0.103018 0.030000
5.303099 0.582539 0.101751 0.040000
5.380667 0.188974 0.095490 0.020000
5.328618 -0.227115 0.098808 0.040000
5.271403 -0.633264 0.092148 0.050000
5.134203 -1.040945 0.085275 0.090000
4.962215 -1.459277 0.073271 0.140000
29.525732 13.083824 2.891479 0.130000
16.579639 4.563450 1.716001 0.020000
31.329830 1.432013 2.662872 0.120000
11.901830 -0.755556 1.269013 0.730000
32.525707 -6.431492 2.641762 0.050000
6.556762 -1.536795 0.907153 0.420000
11.137832 4.294683 0.200781 0.080000
11.752452 3.016247 0.192633 0.070000
11.020082 1.561817 0.225315 0.140000
12.011025 0.485806 0.168901 0.010000
11.754538 -0.744341 0.168659 0.020000
9.072113 -1.441241 0.269068 0.220000
10.496565 -2.948805 0.152181 0.060000
9.822032 -4.021876 0.136431 0.070000
5.032447 1.397518 0.099074 0.070000
5.155652 0.969784 0.102805 0.030000
5.238481 0.561280 0.106503 0.030000
5.340962 0.173211 0.095328 0.010000
5.283721 -0.232976 0.098669 0.040000
5.211414 -0.634413 0.091988 0.060000
5.089116 -1.036808 0.085172 0.110000
4.901926 -1.445447 0.078165 0.130000
29.558605 12.944704 2.816047 0.130000
31.362198 1.317851 2.597532 0.130000
11.877557 -0.790954 1.248818 0.730000
10.791742 4.088037 0.194110 0.080000
11.375506 2.854017 0.186046 0.060000
11.150423 1.549421 0.195609 0.090000
11.611976 0.433173 0.162664 0.010000
11.364623 -0.751792 0.162614 0.020000
9.057634 -1.466467 0.253936 0.190000
10.170010 -2.870027 0.146621 0.050000
9.534977 -3.917355 0.136070 0.070000
4.978211 1.356454 0.103780 0.070000
5.131040 0.949309 0.102665 0.030000
5.218785 0.545918 0.101395 0.030000
5.281261 0.157064 0.095112 0.010000
5.263930 -0.243338 0.093578 0.030000
5.161410 -0.635389 0.096853 0.060000
5.044028 -1.032671 0.085070 0.100000
4.876944 -1.445907 0.073098 0.130000
17.462961 2.580236 1.650934 0.000000
31.374405 1.213341 2.522174 0.140000
11.898290 -0.825471 1.223744 0.750000
6.547500 -1.571887 0.881998 0.080000
13.584769 -6.124603 1.343449 0.000000
10.505080 3.912552 0.182709 0.080000
11.082887 2.728427 0.174815 0.060000
11.297814 0.387167 0.156673 0.010000
11.044600 -0.752903 0.156774 0.020000
9.954201 -2.829134 0.141210 0.050000
9.293119 -3.821952 0.130793 0.070000
4.953612 1.335998 0.098639 0.080000
5.091527 0.923548 0.102466 0.030000
5.184079 0.530251 0.101246 0.040000
5.256457 0.146587 0.095008 0.010000
5.189027 -0.249792 0.098359 0.030000
5.136524 -0.640849 0.091768 0.060000
5.014034 -1.033246 0.084990 0.110000
4.826665 -1.431868 0.073019 0.130000
29.573977 12.685502 2.665122 0.050000
31.396378 1.118966 2.461880 0.120000
11.894013 -0.860486 1.203602 0.760000
13.355248 -2.488082 1.281367 0.000000
6.532816 -1.587135 0.871903 0.080000
13.611172 -6.194018 1.318259 0.020000
10.277819 3.768193 0.176579 0.090000
10.790158 2.607818 0.168603 0.060000
10.902465 1.444764 0.164573 0.040000
11.033547 0.347117 0.150834 0.010000
10.784758 -0.762862 0.151059 0.020000
10.294385 -1.792454 0.150951 0.070000
9.733106 -2.773340 0.135840 0.050000
9.036155 -3.721855 0.130495 0.060000
4.933999 1.315618 0.098512 0.080000
5.052013 0.897786 0.102267 0.030000
5.159384 0.514793 0.096124 0.040000
5.211657 0.135727 0.094851 0.010000
5.149130 -0.255557 0.098233 0.040000
5.096531 -0.641615 0.091661 0.060000
4.963948 -1.029204 0.084874 0.110000
4.791576 -1.427539 0.072943 0.140000
29.591442 12.566054 2.599723 0.060000
11.224249 1.472173 1.190525 0.000000
31.398354 1.024207 2.401532 0.080000
11.919731 -0.894926 1.183541 0.730000
13.361079 -2.527885 1.256234 0.000000
6.538116 -1.602017 0.866862 0.070000
13.576927 -6.229570 1.288037 0.030000
10.080264 3.639405 0.170585 0.080000
10.547133 2.503164 0.162579 0.060000
10.758572 1.387034 0.153982 0.030000
10.824270 0.308120 0.145143 0.010000
9.116795 -0.635077 0.227181 0.020000
10.094051 -1.776270 0.145489 0.050000
9.507107 -2.722641 0.130438 0.050000
8.844670 -3.645491 0.125279 0.070000
4.909495 1.290163 0.093354 0.070000
5.042220 0.887615 0.097204 0.020000
5.124678 0.499126 0.095975 0.040000
5.186949 0.120252 0.094729 0.020000
5.124326 -0.266034 0.098130 0.040000
5.066633 -0.647188 0.091562 0.050000
4.939048 -1.034682 0.084789 0.110000
4.771688 -1.432902 0.067871 0.120000
29.668488 12.467714 2.544558 0.020000
13.179936 3.264504 1.322294 0.010000
11.189979 1.436583 1.170303 0.040000
13.225718 0.360033 1.266616 0.020000
11.925440 -0.929768 1.168426 0.480000
6.516373 -0.987270 0.854090 0.000000
6.533526 -1.622072 0.856775 0.110000
13.563036 -6.284773 1.267796 0.020000
9.862809 3.505235 0.164518 0.080000
10.353894 2.409446 0.161727 0.050000
10.534763 1.322737 0.153159 0.020000
10.599900 0.273835 0.139430 0.010000
9.152402 -0.664346 0.212165 0.060000
9.918893 -1.769623 0.145056 0.050000
9.331469 -2.690999 0.130097 0.050000
8.678648 -3.593661 0.125038 0.060000
4.879967 1.264575 0.098182 0.090000
5.017607 0.867140 0.097064 0.020000
5.114967 0.483937 0.095893 0.030000
5.167158 0.109889 0.089639 0.010000
5.084430 -0.271799 0.098004 0.040000
5.021641 -0.648050 0.091442 0.050000
4.919161 -1.040045 0.079717 0.100000
4.726397 -1.418786 0.072806 0.130000
13.113056 4.923406 1.358286 0.000000
13.165949 3.214301 1.302070 0.020000
13.276419 0.326053 1.251622 0.060000
13.038290 -1.073627 1.210797 0.380000
6.531766 -1.006961 0.849057 0.010000
6.538934 -1.641935 0.846715 0.210000
13.594533 -6.359091 1.242601 0.030000
9.694949 3.392000 0.163659 0.070000
10.145576 2.320459 0.155852 0.060000
10.380763 1.269796 0.147560 0.020000
10.400608 0.235012 0.138765 0.010000
9.112819 -0.685071 0.201984 0.100000
9.788848 -1.767076 0.134726 0.050000
9.175936 -2.663955 0.124792 0.050000
8.512528 -3.536833 0.124816 0.060000
4.865366 1.244310 0.093068 0.080000
4.997899 0.851760 0.096955 0.020000
5.080262 0.468270 0.095744 0.030000
5.152352 0.099604 0.089562 0.010000
5.064625 -0.282181 0.097914 0.040000
5.001741 -0.653432 0.091370 0.040000
4.894166 -1.040524 0.079650 0.080000
4.701401 -1.419264 0.072739 0.130000
13.089359 4.858014 1.337981 0.010000
13.117160 3.153429 1.281717 1.000000
11.211381 1.367073 1.145100 0.100000
13.014100 -1.114042 1.195583 0.730000
6.532066 -1.021939 0.844002 1.000000
6.554410 -1.666643 0.846664 0.340000
9.601500 3.310196 0.163111 0.070000
10.046840 2.253556 0.155346 0.060000
10.281645 1.222890 0.147127 0.020000
10.271208 0.202528 0.138307 0.010000
9.108312 -0.710143 0.196879 0.130000
9.678964 -1.774182 0.134413 0.050000
9.070765 -2.655968 0.124547 0.050000
8.396976 -3.509041 0.124617 0.060000
4.855738 1.224103 0.097968 0.090000
4.973273 0.831267 0.101814 0.010000
5.065552 0.452985 0.095649 0.030000
5.112538 0.088821 0.094418 0.010000
5.054819 -0.292370 0.097850 0.040000
4.976841 -0.658910 0.091284 0.040000
4.864158 -1.041117 0.084569 0.070000
4.691595 -1.429454 0.072675 0.110000
13.070730 4.787682 1.327671 0.010000
13.098244 3.098093 1.271461 0.040000
13.253201 0.235665 1.231225 0.020000
12.994884 -1.154399 1.190383 0.660000
6.517370 -1.037205 0.838907 0.300000
6.554807 -1.686621 0.841591 0.420000
13.627427 -6.508451 1.232132 0.010000
9.607169 3.275298 0.162996 0.070000
10.072410 2.224041 0.155303 0.050000
10.297216 1.193183 0.147057 0.020000
10.301872 0.168109 0.138259 0.010000
9.088781 -0.735540 0.201734 0.160000
9.709724 -1.813600 0.134346 0.050000
9.116810 -2.710095 0.124466 0.050000
8.463401 -3.582782 0.124516 0.050000
4.865928 1.214297 0.097958 0.090000
4.988462 0.821556 0.101818 0.010000
5.080740 0.443275 0.095653 0.030000
5.132822 0.074207 0.094417 0.010000
5.070007 -0.302081 0.097854 0.030000
5.012218 -0.678236 0.091305 0.040000
4.889646 -1.065615 0.079545 0.100000
4.712070 -1.454066 0.072637 0.100000
13.066624 4.737503 1.352474 0.000000
11.112824 1.290153 1.149557 0.230000
13.218717 0.204908 1.256021 0.050000
13.000487 -1.189390 1.215268 0.720000
6.517618 -1.052258 0.853852 0.470000
6.550056 -1.701770 0.856522 0.540000
13.613105 -6.548861 1.266945 0.020000
10.401090 2.295330 0.161426 0.060000
10.631758 1.219576 0.153029 0.020000
10.657081 0.159892 0.144156 0.010000
9.083922 -0.745708 0.221684 0.160000
10.026460 -1.902586 0.144843 0.040000
9.419327 -2.839343 0.129775 0.050000
8.756891 -3.762193 0.124616 0.060000
4.915631 1.230252 0.098147 0.090000
5.053258 0.832799 0.102029 0.020000
5.140621 0.449404 0.100832 0.040000
5.197810 0.075452 0.094591 0.010000
5.120190 -0.311122 0.097951 0.030000
5.067591 -0.697179 0.091379 0.050000
4.930008 -1.084864 0.084578 0.090000
4.762732 -1.488102 0.072643 0.100000
30.317997 7.809514 2.478936 0.030000
11.058139 1.268992 1.179336 0.500000
31.533804 0.476612 2.424850 0.040000
13.015572 -1.199249 1.255271 0.500000
6.472409 -1.043159 0.863768 0.720000
6.555112 -1.706729 0.871517 0.470000
13.613262 -6.564044 1.316889 0.010000
10.371538 3.574954 0.176105 0.070000
10.863773 2.419176 0.173094 0.060000
10.960986 1.260834 0.169042 0.050000
11.102080 0.163397 0.150330 0.010000
9.114042 -0.755225 0.246727 0.170000
10.383297 -1.995787 0.150428 0.050000
9.757017 -2.977937 0.140142 0.050000
9.095743 -3.960757 0.129762 0.060000
4.970225 1.251282 0.103368 0.090000
5.122862 0.854136 0.102290 0.020000
5.190516 0.455361 0.100984 0.040000
5.267892 0.071793 0.094760 0.010000
5.185369 -0.319875 0.098089 0.040000
5.137961 -0.715834 0.091493 0.050000
4.995475 -1.108614 0.084661 0.110000
4.813201 -1.512140 0.072685 0.130000
16.379187 6.155002 1.691394 0.020000
30.322695 7.809182 2.593948 0.180000
11.043051 1.268575 1.214295 0.950000
31.488539 0.475360 2.529729 0.050000
12.980378 -1.195069 1.295195 0.480000
6.477451 -1.048136 0.883763 0.750000
6.565154 -1.711611 0.891525 0.480000
10.867491 3.789453 0.188197 0.060000
11.015801 1.266774 0.199207 0.110000
11.701955 0.174869 0.156939 0.010000
10.900774 -2.120917 0.156313 0.040000
10.180279 -3.144878 0.145626 0.040000
9.530536 -4.207491 0.134980 0.050000
5.034733 1.277523 0.103634 0.090000
5.192562 0.870473 0.102533 0.030000
5.280307 0.467082 0.101262 0.040000
5.327881 0.072942 0.094921 0.020000
5.335750 -0.336961 0.088418 0.130000
5.198237 -0.729682 0.091599 0.060000
5.066037 -1.137268 0.084739 0.090000
4.873956 -1.550983 0.072699 0.120000
29.668680 11.896590 2.822438 0.100000
30.322313 7.813772 2.703966 0.230000
11.047972 1.268559 1.244308 0.940000
31.503248 0.475239 2.639768 0.020000
12.990368 -1.200025 1.335203 0.380000
6.560102 -1.711781 0.911512 0.540000
12.057678 2.747063 0.187429 0.060000
10.985716 1.266070 0.234126 0.070000
12.261824 0.185557 0.168440 0.010000
11.423238 -2.245970 0.167212 0.040000
10.653805 -3.325878 0.156189 0.040000
10.005717 -4.473438 0.135232 0.050000
5.118964 1.319161 0.099008 0.100000
5.242265 0.886428 0.102722 0.030000
173.843948 24.781118 -27.043636 50.000000
5.417768 0.079665 0.095181 0.030000
5.315619 -0.332401 0.103382 0.250000
5.278605 -0.748147 0.091740 0.060000
5.106304 -1.151518 0.089791 0.090000
4.914223 -1.565233 0.077752 0.100000
29.652918 11.920889 2.932488 0.190000
30.316561 7.838281 2.809043 0.260000
11.037690 1.278236 1.279318 0.910000
31.552378 0.505782 2.750011 0.010000
13.045144 -1.194140 1.380368 0.720000
6.487371 -1.048056 0.913789 0.130000
6.570061 -1.711645 0.926538 0.470000
55.472042 -30.568539 4.586953 0.090000
12.097256 4.333046 0.208428 0.070000
12.674279 2.928867 0.199715 0.050000
10.980543 1.270862 0.264131 0.070000
11.985789 -2.375256 0.178200 0.040000
11.167433 -3.511092 0.161842 0.040000
10.329054 -4.647349 0.155429 0.060000
5.163559 1.340001 0.104202 0.110000
5.321771 0.912955 0.103028 0.030000
5.414898 0.489664 0.101697 0.080000
5.502753 0.081293 0.095409 0.030000
5.410710 -0.335562 0.098619 0.190000
5.363877 -0.761516 0.091913 0.040000
5.191875 -1.179865 0.084909 0.100000
4.969775 -1.594192 0.082789 0.100000
29.681545 11.976007 3.052769 0.050000
30.300674 7.867542 2.929111 0.080000
11.027505 1.282913 1.314309 0.850000
31.546503 0.535253 2.865106 0.010000
13.044848 -1.184291 1.420405 0.670000
6.492222 -1.043036 0.933821 0.100000
6.574912 -1.706625 0.946570 0.190000
55.540501 -30.523155 4.842303 0.130000
10.980164 1.285728 0.299186 0.130000
13.871114 0.236349 0.182830 0.010000
12.789376 -2.554898 0.179630 0.040000
11.192337 -3.510744 0.196908 0.180000
10.864691 -4.937161 0.160750 0.050000
5.242874 1.376526 0.104545 0.090000
5.396360 0.934369 0.108302 0.030000
5.494596 0.506193 0.101967 0.070000
5.562645 0.087441 0.095588 0.030000
5.510896 -0.343626 0.093850 0.120000
5.459256 -0.779674 0.087094 0.050000
5.247139 -1.193828 0.090001 0.080000
5.050539 -1.632634 0.077857 0.100000
29.685204 12.030684 3.162983 0.020000
11.067023 1.303545 1.349489 0.430000
31.515373 0.579279 2.970190 0.010000
13.039457 -1.169538 1.460446 0.620000
6.486992 -1.033189 0.948844 0.150000
6.559588 -1.691970 0.961584 0.070000
55.654087 -30.481852 5.082756 0.070000
13.653771 5.047890 0.240149 0.050000
14.683228 3.522392 0.222165 0.050000
10.964884 1.295309 0.334182 0.140000
13.127530 -1.158376 0.240705 0.010000
13.236156 -2.646430 0.200456 0.040000
11.071010 -3.448203 0.236824 0.180000
11.390124 -5.217184 0.171081 0.050000
5.302179 1.412650 0.109834 0.100000
5.465868 0.960705 0.108582 0.030000
5.559283 0.522417 0.107196 0.070000
5.637523 0.093858 0.100807 0.030000
5.585965 -0.347208 0.099033 0.110000
5.529517 -0.793349 0.092227 0.050000
5.327700 -1.222290 0.090106 0.090000
5.121197 -1.666287 0.077916 0.110000
43.486923 18.135918 4.631720 0.070000
30.308184 7.966897 3.149503 0.020000
11.146424 1.329924 1.389795 0.660000
35.182861 0.688052 3.385171 0.030000
13.079141 -1.158941 1.505589 0.560000
6.481762 -1.023343 0.963867 0.300000
6.589626 -1.696469 0.981646 0.050000
51.061836 -27.773682 4.905834 0.020000
14.912982 5.622089 0.250570 0.040000
10.969517 1.310291 0.364250 0.130000
15.955014 0.311218 0.203548 0.010000
13.351223 -2.654375 0.240727 0.040000
11.141097 -3.456991 0.271975 0.170000
11.278290 -5.129494 0.221115 0.100000
5.376494 1.449080 0.110164 0.110000
5.540375 0.987137 0.108874 0.030000
5.638981 0.538946 0.107466 0.080000
5.722315 0.105484 0.101072 0.040000
5.656034 -0.350885 0.104202 0.090000
5.604694 -0.801911 0.092392 0.050000
5.413163 -1.245657 0.090242 0.080000
5.181652 -1.690151 0.082985 0.130000
45.646034 19.191006 5.036282 0.060000
57.223423 15.679398 5.793456 0.050000
11.156044 1.344982 1.424877 0.430000
34.821545 0.740811 3.474425 0.030000
13.108647 -1.138519 1.545743 0.690000
6.506706 -1.022938 0.983934 0.450000
6.574303 -1.681815 0.996661 0.050000
48.481243 -26.197733 4.879956 0.020000
17.109282 6.619347 0.255011 0.020000
18.343283 4.597678 0.235716 0.020000
10.954237 1.319871 0.399246 0.100000
18.903856 0.402801 0.186585 0.000000
17.145685 -1.541361 0.214769 0.010000
11.195995 -3.456068 0.307122 0.260000
11.297894 -5.114262 0.261224 0.220000
5.460616 1.495699 0.110557 0.100000
5.604871 1.013358 0.114140 0.030000
5.733580 0.560762 0.107794 0.100000
5.802205 0.112015 0.101305 0.030000
5.761124 -0.353854 0.099465 0.090000
5.674956 -0.815586 0.097524 0.040000
5.488615 -1.269235 0.095351 0.080000
5.272593 -1.738418 0.083043 0.110000
50.843761 21.608393 5.763843 0.060000
57.245529 15.799017 6.018961 0.070000
11.165567 1.365040 1.459976 0.470000
34.665150 0.797441 3.579229 0.050000
13.163328 -1.127635 1.590926 0.570000
6.486396 -1.008361 0.993935 0.530000
6.579154 -1.676795 1.016692 0.050000
48.265842 -25.942455 5.055345 0.050000
13.081636 4.871334 0.393001 0.030000
13.184362 3.162962 0.396918 0.040000
10.968773 1.340043 0.429359 0.100000
13.319297 0.300114 0.366628 0.010000
13.286421 -1.115766 0.361279 0.020000
11.270986 -3.459760 0.342305 0.360000
11.256839 -5.065187 0.301299 0.230000
5.554736 1.542510 0.110976 0.100000
5.699183 1.050171 0.114523 0.040000
5.813278 0.577291 0.108063 0.100000
5.916991 0.124215 0.101650 0.030000
5.836097 -0.352436 0.104667 0.080000
5.775224 -0.828668 0.097737 0.040000
5.584185 -1.297391 0.090496 0.080000
5.343154 -1.767072 0.083121 0.110000
50.875114 21.768215 5.984521 0.110000
57.247055 15.948230 6.249522 0.070000
11.160094 1.384810 1.495036 0.530000
35.038200 0.878977 3.750507 0.070000
13.177716 -1.102538 1.641058 0.310000
6.511326 -1.007976 1.019002 0.260000
6.563721 -1.657160 1.036725 0.110000
48.120941 -25.715923 5.255811 0.060000
13.080931 4.901142 0.443110 0.030000
11.048091 1.371440 0.464683 0.130000
13.290836 -1.090823 0.401384 0.020000
13.359540 -2.584680 0.371010 0.010000
11.280509 -3.439703 0.377404 0.310000
11.261242 -5.040263 0.346404 0.210000
5.613945 1.583633 0.116284 0.110000
5.803493 1.087175 0.114933 0.040000
5.947678 0.609871 0.108535 0.100000
6.006866 0.130919 0.106909 0.030000
5.951171 -0.355233 0.104957 0.070000
5.850402 -0.837230 0.097902 0.050000
5.689740 -1.325375 0.090668 0.070000
5.448997 -1.810053 0.083237 0.110000
46.583618 20.011559 5.736787 0.050000
57.253429 16.102463 6.500114 0.070000
11.124626 1.404006 1.530015 0.540000
35.156349 0.955703 3.901103 0.050000
11.929887 -0.956136 1.563344 0.260000
6.618850 -1.666179 1.056836 0.180000
48.137814 -25.581327 5.461357 0.060000
14.726280 5.677699 0.475292 0.100000
13.158065 3.217120 0.492052 0.020000
11.037523 1.396113 0.499748 0.160000
24.739176 0.689277 0.292883 0.010000
11.917269 -0.927357 0.468407 0.010000
13.424014 -2.563625 0.421257 0.020000
6.529401 -1.620923 0.521765 0.160000
5.752578 1.656301 0.116916 0.100000
5.907693 1.129160 0.120361 0.030000
6.042264 0.631668 0.113863 0.100000
6.131555 0.148311 0.107299 0.040000
6.071244 -0.357934 0.105260 0.060000
5.970750 -0.854946 0.103150 0.050000
5.800281 -1.353281 0.095852 0.070000
5.544733 -1.848244 0.088345 0.120000
46.436245 20.108074 5.921762 0.080000
57.244598 16.271517 6.720722 0.060000
11.139052 1.429158 1.565147 0.400000
35.049522 1.033231 4.021113 0.050000
11.874135 -0.922326 1.598324 0.470000
6.573149 -1.632103 1.071844 0.160000
44.086414 -23.167704 5.244752 0.040000
14.725261 5.722467 0.535457 0.100000
13.107574 3.235991 0.536991 0.030000
11.036940 1.420960 0.539839 0.090000
26.741882 0.817380 0.373588 0.000000
11.921685 -0.902415 0.508511 0.050000
6.529075 -1.605981 0.536820 0.410000
13.559184 -6.221609 0.388011 0.060000
5.841603 1.708015 0.117340 0.120000
6.041723 1.181754 0.115906 0.040000
6.181580 0.669361 0.109367 0.090000
6.251245 0.165606 0.107676 0.030000
6.211327 -0.360233 0.100617 0.060000
6.096014 -0.867550 0.103430 0.040000
5.905836 -1.381264 0.096024 0.070000
5.665777 -1.900917 0.083466 0.110000
46.149937 20.152031 6.076180 0.070000
57.240540 16.450609 6.956379 0.040000
11.158370 1.459387 1.605310 0.340000
57.355724 1.881615 6.527518 0.040000
11.868579 -0.897538 1.628402 0.600000
6.582903 -1.621988 1.091907 0.080000
44.108147 -23.022942 5.430348 0.040000
16.687099 4.334648 0.575419 0.070000
11.096167 1.456972 0.575128 0.100000
13.271631 0.413561 0.546927 0.010000
11.875918 -0.868432 0.548519 0.060000
18.761402 -3.686732 0.466014 0.050000
6.533734 -1.590963 0.556888 1.000000
5.999958 1.796081 0.113081 0.110000
6.190654 1.239635 0.111510 0.040000
6.315979 0.701940 0.109839 0.100000
6.401038 0.178495 0.103115 0.030000
6.341303 -0.357744 0.100965 0.060000
6.231385 -0.884942 0.098719 0.040000
6.041482 -1.413672 0.096258 0.070000
5.771511 -1.938917 0.088600 0.090000
50.045219 22.159309 6.823817 0.080000
57.220730 16.664295 7.222125 0.040000
44.451920 1.598672 5.337771 0.030000
11.867791 -0.862712 1.673530 0.440000
6.582563 -1.607065 1.111961 0.060000
45.376606 -23.499979 5.771890 0.040000
14.777472 5.853086 0.646080 0.100000
16.536766 4.341531 0.640053 0.050000
11.205192 1.503940 0.610587 0.160000
30.796354 1.119441 0.560296 0.020000
11.880251 -0.838472 0.583642 0.090000
13.371359 -2.445126 0.561561 0.060000
6.483021 -1.557001 0.576882 0.960000
6.133495 1.873653 0.113718 0.120000
6.359473 1.302880 0.112186 0.040000
6.505191 0.745590 0.105495 0.110000
6.580621 0.201939 0.103671 0.040000
6.501369 -0.359678 0.101376 0.060000
6.416938 -0.911374 0.094105 0.040000
6.167129 -1.446272 0.096464 0.060000
5.927836 -2.005917 0.083759 0.100000
45.581093 20.294786 6.450230 0.080000
48.294628 14.145981 6.349455 0.060000
57.322304 2.254299 7.003821 0.060000
6.577129 -1.587239 1.132021 0.050000
46.301800 -23.808525 6.103161 0.050000
16.306736 4.331886 0.704417 0.040000
11.194514 1.533594 0.650670 0.100000
30.804014 1.224148 0.685706 0.000000
14.925026 -1.065365 0.635746 0.450000
6.492679 -1.541887 0.596964 0.670000
13.560687 -6.062157 0.553610 0.010000
6.291741 1.966700 0.114477 0.120000
6.513198 1.370836 0.112840 0.040000
6.629484 0.782959 0.110958 0.120000
6.750219 0.225209 0.099200 0.030000
6.661339 -0.356614 0.101805 0.060000
6.562185 -0.923613 0.099439 0.030000
6.348066 -1.492796 0.091764 0.060000
6.073959 -2.063128 0.083928 0.100000
51.343029 23.242065 7.456236 0.030000
45.293377 13.423998 6.168935 0.110000
57.343071 2.443906 7.229582 0.070000
11.996465 -0.805586 1.769079 0.250000
6.581789 -1.572221 1.152089 0.100000
45.301868 -23.047779 6.168380 0.120000
14.854175 6.009143 0.766861 0.050000
16.076744 4.322296 0.753782 0.050000
11.183755 1.568266 0.685771 0.180000
13.224084 0.527176 0.682227 0.000000
14.863866 -1.011692 0.680787 2.836000
18.887873 -3.530034 0.671929 0.010000
6.477151 -1.517253 0.617015 0.340000
13.539123 -5.987740 0.603830 0.020000
6.434989 2.059459 0.115196 0.140000
6.662021 1.433697 0.113462 0.050000
6.828501 0.836798 0.106678 0.110000
6.884798 0.247772 0.104635 0.040000
6.836306 -0.353263 0.102274 0.060000
6.727538 -0.940449 0.099808 0.040000
6.483603 -1.520224 0.097016 0.060000
6.270564 -2.144359 0.079139 0.100000
41.518749 18.832224 6.299188 0.060000
47.236877 14.239695 6.632045 0.060000
57.273346 2.661875 7.430213 0.080000
11.995607 -0.765723 1.804226 0.180000
6.611539 -1.561723 1.172206 0.200000
45.337448 -22.842739 6.354237 0.130000
14.877493 6.089402 0.822221 0.120000
13.137655 3.460764 0.767907 0.030000
11.207892 1.608607 0.720985 0.150000
30.924311 1.440702 0.901828 0.000000
13.363516 -2.315748 0.697023 0.030000
6.491821 -1.502025 0.632110 1.020000
6.568418 2.142011 0.120851 0.150000
6.850465 1.517339 0.109265 0.050000
6.967696 0.879453 0.112200 0.140000
7.074284 0.276406 0.105236 0.040000
6.996180 -0.345199 0.102722 0.060000
6.872798 -0.952670 0.100141 0.040000
6.649339 -1.557056 0.097311 0.060000
6.386296 -2.182168 0.084301 0.130000
44.094398 20.309759 6.871409 0.070000
46.968815 14.373980 6.796846 0.080000
40.992031 6.986968 5.728774 0.060000
57.253330 2.890671 7.666014 0.060000
6.616103 -1.541705 1.192293 0.380000
44.504063 -22.163891 6.439586 0.040000
11.222018 1.648738 0.761171 0.100000
13.212235 0.611652 0.767511 0.000000
11.821048 -1.945351 0.729374 0.050000
6.481292 -1.477295 0.652175 1.000000
11.177608 -4.638040 0.687684 0.020000
6.751289 2.255552 0.116750 0.160000
7.014080 1.590467 0.114964 0.050000
7.176616 0.938483 0.107964 0.110000
7.258674 0.309944 0.105842 0.040000
7.196143 -0.341369 0.103258 0.060000
7.053134 -0.969237 0.105550 0.040000
6.573316 -1.508613 0.127293 0.110000
6.552402 -2.239015 0.089523 0.110000
41.157398 19.114143 6.629296 0.100000
44.996746 13.951393 6.720127 0.060000
41.247303 7.206107 5.945258 0.100000
12.048924 -0.690019 1.894647 0.050000
6.575400 -1.507533 1.207314 0.360000
44.518925 -21.924316 6.645517 0.090000
13.160187 3.575849 0.868395 0.060000
30.734337 1.666260 1.132173 0.010000
8.933664 -1.325522 0.719141 0.050000
6.500949 -1.461990 0.672283 0.820000
13.489320 -5.759222 0.759552 0.010000
6.919136 2.368768 0.122609 0.130000
7.212414 1.679281 0.115812 0.060000
7.355515 0.996901 0.113649 0.130000
7.478058 0.344151 0.106542 0.040000
7.380917 -0.327828 0.103790 0.050000
7.263478 -0.985212 0.106040 0.030000
6.683557 -1.521541 0.137533 0.070000
6.723616 -2.300747 0.089741 0.110000
41.142170 19.358143 6.835166 0.080000
44.961918 14.175033 6.920869 0.070000
41.322781 7.416912 6.131240 0.030000
44.239338 -2.834593 6.250746 0.310000
11.676787 -1.887376 1.894225 0.000000
43.725956 -21.264643 6.715900 0.060000
13.099451 5.429739 0.950129 0.030000
15.266021 4.320944 0.976663 0.090000
30.766430 1.801458 1.252760 0.010000
8.928012 -1.295735 0.749237 0.080000
6.485324 -1.432357 0.692353 0.870000
13.538401 -5.718476 0.814832 0.030000
7.106802 2.492384 0.123559 0.120000
7.385835 1.762599 0.121574 0.050000
7.569421 1.056008 0.114427 0.120000
7.682432 0.378053 0.112202 0.040000
7.625871 -0.323136 0.104447 0.050000
7.493915 -1.005802 0.106565 0.030000
6.904583 -1.572299 0.132921 0.080000
6.950298 -2.386420 0.090014 0.110000
41.428699 19.767786 7.087439 0.070000
44.872234 14.392675 7.106446 0.070000
41.971161 7.733469 6.384112 0.060000
51.945049 3.279242 7.608601 0.000000
11.595396 -1.819014 1.919267 0.020000
6.579446 -1.462576 1.242492 0.100000
43.553913 -20.918390 6.856740 0.050000
15.224748 4.379981 1.026775 0.090000
13.219007 0.761313 0.903086 0.000000
12.710301 -0.613617 0.881647 0.070000
8.882093 -1.251698 0.774282 0.090000
6.504994 -1.417032 0.707461 0.860000
13.501360 -5.619351 0.865104 0.030000
7.284455 2.615790 0.129481 0.120000
7.603878 1.866793 0.122531 0.050000
7.753128 1.124520 0.120161 0.120000
7.886627 0.421971 0.112898 0.040000
7.835627 -0.309135 0.110047 0.040000
7.699163 -1.016873 0.107060 0.030000
7.131318 -2.437963 0.090295 0.100000
54.976643 26.969631 9.574600 0.060000
45.621742 14.906038 7.405314 0.040000
41.040588 7.750539 6.411747 0.050000
51.775204 3.505369 7.789001 0.020000
49.560619 -2.741626 7.344993 0.080000
8.824850 -1.245690 1.564162 1.000000
6.594007 -1.442367 1.262605 0.200000
43.613972 -20.687933 7.057755 0.110000
13.111217 5.584624 1.050736 0.040000
13.111668 3.739435 1.008878 0.110000
31.280054 2.105469 1.495234 0.020000
12.634157 -0.560213 0.921647 0.090000
8.876454 -1.221892 0.799378 0.090000
7.472107 2.739387 0.135431 0.110000
7.787106 1.960300 0.128357 0.050000
7.976840 1.193817 0.121003 0.110000
8.110806 0.466254 0.118648 0.030000
8.060393 -0.294827 0.110687 0.040000
7.889307 -1.023251 0.112532 0.030000
7.327610 -2.504233 0.095561 0.090000
50.059006 24.792156 8.983663 0.050000
44.857033 14.871057 7.493189 0.070000
41.081291 7.950713 6.587599 0.120000
11.256976 0.699821 1.962747 0.000000
51.307446 -2.619726 7.780010 0.080000
8.799131 -1.211250 1.584224 0.020000
6.588490 -1.417523 1.277683 0.320000
44.137947 -20.663792 7.304215 0.090000
15.246854 2.694850 1.090569 0.030000
13.231674 0.871264 0.988529 0.010000
12.608016 -0.505832 0.956782 0.120000
8.870624 -1.182089 0.824511 0.110000
6.519038 -1.371884 0.742666 0.690000
13.573977 -5.508308 0.965707 0.030000
7.733800 2.914430 0.136764 0.110000
8.039855 2.080162 0.129462 0.050000
8.220262 1.278494 0.121953 0.100000
8.394890 0.516704 0.119577 0.030000
8.335150 -0.279563 0.111461 0.040000
8.094447 -1.029342 0.118045 0.030000
7.513616 -2.555699 0.100855 0.090000
49.705181 24.964787 9.153382 0.080000
45.010242 15.198298 7.699808 0.080000
43.108196 8.587938 7.060263 0.030000
11.265925 0.749873 1.997957 0.020000
43.036446 -1.979239 6.730791 0.170000
8.858645 -1.190234 1.619457 0.010000
6.603052 -1.397314 1.297797 0.430000
44.298935 -20.481428 7.510316 0.060000
13.132791 5.749700 1.151407 0.060000
15.115709 4.567339 1.187189 0.100000
31.179255 2.377816 1.705985 0.010000
12.586957 -0.456373 0.996911 0.140000
8.884967 -1.151919 0.854661 0.100000
6.493320 -1.337444 0.762727 1.020000
10.630145 -4.024241 0.913539 0.060000
7.970690 3.078996 0.137994 0.110000
8.257692 2.194336 0.135455 0.050000
8.488665 1.363631 0.127970 0.110000
8.658978 0.566770 0.120452 0.030000
8.614810 -0.259203 0.112266 0.040000
8.389871 -1.048687 0.118745 0.030000
7.078327 -1.514199 0.198591 0.010000
7.780387 -2.645605 0.101217 0.080000
45.391960 15.599780 7.947299 0.060000
42.650459 8.713864 7.149538 0.040000
41.936611 -1.735205 6.713827 0.090000
8.933157 -1.168932 1.654732 0.010000
6.587441 -1.367663 1.312866 0.560000
44.595947 -20.351469 7.716576 0.090000
15.153833 4.657884 1.242625 0.060000
13.222272 2.390967 1.099155 0.020000
31.201183 2.522859 1.816583 0.000000
12.610890 -0.406053 1.037161 0.160000
8.889326 -1.121921 0.879784 0.100000
6.497896 -1.317407 0.777814 0.860000
10.578543 -3.945326 0.943698 0.080000
8.167956 3.222781 0.144044 0.120000
8.550051 2.334960 0.136741 0.060000
8.756986 1.453786 0.129005 0.100000
8.937967 0.622123 0.121386 0.030000
8.919561 -0.243364 0.113121 0.040000
8.635112 -1.058992 0.119346 0.030000
7.198565 -1.526935 0.208858 0.030000
7.971392 -2.696975 0.106525 0.080000
52.861835 27.371853 10.210581 0.060000
41.797497 14.552278 7.519018 0.080000
42.596127 8.917274 7.310153 0.030000
11.219135 0.833754 2.063147 0.060000
46.184780 -1.711775 7.525012 0.090000
8.957512 -1.138552 1.679908 0.030000
6.622095 -1.352070 1.333015 0.400000
44.464088 -20.014448 7.857486 0.050000
13.075075 5.878287 1.241736 0.060000
30.578779 6.276089 1.968911 0.040000
16.602604 1.339952 1.259073 0.010000
12.629754 -0.350792 1.067416 0.140000
8.943785 -1.095947 0.900023 0.070000
6.492379 -1.292564 0.792892 0.840000
10.582410 -3.890352 0.973913 0.160000
8.429445 3.407803 0.150414 0.120000
8.792692 2.459611 0.142838 0.050000
9.070011 1.559799 0.130217 0.100000
9.236762 0.687857 0.122410 0.030000
9.189115 -0.218215 0.118918 0.030000
8.940521 -1.078165 0.125072 0.030000
7.147552 -1.477996 0.233907 0.040000
52.611362 27.631479 10.380895 0.040000
41.832020 14.817435 7.670095 0.060000
42.661339 9.148049 7.451183 0.010000
42.018402 -1.344578 6.990495 0.140000
8.901621 -1.094670 1.694926 0.040000
6.611578 -1.327322 1.348080 0.220000
11.301060 -4.246161 2.204479 0.010000
13.119877 4.063861 1.225108 0.020000
30.595833 6.416073 2.069477 0.010000
15.717852 1.317985 1.261682 0.000000
12.693871 -0.309703 1.107736 0.100000
8.993231 -1.070087 0.925248 0.090000
10.550996 -3.821051 1.004089 0.160000
8.700849 3.598035 0.151830 0.120000
9.099856 2.610520 0.144201 0.050000
9.358136 1.660335 0.131342 0.100000
9.545541 0.753764 0.128462 0.030000
9.508672 -0.192091 0.119849 0.030000
9.220757 -1.087800 0.125768 0.030000
6.183503 -1.806755 0.295169 0.090000
47.395874 25.109045 9.567895 0.040000
41.985882 15.114793 7.846604 0.090000
48.951527 -1.356382 8.258562 0.090000
8.920978 -1.064385 1.720089 0.090000
6.595980 -1.297652 1.358149 0.430000
11.335182 -4.205647 2.244719 0.080000
13.057091 6.022675 1.322226 0.040000
13.118443 4.133718 1.260364 0.020000
30.597639 6.570823 2.155058 0.000000
11.224898 0.932511 1.073519 0.000000
12.692835 -0.259824 1.137919 0.070000
9.047676 -1.044132 0.950487 0.090000
6.496450 -1.247569 0.818070 0.190000
10.550068 -3.776153 1.029254 0.080000
8.962350 3.783075 0.153200 0.130000
9.357221 2.750474 0.145393 0.050000
9.641250 1.760757 0.137455 0.090000
9.829434 0.814212 0.129427 0.030000
9.793236 -0.166636 0.120687 0.030000
9.516071 -1.102165 0.131486 0.030000
9.248958 -2.037427 0.122312 0.030000
6.162797 -1.772200 0.310244 0.080000
46.988735 25.200842 9.682175 0.050000
41.911587 15.317874 7.992167 0.100000
46.791428 -1.081952 8.048942 0.100000
8.890273 -1.030022 1.735137 0.110000
6.600557 -1.277616 1.373236 0.640000
13.050550 6.097416 1.362487 0.010000
13.112300 4.188482 1.295552 0.060000
30.500246 6.683685 2.235224 0.020000
11.239051 0.972680 1.103706 0.020000
12.646820 -0.210788 1.162982 0.050000
9.072044 -1.013733 0.970664 0.100000
6.490933 -1.222726 0.833148 0.160000
9.188941 3.962428 0.159459 0.130000
9.649279 2.906076 0.151733 0.060000
9.874468 1.855222 0.143415 0.090000
10.118217 0.879736 0.135425 0.030000
10.042697 -0.136872 0.126448 0.030000
9.781117 -1.102089 0.132178 0.030000
9.499677 -2.072632 0.122835 0.020000
46.744823 25.385763 9.802227 0.050000
41.817486 15.515703 8.102657 0.080000
49.325447 11.385298 9.051911 0.020000
46.782730 -0.902435 8.144588 0.040000
8.904643 -0.999815 1.755287 0.100000
6.615132 -1.257388 1.388349 0.580000
6.744886 -2.035279 1.450797 0.050000
13.241336 2.675723 1.280265 0.010000
11.283019 1.023439 1.129010 0.040000
6.480430 -1.197959 0.843213 0.160000
6.609536 -1.935690 0.860808 0.060000
9.430529 4.142068 0.165757 0.120000
9.891742 3.040744 0.152867 0.050000
10.112795 1.944802 0.144370 0.080000
10.352119 0.939226 0.136256 0.030000
10.322165 -0.106514 0.127291 0.020000
10.011157 -1.102702 0.137776 0.030000
9.760395 -2.107645 0.123386 0.020000
9.253888 -3.077517 0.118458 0.060000
46.793003 25.721195 9.953601 0.030000
41.698727 15.698132 8.193027 0.050000
42.171425 9.862235 7.877563 0.030000
11.289527 1.054609 2.209154 0.000000
45.003647 -0.680808 7.960765 0.200000
8.934107 -0.974319 1.775459 0.060000
6.604641 -1.232603 1.393414 0.460000
6.744381 -2.010321 1.460889 0.210000
16.480028 8.202369 1.679267 0.000000
30.479710 6.952826 2.376173 0.010000
11.142540 1.045716 1.138726 0.050000
13.255143 -0.129435 1.249873 0.060000
6.490019 -1.177809 0.853313 0.150000
6.588842 -1.901117 0.870882 0.150000
9.652216 4.316327 0.171984 0.110000
10.149094 3.180679 0.159059 0.050000
10.355915 2.044457 0.150375 0.070000
10.585913 1.003696 0.142106 0.030000
10.576530 -0.071655 0.133084 0.030000
9.995900 -2.133176 0.133905 0.020000
9.459782 -3.123618 0.128824 0.060000
52.624317 29.428471 11.362618 0.050000
43.951160 16.819431 8.758080 0.030000
42.142696 10.041313 7.988155 0.040000
11.293694 1.094604 2.234313 0.010000
44.949684 -0.487137 8.051345 0.240000
6.738781 -1.980460 1.470985 1.000000
29.137743 15.612574 2.699864 0.050000
30.472063 7.082482 2.436635 0.060000
11.126820 1.080348 1.158814 0.080000
8.734346 -0.880287 1.000279 0.040000
6.544874 -1.171812 0.868479 0.410000
6.563164 -1.866621 0.875944 0.180000
9.878807 4.495679 0.178242 0.110000
10.366644 3.309850 0.165107 0.050000
10.594037 2.144017 0.156367 0.080000
10.829608 1.073358 0.148002 0.030000
10.755991 -0.043250 0.143659 0.030000
9.157262 -0.919334 0.221230 0.040000
9.680795 -3.174395 0.129212 0.060000
52.489002 29.690557 11.463241 0.030000
43.837246 17.012009 8.833500 0.030000
42.238403 10.252835 8.084192 0.040000
44.911156 -0.313101 8.121892 0.090000
6.593825 -1.192877 1.413534 0.080000
6.708103 -1.946059 1.476033 1.000000
29.089804 15.756442 2.765275 0.030000
30.444611 7.201757 2.497008 0.050000
11.160995 1.120936 1.179054 0.060000
8.778929 -0.859466 1.010473 0.090000
6.534479 -1.152026 0.873525 0.750000
6.577847 -1.851374 0.886039 0.150000
10.055886 4.649080 0.184274 0.120000
10.579208 3.438943 0.166142 0.050000
10.802369 2.233022 0.157241 0.090000
10.943698 1.120514 0.158475 0.030000
10.955379 -0.009425 0.144305 0.030000
9.151649 -0.889491 0.236326 0.090000
10.376569 -2.165928 0.144777 0.020000
42.802029 24.231131 9.492640 0.020000
43.753578 17.190109 8.923944 0.050000
42.239815 10.427563 8.174847 0.020000
11.257186 1.168808 2.264494 0.030000
48.212185 -0.167275 8.791058 0.070000
6.608426 -1.172612 1.418647 0.050000
6.657263 -1.902007 1.471064 1.200000
29.126108 15.941969 2.821059 0.090000
30.417391 7.311090 2.542344 0.060000
11.185184 1.161351 1.194268 0.120000
8.758331 -0.829892 1.020529 0.090000
6.498898 -1.122720 0.878541 0.760000
6.567261 -1.821590 0.891122 0.130000
10.727251 3.541778 0.171911 0.050000
11.005593 2.326913 0.163121 0.070000
11.012893 1.161810 0.168809 0.040000
11.139756 0.024094 0.149911 0.020000
9.126053 -0.860013 0.246369 0.130000
10.526624 -2.168073 0.150161 0.020000
10.022141 -3.242906 0.139849 0.060000
44.224926 25.342112 9.900488 0.020000
44.483475 17.693369 9.147722 0.050000
42.266273 10.602844 8.245567 0.010000
11.216605 1.198018 2.269497 0.030000
40.295815 0.016023 7.441061 0.140000
41.649059 -5.134924 7.685449 0.040000
6.577952 -1.148191 1.418658 0.050000
6.676946 -1.886664 1.481172 1.270000
29.078291 16.080875 2.876452 0.150000
30.414974 7.430901 2.587783 0.060000
11.024927 1.173284 1.193894 0.130000
12.962955 -1.330445 1.299646 0.160000
6.503596 -1.107646 0.883610 0.790000
6.576946 -1.806438 0.901204 0.160000
10.375543 4.930233 0.191154 0.100000
10.900098 3.655090 0.177783 0.050000
11.139322 2.394486 0.163721 0.070000
11.027098 1.202053 0.178996 0.120000
11.309053 0.062343 0.150495 0.030000
9.110455 -0.830343 0.256439 0.140000
10.666694 -2.170391 0.150518 0.020000
10.157487 -3.260335 0.145137 0.040000
44.031971 25.488276 9.945528 0.010000
44.226158 17.808371 9.172479 0.060000
